ply
format ascii 1.0
element vertex 1718
property float x
property float y
property float z
property float intensity
end_header
0.346213 0.716164 -0.0031 0
0.346213 0.716163 -0.0031 0
0.346213 0.716162 -0.0031 0
0.346213 0.716161 -0.0041 0
0.346213 0.71616 -0.0041 0
0.346213 0.71616 -0.0041 0
0.346213 0.716159 -0.004 0
0.346214 0.716156 -0.0038 0
0.346214 0.716156 -0.0038 0
0.346214 0.716155 -0.0038 0
0.346214 0.716154 -0.0034 0
0.346214 0.716153 -0.0034 0
0.346213 0.716152 -0.0034 0
0.346212 0.716152 -0.0037 0
0.346211 0.716151 -0.0037 0
0.34621 0.71615 -0.0037 0
0.34621 0.71615 -0.0041 0
0.34621 0.716149 -0.0041 0
0.34621 0.716149 -0.0036 0
0.346209 0.716148 -0.0036 0
0.346209 0.716148 -0.0036 0
0.346209 0.716147 -0.0035 0
0.346209 0.716145 -0.0035 0
0.346209 0.716144 -0.0031 0
0.346209 0.716143 -0.0031 0
0.346209 0.716142 -0.0035 0
0.346208 0.716142 -0.0035 0
0.346238 0.715142 -0.0033 0
0.346208 0.71614 -0.0033 0
0.346208 0.716139 -0.0033 0
0.346207 0.716138 -0.0037 0
0.346207 0.716137 -0.0037 0
0.346206 0.716136 -0.0037 0
0.346204 0.716135 -0.0033 0
0.346204 0.716135 -0.0032 0
0.346203 0.716135 -0.0032 0
0.346202 0.716134 -0.0036 0
0.346263 0.714135 -0.0036 0
0.346202 0.716133 -0.0036 0
0.346202 0.716132 -0.0037 0
0.346202 0.716131 -0.0037 0
0.346201 0.716129 -0.0035 0
0.3462 0.716129 -0.0035 0
0.3462 0.716129 -0.0037 0
0.346199 0.716129 -0.0037 0
0.346198 0.716129 -0.0032 0
0.346198 0.716127 -0.0032 0
0.346198 0.716127 -0.0034 0
0.346199 0.716126 -0.0034 0
0.346198 0.716125 -0.0039 0
0.346197 0.716124 -0.0039 0
0.34632 0.7161 -0.0035 0
0.34632 0.7161 -0.0035 0
0.346409 0.713101 -0.0036 0
0.346196 0.716121 -0.0036 0
0.346195 0.71612 -0.0036 0
0.346319 0.716095 -0.0036 0
0.346319 0.716093 -0.0032 0
0.346319 0.716093 -0.0032 0
0.34632 0.716091 -0.0032 0
0.34632 0.716089 -0.0038 0
0.34632 0.716088 -0.0034 0
0.34632 0.716086 -0.0034 0
0.346321 0.716085 -0.0034 0
0.346321 0.716083 -0.0037 0
0.346322 0.716082 -0.0037 0
0.346323 0.716081 -0.0035 0
0.346323 0.716081 -0.0035 0
0.346323 0.716078 -0.0036 0
0.346323 0.716077 -0.0036 0
0.346323 0.716076 -0.0034 0
0.346324 0.716075 -0.0034 0
0.346325 0.716073 -0.0035 0
0.346326 0.716072 -0.0035 0
0.346326 0.716071 -0.0038 0
0.346326 0.71607 -0.0038 0
0.346326 0.716068 -0.0041 0
0.346326 0.716066 -0.0041 0
0.346326 0.716065 -0.0037 0
0.346326 0.716063 -0.0037 0
0.346327 0.716062 -0.0035 0
0.346327 0.716062 -0.0035 0
0.346328 0.716061 -0.0036 0
0.346204 0.716081 -0.0036 0
0.346204 0.716079 -0.0036 0
0.346204 0.716078 -0.0036 0
0.346204 0.716077 -0.0039 0
0.346204 0.716074 -0.0039 0
0.346204 0.716073 -0.0037 0
0.346204 0.716072 -0.0037 0
0.346204 0.716071 -0.0037 0
0.346204 0.716068 -0.0035 0
0.346203 0.716067 -0.0032 0
0.346203 0.716066 -0.0032 0
0.346204 0.716064 -0.0035 0
0.346205 0.716063 -0.0035 0
0.346205 0.716062 -0.0035 0
0.346205 0.716061 -0.0035 0
0.346205 0.716061 -0.0035 0
0.346206 0.716061 -0.0034 0
0.346206 0.71606 -0.0034 0
0.346206 0.716058 -0.0034 0
0.346205 0.716058 -0.0033 0
0.346328 0.716033 -0.0033 0
0.346204 0.716056 -0.0038 0
0.346204 0.716056 -0.0038 0
0.346204 0.716056 -0.0037 0
0.346204 0.716056 -0.0037 0
0.346204 0.716055 -0.0038 0
0.346328 0.716031 -0.0038 0
0.346328 0.716031 -0.0038 0
0.346328 0.716031 -0.0037 0
0.346204 0.716054 -0.0037 0
0.346204 0.716055 -0.0037 0
0.346204 0.716055 -0.0037 0
0.346203 0.716055 -0.0038 0
0.346327 0.716031 -0.0038 0
0.346327 0.716031 -0.0034 0
0.346327 0.71603 -0.0034 0
0.346328 0.71603 -0.0034 0
0.346329 0.716028 -0.0037 0
0.34636 0.715027 -0.0037 0
0.34633 0.716027 -0.0033 0
0.34633 0.716026 -0.0033 0
0.34633 0.716024 -0.0034 0
0.34633 0.716022 -0.0039 0
0.346331 0.716021 -0.0039 0
0.346209 0.716044 -0.003 0
0.34621 0.716043 -0.003 0
0.34621 0.716042 -0.003 0
0.346209 0.716041 -0.0035 0
0.346208 0.716039 -0.0039 0
0.346208 0.716038 -0.0039 0
0.346207 0.716037 -0.0037 0
0.34633 0.716012 -0.0037 0
0.346328 0.71601 -0.0038 0
0.346358 0.71501 -0.0038 0
0.346327 0.716009 -0.0038 0
0.346327 0.716006 -0.0038 0
0.346327 0.716005 -0.0037 0
0.346327 0.716003 -0.0037 0
0.346327 0.716001 -0.0034 0
0.346326 0.715999 -0.0034 0
0.346325 0.715995 -0.0035 0
0.346324 0.715993 -0.0035 0
0.346323 0.715991 -0.0034 0
0.346323 0.715988 -0.0034 0
0.346322 0.715987 -0.0033 0
0.346322 0.715985 -0.0033 0
0.346321 0.715984 -0.0032 0
0.346321 0.715982 -0.0032 0
0.34632 0.715981 -0.0032 0
0.346196 0.716003 -0.0033 0
0.346195 0.716 -0.0033 0
0.346194 0.715998 -0.0035 0
0.346194 0.715995 -0.0035 0
0.346194 0.715993 -0.0036 0
0.346193 0.715991 -0.0036 0
0.346317 0.715965 -0.0037 0
0.346318 0.715964 -0.0037 0
0.346318 0.715962 -0.0034 0
0.346318 0.715961 -0.0034 0
0.346318 0.71596 -0.0028 0
0.346319 0.715958 -0.0028 0
0.346319 0.715957 -0.0036 0
0.346319 0.715956 -0.0036 0
0.346319 0.715955 -0.0037 0
0.346319 0.715956 -0.0037 0
0.346195 0.715978 -0.0033 0
0.346196 0.715977 -0.0035 0
0.346196 0.715976 -0.0035 0
0.346196 0.715975 -0.0035 0
0.346196 0.715973 -0.0038 0
0.34632 0.715948 -0.0035 0
0.34632 0.715948 -0.0035 0
0.346319 0.715947 -0.0035 0
0.346318 0.715946 -0.0037 0
0.346318 0.715945 -0.0037 0
0.346318 0.715943 -0.0037 0
0.346317 0.715942 -0.0037 0
0.346318 0.715941 -0.0037 0
0.346318 0.715941 -0.0035 0
0.346318 0.715939 -0.0035 0
0.346318 0.715938 -0.0035 0
0.346318 0.715937 -0.0034 0
0.346318 0.715937 -0.0034 0
0.346317 0.715936 -0.0034 0
0.346317 0.715935 -0.0037 0
0.346317 0.715935 -0.0037 0
0.346317 0.715933 -0.0037 0
0.346317 0.715932 -0.0037 0
0.346317 0.715928 -0.0034 0
0.346317 0.715927 -0.0034 0
0.346317 0.715927 -0.0038 0
0.346316 0.715927 -0.0038 0
0.346316 0.715926 -0.003 0
0.346316 0.715925 -0.003 0
0.346315 0.715924 -0.003 0
0.346314 0.715924 -0.0033 0
0.346314 0.715923 -0.0033 0
0.346314 0.715922 -0.0034 0
0.346314 0.715922 -0.0034 0
0.346313 0.71592 -0.0038 0
0.346312 0.715919 -0.0038 0
0.346312 0.715919 -0.0038 0
0.346311 0.715918 -0.0036 0
0.34631 0.715918 -0.0036 0
0.346308 0.715916 -0.0036 0
0.346308 0.715915 -0.0036 0
0.346307 0.715914 -0.0034 0
0.346307 0.715914 -0.0034 0
0.346306 0.715912 -0.0033 0
0.346305 0.715911 -0.0033 0
0.346303 0.715911 -0.0038 0
0.346302 0.71591 -0.0038 0
0.346301 0.715909 -0.0036 0
0.346301 0.715908 -0.0036 0
0.346301 0.715907 -0.0036 0
0.3463 0.715906 -0.0036 0
0.3463 0.715905 -0.0035 0
0.346175 0.715927 -0.0032 0
0.346174 0.715925 -0.0032 0
0.346173 0.715923 -0.0032 0
0.346504 0.704928 -0.0038 0
0.346172 0.715922 -0.0038 0
0.346172 0.715921 -0.0038 0
0.346171 0.71592 -0.0039 0
0.346171 0.715919 -0.0039 0
0.34617 0.715918 -0.0033 0
0.34617 0.715917 -0.0033 0
0.346171 0.715916 -0.0038 0
0.346171 0.715915 -0.0038 0
0.34617 0.715915 -0.0042 0
0.34617 0.715914 -0.0042 0
0.34617 0.715913 -0.0035 0
0.34617 0.715911 -0.0035 0
0.346171 0.715909 -0.0035 0
0.346172 0.715908 -0.0036 0
0.346173 0.715908 -0.0036 0
0.346175 0.715909 -0.0044 0
0.346176 0.715908 -0.0044 0
0.346176 0.715908 -0.0033 0
0.346176 0.715908 -0.0033 0
0.346176 0.715908 -0.0033 0
0.346176 0.715907 -0.0033 0
0.346299 0.715881 -0.0031 0
0.346299 0.71588 -0.0031 0
0.346298 0.715879 -0.004 0
0.346299 0.715878 -0.004 0
0.346299 0.715878 -0.004 0
0.346299 0.715877 -0.0037 0
0.346299 0.715876 -0.0037 0
0.346175 0.715899 -0.0032 0
0.346174 0.715898 -0.0032 0
0.346174 0.715899 -0.0036 0
0.346173 0.715898 -0.0036 0
0.346174 0.715898 -0.0036 0
0.346175 0.715898 -0.0034 0
0.346175 0.715896 -0.0034 0
0.346175 0.715895 -0.004 0
0.346299 0.71587 -0.0035 0
0.346299 0.715868 -0.0035 0
0.346175 0.71589 -0.0035 0
0.346176 0.71589 -0.0033 0
0.346176 0.715889 -0.0033 0
0.346177 0.715888 -0.0039 0
0.346177 0.715885 -0.0039 0
0.346177 0.715883 -0.0035 0
0.346178 0.715882 -0.0035 0
0.346179 0.71588 -0.0035 0
0.346179 0.715879 -0.0035 0
0.346302 0.715855 -0.0035 0
0.346179 0.715878 -0.0041 0
0.346273 0.716854 -0.0041 0
0.346179 0.715877 -0.0041 0
0.346303 0.715853 -0.004 0
0.346303 0.715852 -0.004 0
0.346304 0.71585 -0.0038 0
0.346304 0.715849 -0.0034 0
0.346364 0.713849 -0.0034 0
0.346303 0.715848 -0.0034 0
0.346304 0.715847 -0.0034 0
0.346303 0.715845 -0.0034 0
0.346179 0.715868 -0.0034 0
0.346303 0.715844 -0.0036 0
0.346303 0.715843 -0.0037 0
0.34618 0.715866 -0.0037 0
0.34618 0.715865 -0.0037 0
0.34618 0.715863 -0.0033 0
0.34618 0.71586 -0.0039 0
0.346304 0.715834 -0.0039 0
0.346304 0.715833 -0.0031 0
0.346304 0.715833 -0.0031 0
0.346305 0.715832 -0.0031 0
0.346305 0.715831 -0.0043 0
0.346305 0.715829 -0.0043 0
0.346305 0.715828 -0.0037 0
0.346305 0.715825 -0.0037 0
0.346305 0.715823 -0.0035 0
0.346304 0.715823 -0.0035 0
0.346304 0.715823 -0.0039 0
0.346303 0.715823 -0.0039 0
0.346179 0.715846 -0.0039 0
0.346178 0.715845 -0.0034 0
0.346177 0.715843 -0.0035 0
0.346176 0.715842 -0.0035 0
0.346176 0.715841 -0.0035 0
0.346176 0.71584 -0.0039 0
0.346176 0.71584 -0.0039 0
0.346177 0.71584 -0.0039 0
0.346177 0.71584 -0.0035 0
0.346177 0.715839 -0.0037 0
0.346177 0.715838 -0.0037 0
0.346177 0.715836 -0.0037 0
0.346178 0.715835 -0.0033 0
0.346177 0.715834 -0.0033 0
0.346177 0.715832 -0.0037 0
0.346176 0.715831 -0.0038 0
0.346176 0.715829 -0.0038 0
0.346176 0.715828 -0.0036 0
0.346176 0.715827 -0.0036 0
0.346176 0.715826 -0.0035 0
0.346176 0.715823 -0.0035 0
0.346176 0.715822 -0.0032 0
0.346177 0.71582 -0.0032 0
0.346177 0.71582 -0.0036 0
0.346176 0.715818 -0.0036 0
0.346176 0.715817 -0.0036 0
0.346176 0.715815 -0.0036 0
0.346177 0.715814 -0.0032 0
0.346177 0.715814 -0.0032 0
0.346177 0.715813 -0.0033 0
0.346177 0.715812 -0.0033 0
0.346177 0.71581 -0.0036 0
0.346177 0.71581 -0.0036 0
0.346177 0.71581 -0.0033 0
0.346177 0.715809 -0.0033 0
0.346177 0.715809 -0.0038 0
0.346176 0.715809 -0.0038 0
0.346176 0.715808 -0.0032 0
0.346176 0.715807 -0.0032 0
0.346175 0.715808 -0.0032 0
0.346176 0.715807 -0.0032 0
0.346176 0.715807 -0.0037 0
0.346176 0.715806 -0.0037 0
0.346177 0.715805 -0.0037 0
0.346176 0.715805 -0.0036 0
0.346177 0.715804 -0.0036 0
0.346177 0.715802 -0.0032 0
0.346177 0.7158 -0.0032 0
0.346177 0.715798 -0.0034 0
0.346178 0.715797 -0.0034 0
0.346178 0.715796 -0.0034 0
0.346178 0.715795 -0.0033 0
0.346178 0.715794 -0.0033 0
0.346178 0.715793 -0.0033 0
0.346178 0.715793 -0.0037 0
0.346269 0.712792 -0.0037 0
0.34618 0.715789 -0.0037 0
0.34618 0.715789 -0.0037 0
0.34618 0.715788 -0.0036 0
0.34618 0.715787 -0.0036 0
0.34618 0.715786 -0.0036 0
0.346181 0.715786 -0.0039 0
0.346181 0.715784 -0.0039 0
0.346181 0.715784 -0.0033 0
0.346181 0.715782 -0.0039 0
0.346182 0.715782 -0.0039 0
0.346182 0.715781 -0.0039 0
0.346182 0.715781 -0.004 0
0.346181 0.715781 -0.004 0
0.346181 0.71578 -0.004 0
0.346181 0.715779 -0.0036 0
0.346181 0.715778 -0.0036 0
0.34618 0.715776 -0.0034 0
0.34618 0.715775 -0.0034 0
0.34618 0.715775 -0.0037 0
0.34618 0.715775 -0.0037 0
0.34618 0.715773 -0.0033 0
0.34618 0.715773 -0.0033 0
0.346179 0.715773 -0.004 0
0.346179 0.715773 -0.004 0
0.346179 0.715772 -0.004 0
0.34618 0.715771 -0.0034 0
0.34618 0.715771 -0.0034 0
0.34618 0.71577 -0.0036 0
0.34618 0.71577 -0.0036 0
0.346179 0.715769 -0.0036 0
0.346179 0.715768 -0.0037 0
0.34618 0.715768 -0.0037 0
0.346181 0.715767 -0.0035 0
0.346181 0.715766 -0.0035 0
0.346182 0.715766 -0.0035 0
0.346182 0.715765 -0.0031 0
0.346183 0.715764 -0.0035 0
0.346183 0.715764 -0.0035 0
0.346183 0.715763 -0.0035 0
0.346274 0.712764 -0.0034 0
0.346185 0.715762 -0.0034 0
0.346185 0.715761 -0.0034 0
0.346186 0.71576 -0.0034 0
0.346186 0.71576 -0.0034 0
0.346186 0.715759 -0.0035 0
0.346186 0.715758 -0.0035 0
0.346187 0.715756 -0.0032 0
0.346187 0.715755 -0.0032 0
0.346187 0.715754 -0.003 0
0.346187 0.715754 -0.003 0
0.346186 0.715754 -0.0033 0
0.346186 0.715754 -0.0033 0
0.346186 0.715754 -0.0033 0
0.346187 0.715752 -0.0036 0
0.346187 0.71575 -0.0033 0
0.346187 0.715748 -0.0033 0
0.346187 0.715747 -0.0033 0
0.346218 0.714746 -0.0036 0
0.346188 0.715745 -0.0036 0
0.346189 0.715745 -0.0034 0
0.346189 0.715745 -0.0034 0
0.34619 0.715744 -0.0036 0
0.34619 0.715744 -0.0036 0
0.34619 0.715744 -0.0035 0
0.34619 0.715743 -0.0035 0
0.346189 0.715742 -0.0035 0
0.346189 0.715741 -0.0033 0
0.346188 0.71574 -0.004 0
0.346187 0.715739 -0.004 0
0.346186 0.715738 -0.004 0
0.346186 0.715737 -0.0034 0
0.346186 0.715737 -0.0034 0
0.346186 0.715737 -0.0039 0
0.346276 0.712738 -0.0039 0
0.346186 0.715736 -0.0039 0
0.346187 0.715735 -0.0036 0
0.346187 0.715733 -0.0036 0
0.346187 0.715732 -0.0036 0
0.346186 0.715729 -0.0037 0
0.346185 0.715728 -0.0034 0
0.346184 0.715727 -0.0034 0
0.346183 0.715725 -0.0038 0
0.346182 0.715724 -0.0038 0
0.346182 0.715723 -0.0035 0
0.346182 0.715722 -0.0035 0
0.346181 0.71572 -0.0036 0
0.34618 0.71572 -0.0036 0
0.34618 0.715719 -0.0039 0
0.34618 0.715718 -0.0039 0
0.346179 0.715717 -0.0035 0
0.346178 0.715716 -0.0035 0
0.346177 0.715715 -0.0035 0
0.346237 0.713715 -0.0041 0
0.346176 0.715714 -0.0041 0
0.346237 0.713714 -0.0038 0
0.346177 0.715712 -0.0038 0
0.346177 0.715711 -0.0035 0
0.346177 0.71571 -0.0035 0
0.346177 0.715707 -0.004 0
0.346177 0.715706 -0.004 0
0.346176 0.715705 -0.004 0
0.346299 0.71568 -0.0031 0
0.346299 0.715679 -0.0035 0
0.346299 0.715679 -0.0035 0
0.346299 0.715679 -0.0035 0
0.346175 0.715702 -0.0036 0
0.346175 0.715701 -0.0035 0
0.346299 0.715676 -0.0035 0
0.346299 0.715675 -0.0035 0
0.346178 0.715695 -0.0034 0
0.346179 0.715694 -0.0035 0
0.34618 0.715694 -0.0035 0
0.344947 0.756675 -0.0035 0
0.346181 0.715694 -0.0037 0
0.346211 0.714694 -0.0037 0
0.34618 0.715693 -0.0037 0
0.34618 0.715693 -0.0037 0
0.346303 0.715669 -0.0034 0
0.346302 0.715668 -0.0034 0
0.346302 0.715667 -0.0036 0
0.346302 0.715666 -0.0036 0
0.346302 0.715665 -0.0034 0
0.346303 0.715665 -0.0034 0
0.346304 0.715664 -0.0037 0
0.346304 0.715663 -0.0037 0
0.346303 0.715662 -0.0032 0
0.346303 0.715661 -0.0032 0
0.346303 0.715661 -0.0032 0
0.346302 0.715658 -0.0037 0
0.346302 0.715656 -0.0036 0
0.346301 0.715655 -0.0036 0
0.346301 0.715655 -0.0036 0
0.346301 0.715654 -0.0032 0
0.3463 0.715653 -0.0032 0
0.346301 0.715652 -0.0038 0
0.3463 0.71565 -0.0037 0
0.346301 0.71565 -0.0037 0
0.346302 0.71565 -0.0037 0
0.346302 0.715649 -0.0038 0
0.346303 0.715648 -0.0038 0
0.346302 0.715647 -0.0034 0
0.346303 0.715646 -0.0034 0
0.346303 0.715645 -0.0034 0
0.346303 0.715644 -0.0033 0
0.346302 0.715644 -0.0033 0
0.346302 0.715643 -0.0035 0
0.346302 0.715642 -0.0035 0
0.346301 0.71564 -0.0034 0
0.346301 0.71564 -0.0034 0
0.346301 0.715639 -0.0032 0
0.346302 0.715638 -0.0032 0
0.346302 0.715638 -0.0032 0
0.346302 0.715638 -0.0038 0
0.346302 0.715638 -0.0038 0
0.346302 0.715635 -0.0035 0
0.346302 0.715634 -0.0035 0
0.346301 0.715632 -0.004 0
0.346301 0.715631 -0.004 0
0.346178 0.715653 -0.004 0
0.346177 0.71565 -0.0036 0
0.346238 0.713649 -0.0036 0
0.346178 0.715647 -0.0036 0
0.346178 0.715645 -0.0038 0
0.346177 0.715644 -0.0038 0
0.346177 0.715643 -0.0038 0
0.346177 0.715641 -0.0035 0
0.346177 0.71564 -0.0035 0
0.346177 0.715639 -0.0037 0
0.3463 0.715613 -0.0037 0
0.346176 0.715636 -0.0037 0
0.346236 0.713636 -0.0037 0
0.346299 0.71561 -0.0034 0
0.346176 0.715632 -0.0034 0
0.346175 0.71563 -0.0034 0
0.346175 0.715629 -0.0032 0
0.346175 0.715629 -0.0032 0
0.346174 0.715626 -0.0037 0
0.346175 0.715626 -0.0037 0
0.346174 0.715625 -0.0033 0
0.346174 0.715624 -0.0033 0
0.346297 0.7156 -0.0033 0
0.346233 0.713623 -0.0033 0
0.346173 0.715621 -0.0033 0
0.346173 0.71562 -0.0037 0
0.346297 0.715593 -0.0037 0
0.346297 0.715591 -0.0035 0
0.346299 0.71559 -0.0035 0
0.346299 0.715589 -0.0036 0
0.346299 0.715587 -0.0036 0
0.346299 0.715586 -0.0036 0
0.346299 0.715585 -0.0031 0
0.3463 0.715584 -0.0031 0
0.3463 0.715583 -0.0036 0
0.3463 0.715583 -0.0036 0
0.3463 0.715583 -0.0039 0
0.3463 0.715582 -0.0039 0
0.3463 0.715581 -0.0032 0
0.346299 0.71558 -0.0032 0
0.346298 0.71558 -0.004 0
0.346298 0.715581 -0.004 0
0.346297 0.715581 -0.0036 0
0.346296 0.715582 -0.0036 0
0.346296 0.715581 -0.004 0
0.346295 0.715581 -0.004 0
0.346295 0.71558 -0.0034 0
0.346295 0.715578 -0.0038 0
0.346295 0.715577 -0.0038 0
0.346295 0.715576 -0.0038 0
0.346295 0.715574 -0.0038 0
0.346294 0.715571 -0.0038 0
0.346295 0.715569 -0.0031 0
0.346295 0.715567 -0.0031 0
0.346295 0.715566 -0.0035 0
0.346295 0.715563 -0.0036 0
0.346294 0.715562 -0.0036 0
0.346294 0.715561 -0.0036 0
0.346295 0.715559 -0.0037 0
0.346295 0.715557 -0.0033 0
0.346294 0.715556 -0.0033 0
0.346293 0.715555 -0.0033 0
0.346292 0.715553 -0.0038 0
0.346292 0.715553 -0.0038 0
0.346292 0.715551 -0.0038 0
0.346291 0.715549 -0.0038 0
0.346291 0.715548 -0.0032 0
0.34629 0.715546 -0.0032 0
0.346289 0.715546 -0.0038 0
0.346289 0.715544 -0.0038 0
0.346289 0.715543 -0.0032 0
0.346289 0.71554 -0.0037 0
0.346289 0.715538 -0.0037 0
0.346289 0.715537 -0.0037 0
0.346288 0.715534 -0.0036 0
0.346288 0.715533 -0.0036 0
0.346287 0.715532 -0.0036 0
0.346287 0.715532 -0.0036 0
0.346286 0.715531 -0.0038 0
0.346286 0.71553 -0.0038 0
0.346285 0.715529 -0.0038 0
0.346285 0.715528 -0.0041 0
0.346285 0.715527 -0.0041 0
0.346285 0.715527 -0.0036 0
0.346284 0.715526 -0.0036 0
0.346283 0.715526 -0.0035 0
0.346283 0.715525 -0.0035 0
0.346282 0.715523 -0.004 0
0.346282 0.715521 -0.004 0
0.346282 0.715519 -0.0037 0
0.346281 0.715515 -0.0037 0
0.346282 0.715515 -0.004 0
0.346282 0.715514 -0.004 0
0.346282 0.715514 -0.0035 0
0.346282 0.715513 -0.0035 0
0.346283 0.715513 -0.0035 0
0.346284 0.715511 -0.0035 0
0.346284 0.715511 -0.0034 0
0.346284 0.715509 -0.0034 0
0.346284 0.715508 -0.0034 0
0.346284 0.715506 -0.0037 0
0.346284 0.715504 -0.0037 0
0.346283 0.715502 -0.0041 0
0.346283 0.715502 -0.0041 0
0.346284 0.715502 -0.0035 0
0.346284 0.715501 -0.0035 0
0.346285 0.715501 -0.0036 0
0.346285 0.7155 -0.0036 0
0.346286 0.715499 -0.0036 0
0.346286 0.715498 -0.0035 0
0.346286 0.715498 -0.0035 0
0.346285 0.715498 -0.0035 0
0.346285 0.715497 -0.0028 0
0.346285 0.715494 -0.0032 0
0.346285 0.715493 -0.0032 0
0.346286 0.715492 -0.0033 0
0.346286 0.715491 -0.0033 0
0.346287 0.71549 -0.0033 0
0.346288 0.715488 -0.0035 0
0.346288 0.715487 -0.0035 0
0.346289 0.715486 -0.0034 0
0.34629 0.715485 -0.0034 0
0.34629 0.715485 -0.0034 0
0.34629 0.715484 -0.0039 0
0.34629 0.715483 -0.0039 0
0.34629 0.715481 -0.0037 0
0.346289 0.715478 -0.0037 0
0.346289 0.715477 -0.0037 0
0.346289 0.715476 -0.0037 0
0.346288 0.715475 -0.0036 0
0.346288 0.715474 -0.0036 0
0.346287 0.715474 -0.0036 0
0.346286 0.715472 -0.0037 0
0.346287 0.715471 -0.0037 0
0.346287 0.71547 -0.0037 0
0.346287 0.715468 -0.0032 0
0.346287 0.715467 -0.0036 0
0.346287 0.715466 -0.0036 0
0.346287 0.715465 -0.0037 0
0.346286 0.715464 -0.0037 0
0.346286 0.715463 -0.0037 0
0.346285 0.71546 -0.004 0
0.346283 0.715457 -0.004 0
0.346283 0.715455 -0.0035 0
0.346282 0.715454 -0.0035 0
0.346281 0.715452 -0.0035 0
0.34628 0.715452 -0.0035 0
0.346279 0.715451 -0.0035 0
0.346278 0.715449 -0.0035 0
0.346277 0.715447 -0.0037 0
0.346276 0.715445 -0.0037 0
0.346275 0.715444 -0.0037 0
0.346274 0.715442 -0.0037 0
0.346274 0.715441 -0.0037 0
0.346273 0.71544 -0.003 0
0.346272 0.71544 -0.003 0
0.346272 0.715439 -0.0034 0
0.346272 0.715438 -0.0034 0
0.346302 0.714438 -0.0034 0
0.346271 0.715435 -0.0036 0
0.346272 0.715434 -0.0036 0
0.346272 0.715433 -0.0036 0
0.346271 0.715433 -0.0036 0
0.346271 0.715431 -0.0038 0
0.346271 0.71543 -0.0038 0
0.346271 0.715428 -0.0036 0
0.34627 0.715427 -0.0036 0
0.34627 0.715425 -0.0036 0
0.34627 0.715424 -0.0036 0
0.346269 0.715424 -0.003 0
0.346269 0.715423 -0.003 0
0.346268 0.715422 -0.003 0
0.346328 0.713422 -0.0036 0
0.346267 0.71542 -0.0036 0
0.346267 0.715419 -0.0035 0
0.346267 0.715418 -0.0035 0
0.346267 0.715417 -0.0035 0
0.346267 0.715416 -0.0037 0
0.346267 0.715415 -0.0037 0
0.346267 0.715415 -0.0031 0
0.346267 0.715413 -0.0031 0
0.346267 0.715412 -0.0033 0
0.346267 0.715412 -0.0033 0
0.346267 0.715411 -0.0032 0
0.346266 0.71541 -0.0032 0
0.346266 0.71541 -0.0032 0
0.346266 0.71541 -0.0037 0
0.346266 0.715409 -0.0037 0
0.346296 0.714408 -0.0033 0
0.346296 0.714407 -0.0033 0
0.346266 0.715406 -0.0033 0
0.346265 0.715405 -0.0034 0
0.346624 0.70341 -0.0038 0
0.346264 0.715403 -0.0038 0
0.346263 0.715402 -0.0038 0
0.346263 0.715401 -0.0033 0
0.346263 0.715401 -0.0033 0
0.346263 0.7154 -0.0037 0
0.346262 0.715399 -0.0037 0
0.346262 0.715398 -0.0035 0
0.346137 0.715422 -0.0035 0
0.346137 0.715421 -0.0031 0
0.346137 0.715421 -0.0031 0
0.346137 0.71542 -0.0037 0
0.346137 0.715419 -0.0037 0
0.346137 0.715419 -0.0037 0
0.346137 0.715419 -0.0031 0
0.346137 0.715418 -0.0031 0
0.346137 0.715417 -0.0032 0
0.346137 0.715417 -0.0032 0
0.346136 0.715416 -0.0034 0
0.346137 0.715415 -0.0034 0
0.346261 0.715391 -0.0034 0
0.346261 0.71539 -0.0037 0
0.34626 0.715389 -0.0037 0
0.346259 0.715388 -0.0039 0
0.346135 0.715409 -0.0039 0
0.346135 0.715408 -0.0036 0
0.346258 0.715383 -0.0036 0
0.346258 0.715382 -0.0037 0
0.346348 0.712382 -0.0037 0
0.346258 0.71538 -0.0037 0
0.346256 0.715379 -0.0037 0
0.346255 0.715378 -0.0043 0
0.346255 0.715376 -0.0043 0
0.346255 0.715375 -0.0041 0
0.346254 0.715374 -0.0031 0
0.346254 0.715373 -0.0031 0
0.346254 0.715372 -0.0031 0
0.346254 0.715371 -0.0037 0
0.346255 0.71537 -0.0039 0
0.346255 0.715369 -0.0039 0
0.346256 0.715368 -0.0039 0
0.346256 0.715367 -0.0037 0
0.346256 0.715364 -0.0036 0
0.346256 0.715364 -0.0036 0
0.346257 0.715362 -0.0039 0
0.346257 0.715362 -0.0039 0
0.346258 0.715361 -0.0033 0
0.346259 0.71536 -0.0033 0
0.34626 0.715359 -0.0033 0
0.34626 0.715357 -0.004 0
0.346261 0.715356 -0.0035 0
0.346261 0.715355 -0.0035 0
0.346261 0.715355 -0.0035 0
0.346138 0.715377 -0.0033 0
0.346137 0.715376 -0.0034 0
0.346137 0.715375 -0.0034 0
0.346138 0.715374 -0.0037 0
0.346138 0.715374 -0.0037 0
0.346138 0.715374 -0.0033 0
0.346139 0.715374 -0.0033 0
0.346139 0.715375 -0.0036 0
0.346139 0.715374 -0.0035 0
0.34614 0.715374 -0.0035 0
0.346139 0.715373 -0.0035 0
0.346139 0.71537 -0.0035 0
0.346139 0.715369 -0.0035 0
0.346139 0.715368 -0.0035 0
0.347343 0.675385 -0.0035 0
0.346139 0.715367 -0.0034 0
0.34614 0.715366 -0.0034 0
0.34614 0.715365 -0.0038 0
0.34614 0.715364 -0.0038 0
0.34614 0.715363 -0.0038 0
0.34614 0.715362 -0.0035 0
0.34614 0.715362 -0.0035 0
0.34614 0.71536 -0.0039 0
0.34614 0.715359 -0.0039 0
0.34614 0.715358 -0.0034 0
0.34614 0.715357 -0.0034 0
0.34614 0.715356 -0.0036 0
0.346137 0.715354 -0.0036 0
0.346137 0.715353 -0.0036 0
0.346136 0.715351 -0.0036 0
0.346135 0.715349 -0.0035 0
0.346134 0.715348 -0.0035 0
0.346134 0.715347 -0.0035 0
0.346135 0.715345 -0.0035 0
0.346135 0.715344 -0.0035 0
0.346135 0.715343 -0.0036 0
0.346136 0.715341 -0.0036 0
0.346137 0.715339 -0.0036 0
0.346138 0.715338 -0.0036 0
0.346138 0.715337 -0.0037 0
0.346139 0.715336 -0.0037 0
0.346138 0.715334 -0.0037 0
0.346137 0.715333 -0.003 0
0.346137 0.715333 -0.003 0
0.346137 0.715332 -0.0038 0
0.346137 0.715331 -0.0038 0
0.346137 0.715331 -0.0038 0
0.346136 0.71533 -0.0033 0
0.346136 0.71533 -0.0033 0
0.346137 0.715329 -0.0034 0
0.346139 0.715325 -0.0034 0
0.34614 0.715323 -0.0034 0
0.34614 0.715321 -0.0034 0
0.346141 0.715319 -0.0038 0
0.346142 0.715317 -0.0038 0
0.346142 0.715315 -0.0038 0
0.346142 0.715313 -0.0036 0
0.346141 0.715312 -0.0031 0
0.346142 0.715311 -0.0031 0
0.346142 0.71531 -0.0035 0
0.346143 0.715309 -0.0035 0
0.346143 0.715308 -0.0035 0
0.346144 0.715308 -0.0035 0
0.346144 0.715307 -0.0034 0
0.346235 0.712308 -0.0034 0
0.346145 0.715307 -0.0039 0
0.346144 0.715304 -0.0039 0
0.346144 0.715303 -0.0034 0
0.346144 0.715302 -0.0034 0
0.346204 0.713303 -0.0038 0
0.346143 0.7153 -0.0038 0
0.346143 0.715299 -0.0037 0
0.346144 0.715298 -0.0037 0
0.346144 0.715298 -0.0029 0
0.346144 0.715297 -0.0029 0
0.346144 0.715296 -0.0035 0
0.346143 0.715295 -0.0035 0
0.346267 0.715269 -0.0036 0
0.346266 0.715266 -0.0036 0
0.346265 0.715265 -0.0038 0
0.346265 0.715264 -0.0038 0
0.346265 0.715262 -0.0038 0
0.346141 0.715284 -0.0038 0
0.34614 0.715281 -0.0034 0
0.346139 0.715281 -0.0034 0
0.346138 0.71528 -0.0037 0
0.346137 0.715277 -0.0037 0
0.346228 0.712277 -0.0036 0
0.346137 0.715275 -0.0036 0
0.346138 0.715274 -0.0035 0
0.346138 0.715273 -0.0035 0
0.346139 0.715273 -0.0035 0
0.3465 0.703278 -0.0036 0
0.34614 0.715272 -0.0036 0
0.346263 0.715248 -0.0037 0
0.346263 0.715247 -0.0037 0
0.346139 0.715269 -0.0037 0
0.346139 0.715268 -0.0034 0
0.346139 0.715267 -0.0034 0
0.346139 0.715267 -0.0034 0
0.346138 0.715266 -0.0034 0
0.346138 0.715265 -0.0037 0
0.346138 0.715264 -0.0037 0
0.346137 0.715262 -0.0032 0
0.346137 0.715261 -0.0032 0
0.346137 0.71526 -0.0033 0
0.346136 0.71526 -0.0033 0
0.346135 0.715258 -0.0035 0
0.346135 0.715257 -0.0035 0
0.346135 0.715256 -0.003 0
0.346135 0.715255 -0.003 0
0.346258 0.715229 -0.0036 0
0.346258 0.715227 -0.0036 0
0.346258 0.715225 -0.0036 0
0.346259 0.715225 -0.0036 0
0.346135 0.715246 -0.0032 0
0.34626 0.715222 -0.0032 0
0.34626 0.715221 -0.0037 0
0.34626 0.71522 -0.0037 0
0.34626 0.715217 -0.0037 0
0.346136 0.71524 -0.0037 0
0.346136 0.715239 -0.0034 0
0.346136 0.715237 -0.0037 0
0.346136 0.715235 -0.0037 0
0.346136 0.715234 -0.0037 0
0.346136 0.715232 -0.0032 0
0.346136 0.715231 -0.0035 0
0.346137 0.715229 -0.0035 0
0.346137 0.715228 -0.0035 0
0.346136 0.715227 -0.0038 0
0.346136 0.715227 -0.0035 0
0.346136 0.715226 -0.0035 0
0.346138 0.715225 -0.0035 0
0.346262 0.715201 -0.0035 0
0.346261 0.715198 -0.0036 0
0.346261 0.715197 -0.0036 0
0.346261 0.715195 -0.0039 0
0.346261 0.715194 -0.0033 0
0.346261 0.715193 -0.0033 0
0.34626 0.715192 -0.0033 0
0.346261 0.715191 -0.0038 0
0.346262 0.71519 -0.0038 0
0.346262 0.715189 -0.0035 0
0.346263 0.715186 -0.0035 0
0.346263 0.715184 -0.004 0
0.346262 0.715183 -0.004 0
0.346262 0.71518 -0.0036 0
0.346138 0.715202 -0.0036 0
0.346138 0.715201 -0.0036 0
0.346138 0.715199 -0.0034 0
0.346137 0.715198 -0.0033 0
0.346137 0.715197 -0.0033 0
0.346137 0.715197 -0.0033 0
0.346136 0.715193 -0.0034 0
0.346136 0.715192 -0.0041 0
0.346136 0.71519 -0.0041 0
0.346135 0.715189 -0.0041 0
0.346135 0.715189 -0.0039 0
0.346134 0.715188 -0.0037 0
0.346134 0.715187 -0.0037 0
0.346134 0.715187 -0.0037 0
0.346135 0.715186 -0.0032 0
0.346136 0.715185 -0.0031 0
0.346136 0.715184 -0.0031 0
0.346137 0.715184 -0.0031 0
0.346137 0.715183 -0.0033 0
0.346137 0.715182 -0.0036 0
0.346137 0.715182 -0.0036 0
0.346137 0.715182 -0.0036 0
0.346135 0.715181 -0.0041 0
0.346134 0.71518 -0.0036 0
0.346134 0.715178 -0.0036 0
0.346255 0.715154 -0.0034 0
0.346254 0.715153 -0.0034 0
0.346254 0.715152 -0.0032 0
0.346254 0.715151 -0.0032 0
0.346254 0.71515 -0.0037 0
0.346253 0.715149 -0.0037 0
0.346253 0.715148 -0.0031 0
0.346253 0.715148 -0.0031 0
0.346253 0.715146 -0.0038 0
0.346313 0.713145 -0.0038 0
0.346253 0.715143 -0.0038 0
0.346253 0.715142 -0.0038 0
0.346254 0.715139 -0.003 0
0.346254 0.715139 -0.003 0
0.346254 0.715139 -0.0032 0
0.346254 0.715137 -0.0032 0
0.34613 0.71516 -0.0038 0
0.346131 0.715158 -0.0038 0
0.34613 0.715158 -0.004 0
0.346131 0.715157 -0.004 0
0.346131 0.715157 -0.004 0
0.346131 0.715156 -0.0036 0
0.346131 0.715156 -0.0036 0
0.346131 0.715155 -0.0039 0
0.346131 0.715154 -0.0039 0
0.346131 0.715153 -0.0041 0
0.346131 0.715152 -0.0041 0
0.346131 0.715151 -0.0036 0
0.346132 0.71515 -0.0036 0
0.346256 0.715125 -0.0036 0
0.346133 0.715146 -0.0035 0
0.346133 0.715145 -0.004 0
0.346133 0.715145 -0.004 0
0.346133 0.715144 -0.004 0
0.346133 0.715143 -0.0036 0
0.346133 0.715142 -0.0036 0
0.346133 0.715141 -0.0039 0
0.346133 0.715141 -0.0039 0
0.346133 0.71514 -0.0039 0
0.346256 0.715114 -0.0038 0
0.346256 0.715114 -0.0035 0
0.346256 0.715113 -0.0035 0
0.346255 0.715111 -0.0035 0
0.346255 0.71511 -0.0038 0
0.346254 0.715107 -0.0033 0
0.346253 0.715106 -0.0033 0
0.346253 0.715105 -0.0033 0
0.346254 0.715105 -0.0034 0
0.346254 0.715104 -0.0034 0
0.346254 0.715103 -0.0038 0
0.346254 0.715102 -0.0038 0
0.346253 0.715101 -0.0038 0
0.346253 0.7151 -0.0036 0
0.346253 0.715099 -0.0036 0
0.346253 0.715098 -0.0036 0
0.346342 0.712099 -0.0036 0
0.346253 0.715097 -0.0036 0
0.346253 0.715097 -0.0034 0
0.346252 0.715096 -0.0034 0
0.346252 0.715094 -0.0038 0
0.34625 0.715091 -0.0038 0
0.346309 0.71309 -0.0034 0
0.346249 0.715088 -0.0034 0
0.346248 0.715086 -0.0036 0
0.346248 0.715084 -0.0036 0
0.346247 0.715083 -0.0034 0
0.346247 0.715082 -0.0034 0
0.346246 0.715081 -0.0036 0
0.346245 0.71508 -0.0036 0
0.346483 0.703109 -0.0036 0
0.346121 0.715102 -0.0036 0
0.346121 0.715101 -0.004 0
0.346121 0.7151 -0.004 0
0.346121 0.715099 -0.0037 0
0.34612 0.715098 -0.0037 0
0.346244 0.715074 -0.0033 0
0.346243 0.715073 -0.0033 0
0.346119 0.715095 -0.0042 0
0.346119 0.715094 -0.0042 0
0.346118 0.715092 -0.0029 0
0.346118 0.71509 -0.0029 0
0.346118 0.715089 -0.0034 0
0.346118 0.715088 -0.0036 0
0.346118 0.715087 -0.0036 0
0.346118 0.715086 -0.0036 0
0.346119 0.715084 -0.0035 0
0.346119 0.715083 -0.0033 0
0.346119 0.715082 -0.0033 0
0.346119 0.71508 -0.0033 0
0.346119 0.715079 -0.0035 0
0.346119 0.715078 -0.0031 0
0.346119 0.715076 -0.0031 0
0.346242 0.715052 -0.0031 0
0.346241 0.715051 -0.0039 0
0.346117 0.715073 -0.0039 0
0.346117 0.715071 -0.0033 0
0.346086 0.71607 -0.0033 0
0.346238 0.715045 -0.0033 0
0.346238 0.715044 -0.0036 0
0.346238 0.715042 -0.0038 0
0.346238 0.715041 -0.0038 0
0.346238 0.715039 -0.0038 0
0.346239 0.715038 -0.0035 0
0.346239 0.715037 -0.0035 0
0.34624 0.715033 -0.0038 0
0.34624 0.715032 -0.0038 0
0.346241 0.715031 -0.0035 0
0.346241 0.715032 -0.0035 0
0.346241 0.715032 -0.004 0
0.346241 0.715032 -0.004 0
0.346241 0.715031 -0.004 0
0.346242 0.715029 -0.0032 0
0.346243 0.715029 -0.0032 0
0.346242 0.715029 -0.0032 0
0.346243 0.715029 -0.0037 0
0.346243 0.715028 -0.0037 0
0.346244 0.715024 -0.0034 0
0.346245 0.715023 -0.0034 0
0.346245 0.715022 -0.0036 0
0.346275 0.714021 -0.0035 0
0.346245 0.71502 -0.0035 0
0.346244 0.715019 -0.0035 0
0.346244 0.715018 -0.0039 0
0.346243 0.715017 -0.0039 0
0.346243 0.715016 -0.0035 0
0.346243 0.715015 -0.0035 0
0.346242 0.715015 -0.0035 0
0.346243 0.715013 -0.0034 0
0.346243 0.71501 -0.0034 0
0.346243 0.715008 -0.0034 0
0.346244 0.715006 -0.0034 0
0.346244 0.715004 -0.0032 0
0.346245 0.715004 -0.0032 0
0.346246 0.715004 -0.0037 0
0.346246 0.715003 -0.0037 0
0.346245 0.715002 -0.0031 0
0.346245 0.715001 -0.0031 0
0.346245 0.715001 -0.0032 0
0.346245 0.715002 -0.0032 0
0.346246 0.715001 -0.0032 0
0.346246 0.714999 -0.0042 0
0.346247 0.714998 -0.0031 0
0.346277 0.713997 -0.0031 0
0.346247 0.714995 -0.0031 0
0.346247 0.714994 -0.0037 0
0.346246 0.714993 -0.0037 0
0.346246 0.71499 -0.0032 0
0.346246 0.714989 -0.0032 0
0.346306 0.712988 -0.0032 0
0.346246 0.714985 -0.0032 0
0.346245 0.714984 -0.0032 0
0.346276 0.713983 -0.0032 0
0.346246 0.714981 -0.0032 0
0.346246 0.714979 -0.0036 0
0.346246 0.714978 -0.0039 0
0.345019 0.755959 -0.0039 0
0.346245 0.714978 -0.0039 0
0.346245 0.714979 -0.0033 0
0.346244 0.714978 -0.0033 0
0.346244 0.714977 -0.0034 0
0.346245 0.714977 -0.0034 0
0.346244 0.714976 -0.0034 0
0.346245 0.714974 -0.0035 0
0.346245 0.714973 -0.0038 0
0.346245 0.714972 -0.0038 0
0.346244 0.714971 -0.0038 0
0.346244 0.714971 -0.0034 0
0.346244 0.71497 -0.0034 0
0.346244 0.714969 -0.0035 0
0.346119 0.71499 -0.0035 0
0.34612 0.714989 -0.0038 0
0.34612 0.714989 -0.0038 0
0.344886 0.755968 -0.004 0
0.346119 0.714985 -0.004 0
0.346119 0.714984 -0.0034 0
0.346119 0.714983 -0.0034 0
0.346119 0.714981 -0.0035 0
0.346119 0.71498 -0.0035 0
0.346118 0.714979 -0.004 0
0.346179 0.712979 -0.004 0
0.346117 0.714976 -0.0033 0
0.346116 0.714976 -0.0033 0
0.346116 0.714975 -0.0034 0
0.34624 0.714951 -0.0034 0
0.34624 0.71495 -0.0043 0
0.346241 0.714949 -0.0043 0
0.346241 0.714948 -0.0043 0
0.346241 0.714947 -0.004 0
0.34624 0.714946 -0.004 0
0.346239 0.714945 -0.0034 0
0.346239 0.714944 -0.0034 0
0.346238 0.714943 -0.0033 0
0.346237 0.714942 -0.0033 0
0.346236 0.714942 -0.0037 0
0.346236 0.714941 -0.0037 0
0.346236 0.71494 -0.0037 0
0.346235 0.714939 -0.003 0
0.346234 0.714938 -0.003 0
0.346262 0.713937 -0.0034 0
0.346232 0.714934 -0.0034 0
0.346231 0.714934 -0.0043 0
0.34623 0.714933 -0.0043 0
0.34623 0.714933 -0.0028 0
0.346229 0.714933 -0.0028 0
0.346228 0.714931 -0.0034 0
0.346228 0.71493 -0.0034 0
0.346228 0.714929 -0.0039 0
0.346228 0.714928 -0.0039 0
0.346228 0.714925 -0.0034 0
0.346228 0.714923 -0.0034 0
0.346227 0.714923 -0.0029 0
0.346227 0.714923 -0.0029 0
0.346102 0.714944 -0.0033 0
0.346226 0.714919 -0.0033 0
0.346226 0.714918 -0.0042 0
0.346102 0.71494 -0.0042 0
0.346104 0.714939 -0.0032 0
0.346104 0.714938 -0.0032 0
0.346104 0.714939 -0.0034 0
0.346104 0.714938 -0.0034 0
0.346194 0.711938 -0.0035 0
0.346104 0.714936 -0.0035 0
0.346105 0.714935 -0.0034 0
0.346135 0.713935 -0.0034 0
0.346106 0.714933 -0.0034 0
0.346106 0.714932 -0.0037 0
0.346107 0.714932 -0.0037 0
0.346108 0.714933 -0.0033 0
0.346109 0.714932 -0.0033 0
0.346109 0.714931 -0.0033 0
0.346109 0.71493 -0.0033 0
0.346109 0.71493 -0.0037 0
0.34611 0.714928 -0.0037 0
0.34611 0.714926 -0.0037 0
0.346234 0.714901 -0.0032 0
0.346234 0.7149 -0.0032 0
0.346235 0.714898 -0.0034 0
0.346235 0.714897 -0.0034 0
0.346236 0.714896 -0.0038 0
0.346266 0.713896 -0.0038 0
0.346236 0.714894 -0.0039 0
0.346236 0.714894 -0.0039 0
0.346236 0.714893 -0.0039 0
0.346236 0.714891 -0.0037 0
0.346235 0.714891 -0.0037 0
0.346235 0.71489 -0.0037 0
0.346234 0.714889 -0.0037 0
0.346234 0.714888 -0.0037 0
0.346233 0.714888 -0.0037 0
0.346233 0.714888 -0.0035 0
0.346232 0.714888 -0.0035 0
0.346232 0.714887 -0.0035 0
0.346231 0.714886 -0.0039 0
0.346231 0.714885 -0.0032 0
0.346231 0.714885 -0.0032 0
0.34623 0.714885 -0.0032 0
0.346105 0.714908 -0.0039 0
0.346105 0.714908 -0.0032 0
0.346105 0.714908 -0.0032 0
0.346105 0.714908 -0.0032 0
0.346105 0.714907 -0.0037 0
0.346105 0.714906 -0.0034 0
0.346228 0.714882 -0.0034 0
0.346228 0.714881 -0.0034 0
0.346103 0.714905 -0.0036 0
0.346103 0.714905 -0.0037 0
0.346102 0.714903 -0.0037 0
0.346102 0.714903 -0.0035 0
0.346103 0.714902 -0.0035 0
0.346226 0.714877 -0.0037 0
0.346225 0.714876 -0.0037 0
0.346225 0.714876 -0.0034 0
0.346224 0.714875 -0.0034 0
0.346099 0.714898 -0.0031 0
0.346221 0.714874 -0.0031 0
0.34622 0.714874 -0.0037 0
0.34622 0.714874 -0.0037 0
0.34622 0.714873 -0.0037 0
0.346219 0.714872 -0.0037 0
0.346219 0.71487 -0.0037 0
0.346308 0.71187 -0.0037 0
0.346219 0.714868 -0.0037 0
0.34622 0.714868 -0.0033 0
0.346221 0.714866 -0.0033 0
0.346222 0.714865 -0.004 0
0.346222 0.714863 -0.004 0
0.346222 0.714863 -0.0029 0
0.346222 0.714862 -0.0029 0
0.346221 0.71486 -0.0035 0
0.346221 0.714859 -0.0035 0
0.34622 0.714859 -0.0041 0
0.34622 0.714859 -0.0041 0
0.34622 0.714858 -0.0041 0
0.346221 0.714856 -0.0031 0
0.346221 0.714855 -0.0039 0
0.346221 0.714855 -0.0039 0
0.346221 0.714854 -0.0039 0
0.34622 0.714854 -0.0038 0
0.346096 0.714876 -0.0038 0
0.346095 0.714875 -0.0034 0
0.346095 0.714873 -0.0034 0
0.346095 0.714871 -0.0034 0
0.346095 0.71487 -0.0037 0
0.346095 0.714868 -0.0033 0
0.346095 0.714868 -0.0033 0
0.346095 0.714866 -0.0033 0
0.346094 0.714865 -0.0035 0
0.346095 0.714863 -0.0035 0
0.346094 0.714862 -0.0034 0
0.346094 0.71486 -0.0034 0
0.346094 0.714859 -0.0035 0
0.346094 0.714858 -0.0035 0
0.346094 0.714857 -0.0038 0
0.346094 0.714856 -0.0038 0
0.346094 0.714855 -0.0038 0
0.346184 0.711855 -0.0032 0
0.346093 0.714853 -0.0032 0
0.346094 0.714852 -0.0036 0
0.346094 0.714851 -0.0036 0
0.346094 0.71485 -0.0038 0
0.346093 0.714849 -0.0038 0
0.346094 0.714848 -0.0036 0
0.346094 0.714846 -0.0036 0
0.346094 0.714845 -0.0036 0
0.346218 0.714821 -0.0039 0
0.346249 0.71382 -0.0031 0
0.346219 0.714819 -0.0031 0
0.346219 0.714817 -0.0031 0
0.346219 0.714816 -0.0039 0
0.346219 0.714814 -0.0039 0
0.346218 0.714813 -0.0035 0
0.346218 0.714811 -0.0035 0
0.346093 0.714834 -0.0035 0
0.346094 0.714833 -0.0038 0
0.346218 0.714809 -0.0037 0
0.346219 0.714807 -0.0037 0
0.346219 0.714807 -0.0037 0
0.346219 0.714806 -0.0034 0
0.346219 0.714806 -0.0034 0
0.346309 0.711806 -0.0036 0
0.346219 0.714802 -0.0036 0
0.346219 0.7148 -0.0037 0
0.346219 0.714799 -0.0037 0
0.346219 0.714798 -0.0034 0
0.346218 0.714797 -0.0034 0
0.346217 0.714796 -0.004 0
0.346218 0.714795 -0.004 0
0.346218 0.714794 -0.0034 0
0.346218 0.714792 -0.0034 0
0.346218 0.71479 -0.0034 0
0.346218 0.714789 -0.0033 0
0.346217 0.714787 -0.0037 0
0.346216 0.714786 -0.0037 0
0.346215 0.714786 -0.0037 0
0.346215 0.714784 -0.0034 0
0.346215 0.714784 -0.0034 0
0.346215 0.714783 -0.0039 0
0.346214 0.714783 -0.0039 0
0.346215 0.714782 -0.0035 0
0.346214 0.714781 -0.0035 0
0.346214 0.714781 -0.0035 0
0.346213 0.71478 -0.0035 0
0.346213 0.714779 -0.0035 0
0.346213 0.714779 -0.0035 0
0.346212 0.714779 -0.0035 0
0.346211 0.714778 -0.0037 0
0.34621 0.714777 -0.0037 0
0.34621 0.714776 -0.0036 0
0.34621 0.714775 -0.0036 0
0.346209 0.714775 -0.0036 0
0.346209 0.714774 -0.0036 0
0.346208 0.714772 -0.0036 0
0.346208 0.714771 -0.0037 0
0.346207 0.71477 -0.0037 0
0.346207 0.714769 -0.0034 0
0.346207 0.714768 -0.0034 0
0.346206 0.714767 -0.0033 0
0.346206 0.714766 -0.0033 0
0.346206 0.714765 -0.0043 0
0.346205 0.714763 -0.0043 0
0.346205 0.714762 -0.0037 0
0.346205 0.714761 -0.0037 0
0.346204 0.714758 -0.0034 0
0.346204 0.714758 -0.0034 0
0.346205 0.714756 -0.0037 0
0.346205 0.714756 -0.0037 0
0.346172 0.71178 -0.0031 0
0.346081 0.714779 -0.0031 0
0.346205 0.714755 -0.0036 0
0.346206 0.714754 -0.0036 0
0.346206 0.714753 -0.0035 0
0.346205 0.714752 -0.0035 0
0.346205 0.714751 -0.0035 0
0.346205 0.71475 -0.0038 0
0.346205 0.71475 -0.0038 0
0.346206 0.714749 -0.0036 0
0.346206 0.714748 -0.0036 0
0.346206 0.714747 -0.0034 0
0.346205 0.714746 -0.0034 0
0.346205 0.714744 -0.0037 0
0.346204 0.714743 -0.0037 0
0.346204 0.714743 -0.0034 0
0.346204 0.714742 -0.0034 0
0.346204 0.714741 -0.0038 0
0.346204 0.71474 -0.0038 0
0.346203 0.71474 -0.0035 0
0.346203 0.714739 -0.0037 0
0.346203 0.714738 -0.0037 0
0.346203 0.714738 -0.0037 0
0.346203 0.714737 -0.0032 0
0.346203 0.714736 -0.0032 0
0.346204 0.714736 -0.0033 0
0.346205 0.714735 -0.0033 0
0.346205 0.714734 -0.0038 0
0.346294 0.711734 -0.0038 0
0.346204 0.714729 -0.0037 0
0.346204 0.714728 -0.0037 0
0.346204 0.714727 -0.003 0
0.346205 0.714727 -0.003 0
0.346205 0.714725 -0.0038 0
0.346205 0.714723 -0.0038 0
0.346206 0.714722 -0.0034 0
0.346205 0.714721 -0.0034 0
0.346206 0.71472 -0.004 0
0.346206 0.714719 -0.004 0
0.346206 0.714719 -0.004 0
0.346205 0.714718 -0.0031 0
0.346206 0.714717 -0.0031 0
0.346205 0.714715 -0.0037 0
0.346205 0.714713 -0.0037 0
0.346204 0.714712 -0.0033 0
0.346204 0.71471 -0.0033 0
0.346204 0.714708 -0.0034 0
0.346204 0.714707 -0.0034 0
0.346202 0.714705 -0.0037 0
0.346201 0.714703 -0.0037 0
0.3462 0.714703 -0.0036 0
0.3462 0.714701 -0.0036 0
0.346199 0.7147 -0.0037 0
0.346199 0.714699 -0.0037 0
0.346199 0.714697 -0.0034 0
0.346198 0.714697 -0.0034 0
0.346197 0.714697 -0.0034 0
0.346197 0.714697 -0.0038 0
0.346197 0.714696 -0.0038 0
0.346197 0.714694 -0.0032 0
0.346197 0.714694 -0.0032 0
0.346197 0.714693 -0.0038 0
0.346197 0.714693 -0.0038 0
0.346197 0.714693 -0.0033 0
0.346197 0.714692 -0.0033 0
0.346197 0.714693 -0.0035 0
0.346197 0.714693 -0.0035 0
0.346197 0.714693 -0.0034 0
0.346197 0.714692 -0.0034 0
0.346197 0.714691 -0.0034 0
0.346198 0.71469 -0.0034 0
0.346199 0.714688 -0.0034 0
0.346199 0.714686 -0.0034 0
0.3462 0.714685 -0.0034 0
0.346199 0.714683 -0.0034 0
0.346199 0.714681 -0.0033 0
0.346199 0.71468 -0.0033 0
0.346198 0.714679 -0.0033 0
0.346074 0.714701 -0.0037 0
0.346074 0.7147 -0.0037 0
0.346074 0.714699 -0.0037 0
0.346013 0.716696 -0.0033 0
0.346073 0.714696 -0.0033 0
0.346073 0.714695 -0.0033 0
0.346073 0.714694 -0.0033 0
0.346073 0.714694 -0.0033 0
0.346072 0.714693 -0.0033 0
0.346195 0.714669 -0.0039 0
0.346071 0.714692 -0.0039 0
0.346072 0.714692 -0.0039 0
0.346071 0.71469 -0.0034 0
0.346191 0.714665 -0.004 0
0.346198 0.714664 -0.004 0
0.346343 0.71464 -0.004 0
0.346989 0.71452 0.01 0
0.347214 0.714467 0.0465 0
0.347558 0.71439 0.0465 0
0.347839 0.713312 -0.0033 0
0.347871 0.713288 -0.0033 0
0.347903 0.713268 0.032 0
0.347782 0.71329 0.032 0
0.347636 0.713348 0.032 0
0.347151 0.713487 0.0021 0
0.347013 0.713524 0.0072 0
0.347025 0.712533 0.0072 0
0.347011 0.712539 0.0072 0
0.346996 0.712553 -0.0066 0
0.346994 0.712558 -0.0046 0
0.34687 0.712585 -0.0046 0
0.346746 0.712608 -0.0042 0
0.346782 0.711609 -0.0042 0
0.346517 0.712655 0.002 0
0.346435 0.711675 0.002 0
0.346184 0.711715 0.0085 0
0.346027 0.712732 0.0085 0
0.346051 0.711726 -0.0021 0
0.345557 0.711806 -0.0021 0
0.345531 0.712793 0.0034 0
0.345414 0.712806 0.0034 0
0.345424 0.712801 -0.0017 0
0.345455 0.711809 -0.0017 0
0.345454 0.711819 -0.0026 0
0.345455 0.711828 -0.0026 0
0.345456 0.711833 0.0019 0
0.345454 0.711836 0.0019 0
0.345453 0.711836 -0.0016 0
0.345454 0.711835 -0.0016 0
0.345455 0.711834 -0.000699997 0
0.345458 0.711837 -0.000699997 0
0.34546 0.711837 0.0023 0
0.345461 0.711837 0.0023 0
0.345464 0.711835 -9.99975e-05 0
0.345465 0.711834 -9.99975e-05 0
0.345434 0.712834 -0.000499998 0
0.345467 0.711836 -0.000499998 0
0.345466 0.711836 0.0019 0
0.345465 0.711838 0.0019 0
0.345463 0.711838 0.0019 0
0.345428 0.712838 -0.000399997 0
0.345457 0.711838 -0.000399997 0
0.345459 0.711842 -0.0031 0
0.345461 0.711845 -0.0031 0
0.345459 0.711844 0.0016 0
0.345462 0.711843 0.0016 0
0.345464 0.711842 -9.99975e-05 0
0.345465 0.711839 -9.99975e-05 0
0.345467 0.711837 -9.99975e-05 0
0.345466 0.711833 2.56114e-09 0
0.345466 0.711833 0.0021 0
0.345465 0.711832 0.0021 0
0.345464 0.71183 0.0021 0
0.345464 0.711827 -0.0038 0
0.345464 0.711829 -0.000899998 0
0.345464 0.71183 -0.000899998 0
0.345465 0.71183 -0.000899998 0
0.345465 0.711829 -0.0021 0
0.345464 0.711827 -0.0026 0
0.345466 0.711825 -0.0026 0
0.345466 0.711824 -0.0026 0
0.345467 0.711824 0.0018 0
0.34547 0.711824 -0.0011 0
0.34547 0.711825 -0.0011 0
0.34547 0.711823 -0.0011 0
0.34544 0.712823 -0.0014 0
0.345472 0.711822 -0.0014 0
0.345472 0.71182 2.09548e-09 0
0.345472 0.711819 2.09548e-09 0
0.345473 0.711819 -0.0025 0
0.345473 0.711818 -0.0025 0
0.345473 0.711818 0.000100002 0
0.345474 0.711818 0.000100002 0
0.345474 0.711817 0.000400002 0
0.345473 0.711816 0.000400002 0
0.345474 0.711815 -0.000999998 0
0.345474 0.711813 -0.000999998 0
0.345474 0.711812 -0.0017 0
0.345473 0.711811 -0.0017 0
0.345471 0.71181 -0.0012 0
0.345472 0.711814 -0.0012 0
0.345473 0.711815 -0.0025 0
0.345472 0.711813 0.000400002 0
0.345469 0.71181 0.000400002 0
0.345433 0.712805 0.000400002 0
0.345464 0.711802 0.0015 0
0.345465 0.711801 0.0015 0
0.345472 0.711804 -9.9998e-05 0
0.345441 0.712803 -9.9998e-05 0
0.345473 0.711804 -0.0021 0
0.345441 0.712799 0.002 0
0.345473 0.711798 0.002 0
0.345472 0.711796 0.002 0
0.34547 0.711795 0.000800002 0
0.345437 0.712794 0.000800002 0
0.345439 0.71279 -0.0028 0
0.34547 0.711791 -0.0028 0
0.34547 0.71179 0.000600002 0
0.345438 0.71279 0.000600002 0
0.345437 0.712788 1.86265e-09 0
0.345532 0.709789 1.86265e-09 0
0.345469 0.711787 -0.000599998 0
0.345467 0.711786 -0.000599998 0
0.345435 0.712784 -0.0027 0
0.345465 0.711785 -0.0027 0
0.345341 0.711808 -0.0034 0
0.345464 0.711783 -0.0034 0
0.345434 0.712781 0.0019 0
0.345468 0.711784 0.0019 0
0.34547 0.711784 0.0019 0
0.345478 0.711785 0.000300002 0
0.345479 0.711784 -0.0019 0
0.345479 0.711784 -0.0019 0
0.345475 0.711781 -0.000499998 0
0.345475 0.711781 -0.000499998 0
0.345474 0.711779 -0.0014 0
0.345473 0.711778 -0.0014 0
0.345471 0.711776 0.0017 0
0.345441 0.712776 0.0017 0
0.345473 0.711774 -0.0024 0
0.34547 0.711775 -0.0024 0
0.345469 0.711775 0.0035 0
0.34547 0.711775 0.0035 0
0.34547 0.711773 -0.0013 0
0.345468 0.711769 -0.0013 0
0.345468 0.711768 0.000200002 0
0.345468 0.711769 0.000200002 0
0.345467 0.711767 -0.0012 0
0.345436 0.712766 -0.0012 0
0.345467 0.711767 0.002 0
0.345465 0.711765 0.002 0
0.345466 0.711765 0.0014 0
0.345432 0.712763 0.0014 0
0.350756 0.541845 0.0014 0
0.345462 0.711761 0.0027 0
0.345462 0.71176 0.0027 0
0.345462 0.711758 0.0012 0
0.345464 0.711757 0.0012 0
0.345464 0.711755 -0.000299998 0
0.345466 0.711756 -0.000299998 0
0.345467 0.711758 -0.002 0
0.34553 0.709759 -0.002 0
0.345469 0.711756 -0.002 0
0.34547 0.711756 -0.0013 0
0.345472 0.711756 -0.0013 0
0.345472 0.711757 -0.000599998 0
0.345472 0.711755 -0.000599998 0
0.345471 0.711755 -0.000599998 0
0.34547 0.711753 -0.0027 0
0.345467 0.71175 -0.0027 0
0.345465 0.711748 0.000600002 0
0.345464 0.711747 0.000600002 0
0.345465 0.711746 0.000600002 0
0.345463 0.711745 0.003 0
0.345463 0.711743 0.003 0
0.345463 0.711743 -0.0017 0
0.345463 0.711743 -0.0017 0
0.345466 0.711743 0.000700002 0
0.345464 0.711741 0.000700002 0
0.345456 0.711738 0.000200002 0
0.346756 0.669756 0.000200002 0
0.345441 0.711735 0.000200002 0
0.345381 0.711732 0.000400002 0
0.345224 0.712727 0.000400002 0
0.3451 0.711722 -0.003 0
0.344877 0.712713 -0.003 0
0.344654 0.711704 -0.003 0
0.344006 0.711706 -0.000899998 0
0.343704 0.711693 -0.0025 0
0.343378 0.71168 -0.0025 0
0.343388 0.700674 -0.0025 0
0.342702 0.711658 -0.0031 0
0.342042 0.709716 -0.0031 0
0.341471 0.711726 -0.0027 0
0.340936 0.711735 -0.0027 0
0.339951 0.711726 -0.000499998 0
0.339135 0.711779 -0.000499998 0
0.338678 0.711763 -0.0025 0
0.33807 0.711772 -0.0025 0
0.336826 0.711788 -0.0021 0
0.336217 0.710795 -0.0021 0
0.335529 0.711802 -0.0035 0
0.334875 0.711812 -0.0035 0
0.334109 0.71085 -0.0035 0
0.332336 0.710945 0.0021 0
0.331609 0.710953 0.000900002 0
0.330765 0.709979 0.000900002 0
0.329982 0.709979 0.000900002 0
0.32843 0.708975 0.001 0
0.327565 0.709968 -0.0035 0
0.326714 0.70996 -0.0035 0
0.32601 0.708928 -0.0035 0
0.325196 0.706921 0.0018 0
0.323536 0.708849 -0.000399998 0
0.322718 0.708824 -0.000399998 0
0.321497 0.708867 -0.000399998 0
0.320592 0.670949 0.0012 0
0.319512 0.669964 0.0044 0
0.318524 0.668958 0.0044 0
0.31599 0.668042 0.0011 0
0.314782 0.66805 0.0011 0
0.313563 0.668054 -0.0025 0
0.311175 0.668028 -0.0025 0
0.310075 0.666999 -0.002 0
0.308993 0.666944 -0.002 0
0.307772 0.666914 -0.000699998 0
0.305409 0.665832 -0.000699998 0
0.304166 0.664806 0.000100002 0
0.302928 0.665752 0.000100002 0
0.300512 0.664642 0.0018 0
0.299225 0.66459 0.0018 0
0.297764 0.663589 0.0015 0
0.296292 0.662588 0.0015 0
0.29331 0.662555 0.0016 0
0.291715 0.662544 0.0016 0
0.290011 0.661552 0.000500001 0
0.286809 0.661484 -0.0028 0
0.285166 0.660455 -0.0028 0
0.283582 0.6604 -0.0028 0
0.281961 0.660342 -0.0024 0
0.280475 0.659256 -0.0024 0
0.278879 0.659193 -0.0043 0
0.277329 0.659115 -0.0043 0
0.275907 0.659011 -0.0043 0
0.273113 0.658768 0.0013 0
0.271861 0.658612 0.0041 0
0.27058 0.658458 0.0041 0
0.268263 0.658077 0.0016 0
0.267064 0.658875 0.0016 0
0.265819 0.657694 0.000600001 0
0.264626 0.658491 0.000600001 0
0.262623 0.657991 9.31323e-10 0
0.261284 0.65979 9.31323e-10 0
0.25976 0.659642 0.0016 0
0.258208 0.6595 0.0016 0
0.257553 0.659188 0.0016 0
0.254563 0.658887 -0.0045 0
0.253007 0.659731 -0.0055 0
0.251356 0.659597 -0.0055 0
0.249881 0.659446 -0.0055 0
0.246502 0.659181 0.000200001 0
0.244736 0.659084 -0.0057 0
0.242899 0.657988 -0.0057 0
0.241084 0.658865 -0.0057 0
0.23732 0.658624 -0.0019 0
0.23559 0.658456 0.000100001 0
0.233922 0.658259 0.000100001 0
0.231711 0.659183 0.000100001 0
0.228042 0.696664 0.0017 0
0.226283 0.698487 0.0021 0
0.224522 0.699309 0.0021 0
0.221213 0.698904 -0.0029 0
0.219439 0.697729 -0.0029 0
0.21762 0.698557 -0.000299999 0
0.215798 0.698388 -0.000299999 0
0.212065 0.69806 -0.0038 0
0.210105 0.697927 -0.0038 0
0.207927 0.698816 -0.0047 0
0.205856 0.698673 -0.0047 0
0.203983 0.697511 -0.0047 0
0.202596 0.620404 0.0028 0
0.199624 0.697258 0.0028 0
0.197098 0.6972 -0.0052 0
0.195029 0.698037 -0.0052 0
0.192835 0.6969 -0.0052 0
0.190229 0.697843 -0.0021 0
0.185485 0.696628 0 0
0.182943 0.696556 0 0
0.180376 0.697486 0 0
0.177894 0.697421 0.0002 0
0.17532 0.697352 0.0002 0
0.172997 0.696227 0.0074 0
0.169815 0.696761 0.0074 0
0.168405 0.696555 -0.0011 0
0.166881 0.696403 -0.0011 0
0.165393 0.697273 0.0047 0
0.16197 0.69623 0.0047 0
0.160349 0.696246 0.0049 0
0.158973 0.696237 0.0049 0
0.15783 0.696204 0.000599999 0
0.1556 0.696199 0.000599999 0
0.154622 0.696198 0.0021 0
0.153607 0.697226 0.0021 0
0.152781 0.697223 0.0016 0
0.152026 0.69622 0.0016 0
0.151331 0.697217 0.0016 0
0.149992 0.69724 0.0005 0
0.149462 0.696236 0.0028 0
0.148978 0.69623 0.0028 0
0.148253 0.696195 -0.000900001 0
0.14788 0.696193 -0.000900001 0
0.14754 0.696191 -0.001 0
0.147231 0.69719 -0.001 0
0.146946 0.696189 -0.001 0
0.146684 0.697188 0.0013 0
0.146443 0.697185 0.0013 0
0.146226 0.697183 -0.0022 0
0.146026 0.696179 -0.0022 0
0.145847 0.696175 -0.0022 0
0.14569 0.697171 -0.0034 0
0.145536 0.696169 -0.0034 0
