ply
format ascii 1.0
element vertex 1716
property float x
property float y
property float z
property float intensity
end_header
0.2352 0.716517 -0.0033 0
0.2352 0.716516 -0.0033 0
0.235199 0.716515 -0.0033 0
0.235198 0.716514 -0.0033 0
0.235197 0.716514 -0.0036 0
0.235196 0.716513 -0.0036 0
0.235196 0.716512 -0.0036 0
0.235196 0.716512 -0.004 0
0.235196 0.716511 -0.004 0
0.235195 0.716511 -0.0035 0
0.235195 0.71651 -0.0035 0
0.235195 0.71651 -0.0035 0
0.235194 0.716509 -0.0034 0
0.235194 0.716507 -0.0034 0
0.235194 0.716506 -0.003 0
0.235194 0.716505 -0.003 0
0.235194 0.716504 -0.0034 0
0.235194 0.716504 -0.0034 0
0.235224 0.715504 -0.0032 0
0.235194 0.716502 -0.0032 0
0.235193 0.716501 -0.0032 0
0.235193 0.7165 -0.0036 0
0.235192 0.716499 -0.0036 0
0.235191 0.716498 -0.0032 0
0.23519 0.716497 -0.0032 0
0.235189 0.716497 -0.0031 0
0.235188 0.716497 -0.0031 0
0.235188 0.716496 -0.0035 0
0.23525 0.714497 -0.0035 0
0.235188 0.716495 -0.0035 0
0.235188 0.716494 -0.0036 0
0.235187 0.716493 -0.0036 0
0.235187 0.716491 -0.0034 0
0.235186 0.716491 -0.0034 0
0.235185 0.716491 -0.0036 0
0.235185 0.716491 -0.0036 0
0.235184 0.716491 -0.0031 0
0.235184 0.716489 -0.0031 0
0.235184 0.716489 -0.0033 0
0.235184 0.716488 -0.0033 0
0.235184 0.716487 -0.0038 0
0.235183 0.716486 -0.0038 0
0.235306 0.716462 -0.0034 0
0.235305 0.716462 -0.0034 0
0.235396 0.713463 -0.0035 0
0.235181 0.716483 -0.0035 0
0.235181 0.716482 -0.0035 0
0.235305 0.716457 -0.0035 0
0.235305 0.716455 -0.0031 0
0.235305 0.716455 -0.0031 0
0.235306 0.716453 -0.0031 0
0.235305 0.716451 -0.0037 0
0.235305 0.71645 -0.0033 0
0.235306 0.716449 -0.0033 0
0.235306 0.716447 -0.0033 0
0.235307 0.716446 -0.0036 0
0.235308 0.716445 -0.0036 0
0.235308 0.716443 -0.0034 0
0.235308 0.716443 -0.0034 0
0.235309 0.71644 -0.0035 0
0.235309 0.716439 -0.0035 0
0.235309 0.716438 -0.0033 0
0.235309 0.716437 -0.0033 0
0.235311 0.716435 -0.0034 0
0.235311 0.716434 -0.0034 0
0.235311 0.716433 -0.0037 0
0.235312 0.716432 -0.0037 0
0.235312 0.71643 -0.004 0
0.235311 0.716428 -0.004 0
0.235311 0.716427 -0.0036 0
0.235312 0.716425 -0.0036 0
0.235312 0.716424 -0.0034 0
0.235313 0.716424 -0.0034 0
0.235313 0.716423 -0.0035 0
0.23519 0.716443 -0.0035 0
0.23519 0.716441 -0.0035 0
0.23519 0.71644 -0.0035 0
0.23519 0.716439 -0.0038 0
0.23519 0.716436 -0.0038 0
0.23519 0.716435 -0.0036 0
0.23519 0.716434 -0.0036 0
0.23519 0.716433 -0.0036 0
0.235189 0.71643 -0.0034 0
0.235189 0.716429 -0.0031 0
0.235189 0.716428 -0.0031 0
0.23519 0.716426 -0.0034 0
0.23519 0.716425 -0.0034 0
0.23519 0.716424 -0.0034 0
0.23519 0.716423 -0.0034 0
0.235191 0.716423 -0.0034 0
0.235191 0.716423 -0.0033 0
0.235191 0.716422 -0.0033 0
0.235191 0.71642 -0.0033 0
0.23519 0.71642 -0.0032 0
0.235313 0.716395 -0.0032 0
0.235189 0.716418 -0.0037 0
0.23519 0.716418 -0.0037 0
0.23519 0.716418 -0.0036 0
0.23519 0.716418 -0.0036 0
0.23519 0.716417 -0.0037 0
0.235314 0.716393 -0.0037 0
0.235314 0.716393 -0.0037 0
0.235314 0.716393 -0.0036 0
0.23519 0.716417 -0.0036 0
0.23519 0.716417 -0.0036 0
0.235189 0.716417 -0.0036 0
0.235189 0.716417 -0.0037 0
0.235312 0.716393 -0.0037 0
0.235313 0.716393 -0.0033 0
0.235313 0.716392 -0.0033 0
0.235313 0.716392 -0.0033 0
0.235315 0.71639 -0.0036 0
0.235346 0.71539 -0.0036 0
0.235315 0.716389 -0.0032 0
0.235316 0.716388 -0.0032 0
0.235316 0.716386 -0.0033 0
0.235316 0.716384 -0.0038 0
0.235316 0.716383 -0.0038 0
0.235195 0.716406 -0.0029 0
0.235195 0.716405 -0.0029 0
0.235195 0.716404 -0.0029 0
0.235195 0.716403 -0.0034 0
0.235194 0.716401 -0.0038 0
0.235193 0.7164 -0.0038 0
0.235193 0.716399 -0.0036 0
0.235316 0.716374 -0.0036 0
0.235314 0.716372 -0.0037 0
0.235344 0.715372 -0.0037 0
0.235313 0.716371 -0.0037 0
0.235313 0.716368 -0.0037 0
0.235313 0.716367 -0.0036 0
0.235313 0.716365 -0.0036 0
0.235312 0.716363 -0.0033 0
0.235312 0.716361 -0.0033 0
0.23531 0.716357 -0.0034 0
0.23531 0.716355 -0.0034 0
0.235309 0.716353 -0.0033 0
0.235308 0.71635 -0.0033 0
0.235308 0.716349 -0.0032 0
0.235308 0.716347 -0.0032 0
0.235307 0.716346 -0.0031 0
0.235307 0.716344 -0.0031 0
0.235306 0.716343 -0.0031 0
0.235182 0.716365 -0.0032 0
0.23518 0.716362 -0.0032 0
0.23518 0.71636 -0.0034 0
0.23518 0.716357 -0.0034 0
0.23518 0.716355 -0.0035 0
0.235179 0.716353 -0.0035 0
0.235303 0.716327 -0.0036 0
0.235303 0.716326 -0.0036 0
0.235304 0.716325 -0.0033 0
0.235304 0.716323 -0.0033 0
0.235304 0.716322 -0.0027 0
0.235304 0.71632 -0.0027 0
0.235305 0.716319 -0.0035 0
0.235305 0.716318 -0.0035 0
0.235305 0.716318 -0.0036 0
0.235304 0.716318 -0.0036 0
0.235181 0.71634 -0.0032 0
0.235181 0.716339 -0.0034 0
0.235182 0.716338 -0.0034 0
0.235182 0.716337 -0.0034 0
0.235182 0.716335 -0.0037 0
0.235306 0.716311 -0.0034 0
0.235305 0.71631 -0.0034 0
0.235304 0.716309 -0.0034 0
0.235304 0.716308 -0.0036 0
0.235304 0.716307 -0.0036 0
0.235303 0.716305 -0.0036 0
0.235303 0.716304 -0.0036 0
0.235304 0.716304 -0.0036 0
0.235304 0.716303 -0.0034 0
0.235304 0.716301 -0.0034 0
0.235304 0.7163 -0.0034 0
0.235304 0.716299 -0.0033 0
0.235304 0.716299 -0.0033 0
0.235303 0.716298 -0.0033 0
0.235303 0.716298 -0.0036 0
0.235303 0.716297 -0.0036 0
0.235302 0.716295 -0.0036 0
0.235303 0.716294 -0.0036 0
0.235303 0.71629 -0.0033 0
0.235303 0.716289 -0.0033 0
0.235302 0.716289 -0.0037 0
0.235302 0.716289 -0.0037 0
0.235301 0.716288 -0.0029 0
0.235301 0.716287 -0.0029 0
0.235301 0.716286 -0.0029 0
0.2353 0.716286 -0.0032 0
0.2353 0.716286 -0.0032 0
0.2353 0.716285 -0.0033 0
0.235299 0.716284 -0.0033 0
0.235299 0.716282 -0.0037 0
0.235298 0.716281 -0.0037 0
0.235298 0.716281 -0.0037 0
0.235297 0.71628 -0.0035 0
0.235295 0.71628 -0.0035 0
0.235294 0.716278 -0.0035 0
0.235293 0.716277 -0.0035 0
0.235293 0.716277 -0.0033 0
0.235292 0.716276 -0.0033 0
0.235291 0.716274 -0.0032 0
0.23529 0.716274 -0.0032 0
0.235289 0.716273 -0.0037 0
0.235288 0.716272 -0.0037 0
0.235287 0.716271 -0.0035 0
0.235287 0.71627 -0.0035 0
0.235287 0.716269 -0.0035 0
0.235286 0.716268 -0.0035 0
0.235286 0.716267 -0.0034 0
0.23516 0.716289 -0.0031 0
0.23516 0.716287 -0.0031 0
0.235159 0.716285 -0.0031 0
0.235497 0.70529 -0.0037 0
0.235158 0.716284 -0.0037 0
0.235158 0.716283 -0.0037 0
0.235157 0.716282 -0.0038 0
0.235157 0.716281 -0.0038 0
0.235156 0.71628 -0.0032 0
0.235156 0.716279 -0.0032 0
0.235156 0.716278 -0.0037 0
0.235156 0.716277 -0.0037 0
0.235156 0.716277 -0.0041 0
0.235156 0.716276 -0.0041 0
0.235156 0.716275 -0.0034 0
0.235156 0.716273 -0.0034 0
0.235157 0.716271 -0.0034 0
0.235158 0.71627 -0.0035 0
0.235159 0.71627 -0.0035 0
0.23516 0.716271 -0.0043 0
0.235162 0.71627 -0.0043 0
0.235162 0.71627 -0.0032 0
0.235161 0.71627 -0.0032 0
0.235162 0.71627 -0.0032 0
0.235162 0.716269 -0.0032 0
0.235285 0.716243 -0.003 0
0.235285 0.716242 -0.003 0
0.235284 0.716241 -0.003 0
0.235285 0.71624 -0.0039 0
0.235285 0.71624 -0.0039 0
0.235285 0.716239 -0.0036 0
0.235285 0.716238 -0.0036 0
0.235161 0.716261 -0.0031 0
0.23516 0.71626 -0.0031 0
0.23516 0.716261 -0.0035 0
0.235159 0.71626 -0.0035 0
0.235159 0.71626 -0.0035 0
0.23516 0.716259 -0.0033 0
0.235161 0.716258 -0.0033 0
0.235161 0.716257 -0.0039 0
0.235285 0.716232 -0.0034 0
0.235285 0.71623 -0.0034 0
0.235161 0.716252 -0.0034 0
0.235162 0.716251 -0.0032 0
0.235162 0.716251 -0.0032 0
0.235162 0.71625 -0.0038 0
0.235162 0.716247 -0.0038 0
0.235163 0.716245 -0.0034 0
0.235164 0.716244 -0.0034 0
0.235165 0.716242 -0.0034 0
0.235165 0.716241 -0.0034 0
0.235288 0.716217 -0.0034 0
0.235165 0.71624 -0.004 0
0.235258 0.717216 -0.004 0
0.235165 0.716239 -0.004 0
0.235289 0.716215 -0.0039 0
0.235289 0.716214 -0.0039 0
0.235289 0.716212 -0.0037 0
0.23529 0.716211 -0.0033 0
0.235351 0.714211 -0.0033 0
0.235289 0.71621 -0.0033 0
0.23529 0.716209 -0.0033 0
0.235289 0.716208 -0.0033 0
0.235165 0.71623 -0.0033 0
0.235289 0.716206 -0.0035 0
0.235289 0.716205 -0.0036 0
0.235166 0.716228 -0.0036 0
0.235166 0.716227 -0.0036 0
0.235165 0.716225 -0.0032 0
0.235165 0.716222 -0.0038 0
0.235289 0.716196 -0.0038 0
0.23529 0.716196 -0.003 0
0.23529 0.716195 -0.003 0
0.235291 0.716194 -0.003 0
0.235291 0.716193 -0.0042 0
0.235291 0.716191 -0.0042 0
0.235291 0.71619 -0.0036 0
0.235291 0.716187 -0.0036 0
0.23529 0.716186 -0.0034 0
0.23529 0.716185 -0.0034 0
0.23529 0.716185 -0.0038 0
0.235289 0.716185 -0.0038 0
0.235164 0.716208 -0.0038 0
0.235164 0.716207 -0.0033 0
0.235163 0.716205 -0.0033 0
0.235162 0.716204 -0.0034 0
0.235162 0.716203 -0.0034 0
0.235162 0.716202 -0.0038 0
0.235162 0.716202 -0.0038 0
0.235163 0.716202 -0.0038 0
0.235163 0.716202 -0.0034 0
0.235163 0.716201 -0.0036 0
0.235162 0.7162 -0.0036 0
0.235163 0.716198 -0.0036 0
0.235163 0.716197 -0.0032 0
0.235163 0.716196 -0.0032 0
0.235163 0.716194 -0.0036 0
0.235162 0.716193 -0.0037 0
0.235162 0.716191 -0.0037 0
0.235161 0.71619 -0.0035 0
0.235162 0.716189 -0.0035 0
0.235162 0.716188 -0.0034 0
0.235162 0.716185 -0.0034 0
0.235162 0.716184 -0.0031 0
0.235162 0.716183 -0.0031 0
0.235162 0.716182 -0.0035 0
0.235162 0.71618 -0.0035 0
0.235162 0.716179 -0.0035 0
0.235162 0.716177 -0.0035 0
0.235163 0.716176 -0.0031 0
0.235163 0.716176 -0.0031 0
0.235163 0.716174 -0.0032 0
0.235163 0.716174 -0.0032 0
0.235163 0.716172 -0.0035 0
0.235163 0.716172 -0.0035 0
0.235163 0.716172 -0.0032 0
0.235163 0.716171 -0.0032 0
0.235162 0.716171 -0.0037 0
0.235162 0.716171 -0.0037 0
0.235162 0.71617 -0.0031 0
0.235161 0.716169 -0.0031 0
0.235161 0.71617 -0.0031 0
0.235161 0.716169 -0.0031 0
0.235162 0.716169 -0.0036 0
0.235162 0.716168 -0.0036 0
0.235162 0.716167 -0.0036 0
0.235162 0.716167 -0.0035 0
0.235163 0.716166 -0.0035 0
0.235163 0.716164 -0.0031 0
0.235163 0.716162 -0.0031 0
0.235163 0.71616 -0.0033 0
0.235164 0.716159 -0.0033 0
0.235164 0.716158 -0.0033 0
0.235164 0.716157 -0.0032 0
0.235164 0.716156 -0.0032 0
0.235164 0.716155 -0.0032 0
0.235164 0.716155 -0.0036 0
0.235257 0.713154 -0.0036 0
0.235166 0.716151 -0.0036 0
0.235166 0.716151 -0.0036 0
0.235166 0.71615 -0.0035 0
0.235166 0.716149 -0.0035 0
0.235166 0.716148 -0.0035 0
0.235166 0.716148 -0.0038 0
0.235166 0.716146 -0.0038 0
0.235167 0.716146 -0.0032 0
0.235167 0.716144 -0.0038 0
0.235167 0.716144 -0.0038 0
0.235167 0.716143 -0.0038 0
0.235167 0.716143 -0.0039 0
0.235167 0.716143 -0.0039 0
0.235167 0.716142 -0.0039 0
0.235166 0.716141 -0.0035 0
0.235166 0.71614 -0.0035 0
0.235166 0.716138 -0.0033 0
0.235166 0.716137 -0.0033 0
0.235166 0.716137 -0.0036 0
0.235166 0.716137 -0.0036 0
0.235166 0.716136 -0.0032 0
0.235166 0.716135 -0.0032 0
0.235165 0.716135 -0.0039 0
0.235165 0.716134 -0.0039 0
0.235165 0.716134 -0.0039 0
0.235166 0.716133 -0.0033 0
0.235166 0.716133 -0.0033 0
0.235166 0.716132 -0.0035 0
0.235166 0.716132 -0.0035 0
0.235165 0.716131 -0.0035 0
0.235165 0.71613 -0.0036 0
0.235166 0.71613 -0.0036 0
0.235166 0.716129 -0.0034 0
0.235167 0.716128 -0.0034 0
0.235168 0.716128 -0.0034 0
0.235168 0.716127 -0.003 0
0.235168 0.716126 -0.0034 0
0.235169 0.716126 -0.0034 0
0.235169 0.716125 -0.0034 0
0.235262 0.713126 -0.0033 0
0.235171 0.716124 -0.0033 0
0.235171 0.716123 -0.0033 0
0.235172 0.716122 -0.0033 0
0.235172 0.716122 -0.0033 0
0.235172 0.716121 -0.0034 0
0.235172 0.71612 -0.0034 0
0.235172 0.716118 -0.0031 0
0.235173 0.716117 -0.0031 0
0.235173 0.716116 -0.0029 0
0.235172 0.716116 -0.0029 0
0.235172 0.716116 -0.0032 0
0.235172 0.716116 -0.0032 0
0.235172 0.716116 -0.0032 0
0.235173 0.716114 -0.0035 0
0.235173 0.716112 -0.0032 0
0.235173 0.71611 -0.0032 0
0.235173 0.716109 -0.0032 0
0.235205 0.715109 -0.0035 0
0.235174 0.716107 -0.0035 0
0.235175 0.716107 -0.0033 0
0.235175 0.716107 -0.0033 0
0.235175 0.716106 -0.0035 0
0.235176 0.716106 -0.0035 0
0.235176 0.716106 -0.0034 0
0.235176 0.716105 -0.0034 0
0.235175 0.716104 -0.0034 0
0.235175 0.716103 -0.0032 0
0.235173 0.716102 -0.0039 0
0.235173 0.716101 -0.0039 0
0.235172 0.7161 -0.0039 0
0.235172 0.716099 -0.0033 0
0.235172 0.716098 -0.0033 0
0.235172 0.716099 -0.0038 0
0.235264 0.7131 -0.0038 0
0.235172 0.716098 -0.0038 0
0.235173 0.716097 -0.0035 0
0.235173 0.716095 -0.0035 0
0.235173 0.716094 -0.0035 0
0.235172 0.716091 -0.0036 0
0.235171 0.71609 -0.0033 0
0.23517 0.716089 -0.0033 0
0.235169 0.716087 -0.0037 0
0.235168 0.716086 -0.0037 0
0.235168 0.716085 -0.0034 0
0.235168 0.716084 -0.0034 0
0.235167 0.716082 -0.0035 0
0.235166 0.716082 -0.0035 0
0.235166 0.716081 -0.0038 0
0.235165 0.71608 -0.0038 0
0.235165 0.716079 -0.0034 0
0.235164 0.716078 -0.0034 0
0.235163 0.716077 -0.0034 0
0.235224 0.714077 -0.004 0
0.235162 0.716076 -0.004 0
0.235224 0.714076 -0.0037 0
0.235163 0.716074 -0.0037 0
0.235163 0.716073 -0.0034 0
0.235163 0.716072 -0.0034 0
0.235163 0.716069 -0.0039 0
0.235163 0.716068 -0.0039 0
0.235162 0.716067 -0.0039 0
0.235285 0.716042 -0.003 0
0.235285 0.716041 -0.0034 0
0.235285 0.716041 -0.0034 0
0.235285 0.716041 -0.0034 0
0.235161 0.716064 -0.0035 0
0.235161 0.716062 -0.0034 0
0.235285 0.716038 -0.0034 0
0.235285 0.716037 -0.0034 0
0.235164 0.716057 -0.0033 0
0.235165 0.716056 -0.0034 0
0.235165 0.716056 -0.0034 0
0.233904 0.757036 -0.0034 0
0.235167 0.716056 -0.0036 0
0.235198 0.715056 -0.0036 0
0.235166 0.716055 -0.0036 0
0.235166 0.716055 -0.0036 0
0.235289 0.716031 -0.0033 0
0.235288 0.71603 -0.0033 0
0.235287 0.716029 -0.0035 0
0.235288 0.716028 -0.0035 0
0.235288 0.716027 -0.0033 0
0.235289 0.716027 -0.0033 0
0.235289 0.716026 -0.0036 0
0.23529 0.716026 -0.0036 0
0.235289 0.716024 -0.0031 0
0.235289 0.716024 -0.0031 0
0.235289 0.716023 -0.0031 0
0.235288 0.71602 -0.0036 0
0.235288 0.716018 -0.0035 0
0.235287 0.716017 -0.0035 0
0.235287 0.716017 -0.0035 0
0.235287 0.716016 -0.0031 0
0.235286 0.716015 -0.0031 0
0.235287 0.716014 -0.0037 0
0.235286 0.716012 -0.0036 0
0.235287 0.716012 -0.0036 0
0.235288 0.716012 -0.0036 0
0.235288 0.716011 -0.0037 0
0.235289 0.71601 -0.0037 0
0.235288 0.716009 -0.0033 0
0.235289 0.716008 -0.0033 0
0.235289 0.716007 -0.0033 0
0.235288 0.716006 -0.0032 0
0.235288 0.716006 -0.0032 0
0.235288 0.716005 -0.0034 0
0.235288 0.716004 -0.0034 0
0.235287 0.716002 -0.0033 0
0.235287 0.716002 -0.0033 0
0.235287 0.716001 -0.0031 0
0.235288 0.716 -0.0031 0
0.235288 0.716 -0.0031 0
0.235288 0.716 -0.0037 0
0.235288 0.716 -0.0037 0
0.235288 0.715997 -0.0034 0
0.235288 0.715996 -0.0034 0
0.235287 0.715994 -0.0039 0
0.235287 0.715993 -0.0039 0
0.235164 0.716015 -0.0039 0
0.235163 0.716012 -0.0035 0
0.235225 0.714011 -0.0035 0
0.235164 0.716009 -0.0035 0
0.235164 0.716007 -0.0037 0
0.235163 0.716006 -0.0037 0
0.235163 0.716005 -0.0037 0
0.235163 0.716004 -0.0034 0
0.235163 0.716002 -0.0034 0
0.235163 0.716001 -0.0036 0
0.235286 0.715976 -0.0036 0
0.235162 0.715998 -0.0036 0
0.235224 0.713998 -0.0036 0
0.235285 0.715972 -0.0036 0
0.235162 0.715994 -0.0033 0
0.235161 0.715992 -0.0033 0
0.235161 0.715991 -0.0031 0
0.235161 0.715991 -0.0031 0
0.23516 0.715988 -0.0036 0
0.235161 0.715988 -0.0036 0
0.23516 0.715987 -0.0032 0
0.23516 0.715986 -0.0032 0
0.235283 0.715962 -0.0032 0
0.235221 0.713985 -0.0032 0
0.235159 0.715983 -0.0032 0
0.235159 0.715982 -0.0036 0
0.235283 0.715955 -0.0036 0
0.235283 0.715953 -0.0034 0
0.235285 0.715952 -0.0034 0
0.235285 0.715951 -0.0035 0
0.235285 0.71595 -0.0035 0
0.235285 0.715948 -0.0035 0
0.235285 0.715947 -0.003 0
0.235286 0.715946 -0.003 0
0.235286 0.715945 -0.0035 0
0.235286 0.715945 -0.0035 0
0.235286 0.715945 -0.0038 0
0.235286 0.715944 -0.0038 0
0.235286 0.715943 -0.0031 0
0.235285 0.715942 -0.0031 0
0.235284 0.715942 -0.0039 0
0.235284 0.715943 -0.0039 0
0.235283 0.715944 -0.0035 0
0.235282 0.715944 -0.0035 0
0.235282 0.715944 -0.0039 0
0.235281 0.715943 -0.0039 0
0.235281 0.715942 -0.0033 0
0.235281 0.71594 -0.0037 0
0.235281 0.715939 -0.0037 0
0.235281 0.715938 -0.0037 0
0.235281 0.715936 -0.0037 0
0.23528 0.715933 -0.0037 0
0.235281 0.715931 -0.003 0
0.235281 0.715929 -0.003 0
0.235281 0.715928 -0.0034 0
0.235281 0.715925 -0.0035 0
0.23528 0.715924 -0.0035 0
0.23528 0.715923 -0.0035 0
0.235281 0.715921 -0.0036 0
0.235281 0.715919 -0.0036 0
0.23528 0.715918 -0.0032 0
0.235279 0.715917 -0.0032 0
0.235278 0.715915 -0.0037 0
0.235278 0.715915 -0.0037 0
0.235278 0.715913 -0.0037 0
0.235277 0.715912 -0.0037 0
0.235277 0.71591 -0.0031 0
0.235276 0.715909 -0.0031 0
0.235275 0.715908 -0.0037 0
0.235275 0.715906 -0.0037 0
0.235275 0.715905 -0.0031 0
0.235275 0.715902 -0.0036 0
0.235275 0.7159 -0.0036 0
0.235275 0.715899 -0.0036 0
0.235274 0.715897 -0.0035 0
0.235274 0.715896 -0.0035 0
0.235273 0.715894 -0.0035 0
0.235273 0.715894 -0.0035 0
0.235272 0.715893 -0.0037 0
0.235272 0.715892 -0.0037 0
0.235271 0.715891 -0.0037 0
0.235271 0.71589 -0.004 0
0.235271 0.715889 -0.004 0
0.235271 0.715889 -0.0035 0
0.23527 0.715888 -0.0035 0
0.235269 0.715888 -0.0034 0
0.235269 0.715887 -0.0034 0
0.235268 0.715885 -0.0039 0
0.235268 0.715883 -0.0039 0
0.235268 0.715881 -0.0036 0
0.235267 0.715877 -0.0036 0
0.235268 0.715877 -0.0039 0
0.235268 0.715876 -0.0039 0
0.235268 0.715876 -0.0034 0
0.235268 0.715875 -0.0034 0
0.235269 0.715875 -0.0034 0
0.23527 0.715873 -0.0034 0
0.23527 0.715873 -0.0033 0
0.23527 0.715871 -0.0033 0
0.23527 0.71587 -0.0033 0
0.23527 0.715868 -0.0036 0
0.23527 0.715866 -0.0036 0
0.235269 0.715864 -0.004 0
0.235269 0.715864 -0.004 0
0.23527 0.715864 -0.0034 0
0.23527 0.715863 -0.0034 0
0.235271 0.715863 -0.0035 0
0.235271 0.715862 -0.0035 0
0.235272 0.715861 -0.0035 0
0.235272 0.71586 -0.0034 0
0.235272 0.71586 -0.0034 0
0.235271 0.71586 -0.0034 0
0.235271 0.715859 -0.0027 0
0.235271 0.715856 -0.0031 0
0.235271 0.715855 -0.0031 0
0.235272 0.715854 -0.0032 0
0.235272 0.715853 -0.0032 0
0.235273 0.715852 -0.0032 0
0.235274 0.71585 -0.0034 0
0.235274 0.715849 -0.0034 0
0.235275 0.715848 -0.0033 0
0.235276 0.715847 -0.0033 0
0.235276 0.715847 -0.0033 0
0.235276 0.715846 -0.0038 0
0.235276 0.715845 -0.0038 0
0.235276 0.715843 -0.0036 0
0.235275 0.71584 -0.0036 0
0.235275 0.715839 -0.0036 0
0.235275 0.715838 -0.0036 0
0.235274 0.715837 -0.0036 0
0.235274 0.715836 -0.0035 0
0.235273 0.715836 -0.0035 0
0.235273 0.715834 -0.0036 0
0.235273 0.715833 -0.0036 0
0.235273 0.715832 -0.0036 0
0.235273 0.71583 -0.0031 0
0.235273 0.715829 -0.0035 0
0.235273 0.715828 -0.0035 0
0.235273 0.715827 -0.0036 0
0.235272 0.715826 -0.0036 0
0.235272 0.715825 -0.0036 0
0.235271 0.715822 -0.0039 0
0.23527 0.715819 -0.0039 0
0.235269 0.715817 -0.0034 0
0.235268 0.715816 -0.0034 0
0.235267 0.715815 -0.0034 0
0.235266 0.715814 -0.0034 0
0.235265 0.715813 -0.0034 0
0.235264 0.715811 -0.0034 0
0.235263 0.715809 -0.0036 0
0.235262 0.715807 -0.0036 0
0.235261 0.715806 -0.0036 0
0.23526 0.715804 -0.0036 0
0.23526 0.715803 -0.0036 0
0.235259 0.715802 -0.0029 0
0.235259 0.715802 -0.0029 0
0.235258 0.715801 -0.0033 0
0.235258 0.7158 -0.0033 0
0.235289 0.7148 -0.0033 0
0.235258 0.715797 -0.0035 0
0.235258 0.715796 -0.0035 0
0.235258 0.715796 -0.0035 0
0.235258 0.715795 -0.0035 0
0.235257 0.715793 -0.0037 0
0.235257 0.715792 -0.0037 0
0.235257 0.715791 -0.0035 0
0.235256 0.715789 -0.0035 0
0.235256 0.715787 -0.0035 0
0.235256 0.715786 -0.0035 0
0.235255 0.715786 -0.0029 0
0.235255 0.715785 -0.0029 0
0.235255 0.715784 -0.0029 0
0.235315 0.713784 -0.0035 0
0.235253 0.715782 -0.0035 0
0.235253 0.715781 -0.0034 0
0.235253 0.71578 -0.0034 0
0.235253 0.715779 -0.0034 0
0.235253 0.715778 -0.0036 0
0.235253 0.715778 -0.0036 0
0.235253 0.715777 -0.003 0
0.235253 0.715775 -0.003 0
0.235253 0.715774 -0.0032 0
0.235253 0.715774 -0.0032 0
0.235253 0.715773 -0.0031 0
0.235253 0.715772 -0.0031 0
0.235252 0.715772 -0.0031 0
0.235252 0.715772 -0.0036 0
0.235252 0.715771 -0.0036 0
0.235283 0.71477 -0.0032 0
0.235283 0.714769 -0.0032 0
0.235252 0.715768 -0.0032 0
0.235252 0.715767 -0.0033 0
0.235618 0.703772 -0.0037 0
0.23525 0.715765 -0.0037 0
0.235249 0.715764 -0.0037 0
0.235249 0.715763 -0.0032 0
0.235249 0.715763 -0.0032 0
0.235249 0.715762 -0.0036 0
0.235248 0.715761 -0.0036 0
0.235248 0.71576 -0.0034 0
0.235123 0.715783 -0.0034 0
0.235123 0.715783 -0.003 0
0.235123 0.715783 -0.003 0
0.235123 0.715782 -0.003 0
0.235123 0.715781 -0.0036 0
0.235123 0.715781 -0.0036 0
0.235123 0.715781 -0.003 0
0.235123 0.71578 -0.003 0
0.235124 0.715779 -0.0031 0
0.235123 0.715779 -0.0031 0
0.235123 0.715778 -0.0033 0
0.235123 0.715777 -0.0033 0
0.235247 0.715753 -0.0033 0
0.235247 0.715752 -0.0036 0
0.235246 0.715751 -0.0036 0
0.235245 0.71575 -0.0038 0
0.235121 0.715771 -0.0038 0
0.235121 0.71577 -0.0035 0
0.235245 0.715745 -0.0035 0
0.235245 0.715744 -0.0036 0
0.235337 0.712744 -0.0036 0
0.235244 0.715742 -0.0036 0
0.235243 0.715741 -0.0036 0
0.235242 0.71574 -0.0042 0
0.235241 0.715738 -0.0042 0
0.235241 0.715737 -0.004 0
0.23524 0.715736 -0.003 0
0.23524 0.715735 -0.003 0
0.23524 0.715734 -0.003 0
0.23524 0.715733 -0.0036 0
0.235241 0.715732 -0.0038 0
0.235242 0.715731 -0.0038 0
0.235242 0.71573 -0.0038 0
0.235242 0.715729 -0.0036 0
0.235242 0.715726 -0.0035 0
0.235242 0.715726 -0.0035 0
0.235243 0.715724 -0.0038 0
0.235243 0.715724 -0.0038 0
0.235244 0.715723 -0.0032 0
0.235245 0.715722 -0.0032 0
0.235246 0.715721 -0.0032 0
0.235246 0.715719 -0.0039 0
0.235247 0.715718 -0.0034 0
0.235247 0.715717 -0.0034 0
0.235247 0.715717 -0.0034 0
0.235124 0.715739 -0.0032 0
0.235123 0.715738 -0.0033 0
0.235123 0.715737 -0.0033 0
0.235124 0.715736 -0.0036 0
0.235125 0.715736 -0.0036 0
0.235125 0.715736 -0.0032 0
0.235125 0.715736 -0.0032 0
0.235125 0.715737 -0.0035 0
0.235125 0.715736 -0.0034 0
0.235126 0.715736 -0.0034 0
0.235126 0.715735 -0.0034 0
0.235125 0.715732 -0.0034 0
0.235125 0.715731 -0.0034 0
0.235125 0.71573 -0.0034 0
0.236357 0.675748 -0.0034 0
0.235125 0.715729 -0.0033 0
0.235126 0.715728 -0.0033 0
0.235126 0.715727 -0.0037 0
0.235126 0.715726 -0.0037 0
0.235126 0.715725 -0.0037 0
0.235126 0.715724 -0.0034 0
0.235126 0.715724 -0.0034 0
0.235126 0.715722 -0.0038 0
0.235126 0.715721 -0.0038 0
0.235126 0.71572 -0.0033 0
0.235126 0.715719 -0.0033 0
0.235126 0.715718 -0.0035 0
0.235124 0.715716 -0.0035 0
0.235123 0.715715 -0.0035 0
0.235122 0.715713 -0.0035 0
0.235121 0.715711 -0.0034 0
0.235121 0.71571 -0.0034 0
0.235121 0.715708 -0.0034 0
0.235121 0.715707 -0.0034 0
0.235121 0.715706 -0.0034 0
0.235122 0.715705 -0.0035 0
0.235122 0.715703 -0.0035 0
0.235123 0.715701 -0.0035 0
0.235124 0.7157 -0.0035 0
0.235124 0.715699 -0.0036 0
0.235125 0.715698 -0.0036 0
0.235124 0.715696 -0.0036 0
0.235123 0.715695 -0.0029 0
0.235123 0.715695 -0.0029 0
0.235123 0.715694 -0.0037 0
0.235123 0.715693 -0.0037 0
0.235123 0.715693 -0.0037 0
0.235123 0.715692 -0.0032 0
0.235123 0.715692 -0.0032 0
0.235123 0.715691 -0.0033 0
0.235125 0.715687 -0.0033 0
0.235126 0.715685 -0.0033 0
0.235126 0.715683 -0.0033 0
0.235127 0.715681 -0.0037 0
0.235128 0.715679 -0.0037 0
0.235128 0.715677 -0.0037 0
0.235128 0.715675 -0.0035 0
0.235127 0.715674 -0.003 0
0.235128 0.715673 -0.003 0
0.235129 0.715672 -0.0034 0
0.235129 0.715671 -0.0034 0
0.235129 0.71567 -0.0034 0
0.23513 0.71567 -0.0034 0
0.23513 0.715669 -0.0033 0
0.235223 0.71267 -0.0033 0
0.235131 0.715669 -0.0038 0
0.23513 0.715666 -0.0038 0
0.23513 0.715665 -0.0033 0
0.23513 0.715664 -0.0033 0
0.235191 0.713665 -0.0037 0
0.235129 0.715662 -0.0037 0
0.23513 0.715661 -0.0036 0
0.23513 0.71566 -0.0036 0
0.23513 0.71566 -0.0028 0
0.23513 0.715659 -0.0028 0
0.23513 0.715658 -0.0034 0
0.23513 0.715657 -0.0034 0
0.235253 0.715631 -0.0035 0
0.235252 0.715628 -0.0035 0
0.235251 0.715627 -0.0037 0
0.235251 0.715626 -0.0037 0
0.235251 0.715625 -0.0037 0
0.235127 0.715646 -0.0037 0
0.235126 0.715643 -0.0033 0
0.235125 0.715643 -0.0033 0
0.235124 0.715642 -0.0036 0
0.235123 0.715639 -0.0036 0
0.235216 0.712639 -0.0035 0
0.235124 0.715637 -0.0035 0
0.235124 0.715636 -0.0034 0
0.235124 0.715635 -0.0034 0
0.235125 0.715635 -0.0034 0
0.235495 0.703641 -0.0035 0
0.235126 0.715634 -0.0035 0
0.235249 0.71561 -0.0036 0
0.235249 0.715609 -0.0036 0
0.235125 0.715631 -0.0036 0
0.235125 0.71563 -0.0033 0
0.235125 0.715629 -0.0033 0
0.235125 0.715629 -0.0033 0
0.235125 0.715628 -0.0033 0
0.235125 0.715627 -0.0036 0
0.235124 0.715626 -0.0036 0
0.235123 0.715624 -0.0031 0
0.235123 0.715623 -0.0031 0
0.235123 0.715622 -0.0032 0
0.235122 0.715622 -0.0032 0
0.235121 0.71562 -0.0034 0
0.235121 0.715619 -0.0034 0
0.235121 0.715618 -0.0029 0
0.235121 0.715617 -0.0029 0
0.235244 0.715591 -0.0035 0
0.235244 0.715589 -0.0035 0
0.235245 0.715587 -0.0035 0
0.235245 0.715587 -0.0035 0
0.235122 0.715608 -0.0031 0
0.235246 0.715584 -0.0031 0
0.235246 0.715583 -0.0036 0
0.235246 0.715582 -0.0036 0
0.235246 0.71558 -0.0036 0
0.235122 0.715602 -0.0036 0
0.235122 0.715601 -0.0033 0
0.235122 0.715599 -0.0036 0
0.235122 0.715597 -0.0036 0
0.235122 0.715596 -0.0036 0
0.235122 0.715594 -0.0031 0
0.235123 0.715593 -0.0034 0
0.235123 0.715591 -0.0034 0
0.235123 0.71559 -0.0034 0
0.235122 0.715589 -0.0037 0
0.235122 0.715589 -0.0034 0
0.235122 0.715588 -0.0034 0
0.235124 0.715587 -0.0034 0
0.235248 0.715563 -0.0034 0
0.235247 0.71556 -0.0035 0
0.235248 0.715559 -0.0035 0
0.235248 0.715557 -0.0038 0
0.235247 0.715556 -0.0032 0
0.235247 0.715555 -0.0032 0
0.235247 0.715554 -0.0032 0
0.235247 0.715553 -0.0037 0
0.235248 0.715552 -0.0037 0
0.235248 0.715551 -0.0034 0
0.235249 0.715548 -0.0034 0
0.235249 0.715546 -0.0039 0
0.235249 0.715545 -0.0039 0
0.235248 0.715542 -0.0035 0
0.235124 0.715564 -0.0035 0
0.235124 0.715563 -0.0035 0
0.235124 0.715561 -0.0033 0
0.235124 0.71556 -0.0032 0
0.235123 0.715559 -0.0032 0
0.235123 0.715559 -0.0032 0
0.235123 0.715555 -0.0033 0
0.235122 0.715554 -0.004 0
0.235122 0.715552 -0.004 0
0.235122 0.715551 -0.004 0
0.235121 0.715551 -0.0038 0
0.23512 0.71555 -0.0036 0
0.235121 0.715549 -0.0036 0
0.235121 0.715549 -0.0036 0
0.235121 0.715548 -0.0031 0
0.235122 0.715547 -0.003 0
0.235123 0.715546 -0.003 0
0.235123 0.715546 -0.003 0
0.235123 0.715545 -0.0032 0
0.235123 0.715544 -0.0035 0
0.235123 0.715544 -0.0035 0
0.235123 0.715544 -0.0035 0
0.235121 0.715543 -0.004 0
0.235121 0.715542 -0.0035 0
0.23512 0.71554 -0.0035 0
0.235241 0.715516 -0.0033 0
0.235241 0.715515 -0.0033 0
0.235241 0.715514 -0.0031 0
0.235241 0.715513 -0.0031 0
0.23524 0.715512 -0.0036 0
0.23524 0.715511 -0.0036 0
0.235239 0.71551 -0.003 0
0.235239 0.71551 -0.003 0
0.235239 0.715508 -0.0037 0
0.235301 0.713507 -0.0037 0
0.235239 0.715505 -0.0037 0
0.23524 0.715504 -0.0037 0
0.23524 0.715501 -0.0029 0
0.23524 0.715501 -0.0029 0
0.235241 0.715501 -0.0031 0
0.235241 0.7155 -0.0031 0
0.235116 0.715522 -0.0037 0
0.235117 0.71552 -0.0037 0
0.235117 0.71552 -0.0039 0
0.235117 0.715519 -0.0039 0
0.235117 0.715519 -0.0039 0
0.235117 0.715518 -0.0035 0
0.235117 0.715518 -0.0035 0
0.235117 0.715517 -0.0038 0
0.235117 0.715516 -0.0038 0
0.235117 0.715515 -0.004 0
0.235117 0.715514 -0.004 0
0.235117 0.715513 -0.0035 0
0.235118 0.715512 -0.0035 0
0.235242 0.715487 -0.0035 0
0.235119 0.715508 -0.0034 0
0.235119 0.715507 -0.0039 0
0.235119 0.715507 -0.0039 0
0.235119 0.715506 -0.0039 0
0.23512 0.715505 -0.0035 0
0.23512 0.715504 -0.0035 0
0.23512 0.715503 -0.0038 0
0.235119 0.715503 -0.0038 0
0.235119 0.715502 -0.0038 0
0.235242 0.715476 -0.0037 0
0.235242 0.715476 -0.0034 0
0.235242 0.715475 -0.0034 0
0.235242 0.715473 -0.0034 0
0.235241 0.715472 -0.0037 0
0.23524 0.715469 -0.0032 0
0.235239 0.715468 -0.0032 0
0.235239 0.715467 -0.0032 0
0.23524 0.715467 -0.0033 0
0.23524 0.715466 -0.0033 0
0.23524 0.715465 -0.0037 0
0.23524 0.715464 -0.0037 0
0.23524 0.715463 -0.0037 0
0.23524 0.715462 -0.0035 0
0.23524 0.715461 -0.0035 0
0.23524 0.71546 -0.0035 0
0.235331 0.712461 -0.0035 0
0.235239 0.715459 -0.0035 0
0.235239 0.715459 -0.0033 0
0.235239 0.715458 -0.0033 0
0.235238 0.715456 -0.0037 0
0.235237 0.715453 -0.0037 0
0.235297 0.713452 -0.0033 0
0.235235 0.71545 -0.0033 0
0.235235 0.715448 -0.0035 0
0.235234 0.715447 -0.0035 0
0.235233 0.715445 -0.0033 0
0.235233 0.715445 -0.0033 0
0.235233 0.715443 -0.0035 0
0.235232 0.715442 -0.0035 0
0.235477 0.703471 -0.0035 0
0.235108 0.715464 -0.0035 0
0.235108 0.715463 -0.0039 0
0.235108 0.715462 -0.0039 0
0.235107 0.715461 -0.0036 0
0.235107 0.71546 -0.0036 0
0.23523 0.715436 -0.0032 0
0.23523 0.715435 -0.0032 0
0.235106 0.715457 -0.0041 0
0.235105 0.715456 -0.0041 0
0.235105 0.715454 -0.0028 0
0.235104 0.715452 -0.0028 0
0.235104 0.715451 -0.0033 0
0.235104 0.71545 -0.0035 0
0.235104 0.715449 -0.0035 0
0.235105 0.715448 -0.0035 0
0.235106 0.715446 -0.0034 0
0.235106 0.715445 -0.0032 0
0.235105 0.715443 -0.0032 0
0.235105 0.715442 -0.0032 0
0.235106 0.715441 -0.0034 0
0.235106 0.715439 -0.003 0
0.235105 0.715438 -0.003 0
0.235228 0.715414 -0.003 0
0.235228 0.715413 -0.0038 0
0.235104 0.715435 -0.0038 0
0.235103 0.715433 -0.0032 0
0.235071 0.716432 -0.0032 0
0.235225 0.715407 -0.0032 0
0.235225 0.715406 -0.0035 0
0.235225 0.715404 -0.0037 0
0.235225 0.715403 -0.0037 0
0.235225 0.715401 -0.0037 0
0.235225 0.7154 -0.0034 0
0.235225 0.715399 -0.0034 0
0.235226 0.715395 -0.0037 0
0.235226 0.715394 -0.0037 0
0.235227 0.715393 -0.0034 0
0.235228 0.715394 -0.0034 0
0.235228 0.715394 -0.0039 0
0.235228 0.715394 -0.0039 0
0.235228 0.715393 -0.0039 0
0.235229 0.715391 -0.0031 0
0.235229 0.715391 -0.0031 0
0.235229 0.715391 -0.0031 0
0.235229 0.715391 -0.0036 0
0.235229 0.71539 -0.0036 0
0.23523 0.715386 -0.0033 0
0.235231 0.715385 -0.0033 0
0.235231 0.715384 -0.0035 0
0.235262 0.714383 -0.0034 0
0.235231 0.715382 -0.0034 0
0.235231 0.715381 -0.0034 0
0.23523 0.71538 -0.0038 0
0.23523 0.715379 -0.0038 0
0.235229 0.715378 -0.0034 0
0.235229 0.715377 -0.0034 0
0.235229 0.715377 -0.0034 0
0.235229 0.715375 -0.0033 0
0.23523 0.715372 -0.0033 0
0.23523 0.71537 -0.0033 0
0.23523 0.715368 -0.0033 0
0.23523 0.715366 -0.0031 0
0.235231 0.715366 -0.0031 0
0.235232 0.715366 -0.0036 0
0.235233 0.715365 -0.0036 0
0.235232 0.715364 -0.003 0
0.235231 0.715363 -0.003 0
0.235231 0.715363 -0.0031 0
0.235232 0.715364 -0.0031 0
0.235232 0.715363 -0.0031 0
0.235233 0.715361 -0.0041 0
0.235233 0.71536 -0.003 0
0.235264 0.714359 -0.003 0
0.235233 0.715357 -0.003 0
0.235233 0.715356 -0.0036 0
0.235233 0.715355 -0.0036 0
0.235233 0.715352 -0.0031 0
0.235233 0.715351 -0.0031 0
0.235294 0.71335 -0.0031 0
0.235232 0.715347 -0.0031 0
0.235232 0.715347 -0.0031 0
0.235263 0.714345 -0.0031 0
0.235233 0.715343 -0.0031 0
0.235233 0.715341 -0.0035 0
0.235233 0.71534 -0.0038 0
0.233977 0.756321 -0.0038 0
0.235232 0.71534 -0.0038 0
0.235231 0.715341 -0.0032 0
0.235231 0.71534 -0.0032 0
0.235231 0.715339 -0.0033 0
0.235231 0.715339 -0.0033 0
0.235231 0.715338 -0.0033 0
0.235232 0.715336 -0.0034 0
0.235231 0.715335 -0.0037 0
0.235231 0.715334 -0.0037 0
0.235231 0.715333 -0.0037 0
0.23523 0.715333 -0.0033 0
0.23523 0.715332 -0.0033 0
0.23523 0.715331 -0.0034 0
0.235105 0.715352 -0.0034 0
0.235106 0.715351 -0.0037 0
0.235106 0.715351 -0.0037 0
0.233844 0.756329 -0.0039 0
0.235105 0.715347 -0.0039 0
0.235106 0.715346 -0.0033 0
0.235106 0.715345 -0.0033 0
0.235105 0.715343 -0.0034 0
0.235105 0.715342 -0.0034 0
0.235105 0.715341 -0.0039 0
0.235167 0.713341 -0.0039 0
0.235103 0.715338 -0.0032 0
0.235102 0.715338 -0.0032 0
0.235102 0.715337 -0.0033 0
0.235226 0.715313 -0.0033 0
0.235227 0.715312 -0.0042 0
0.235227 0.715311 -0.0042 0
0.235227 0.71531 -0.0042 0
0.235227 0.715309 -0.0039 0
0.235227 0.715308 -0.0039 0
0.235226 0.715307 -0.0033 0
0.235225 0.715306 -0.0033 0
0.235224 0.715305 -0.0032 0
0.235223 0.715304 -0.0032 0
0.235223 0.715304 -0.0036 0
0.235223 0.715303 -0.0036 0
0.235222 0.715302 -0.0036 0
0.235222 0.715301 -0.0029 0
0.23522 0.7153 -0.0029 0
0.235249 0.714299 -0.0033 0
0.235218 0.715296 -0.0033 0
0.235218 0.715296 -0.0042 0
0.235217 0.715295 -0.0042 0
0.235216 0.715295 -0.0027 0
0.235215 0.715295 -0.0027 0
0.235215 0.715293 -0.0033 0
0.235215 0.715292 -0.0033 0
0.235215 0.715291 -0.0038 0
0.235215 0.71529 -0.0038 0
0.235214 0.715287 -0.0033 0
0.235214 0.715285 -0.0033 0
0.235214 0.715285 -0.0028 0
0.235213 0.715285 -0.0028 0
0.235089 0.715306 -0.0032 0
0.235213 0.715281 -0.0032 0
0.235213 0.71528 -0.0041 0
0.235089 0.715302 -0.0041 0
0.23509 0.7153 -0.0031 0
0.235091 0.7153 -0.0031 0
0.235091 0.715301 -0.0033 0
0.235091 0.7153 -0.0033 0
0.235183 0.7123 -0.0034 0
0.235091 0.715298 -0.0034 0
0.235091 0.715297 -0.0033 0
0.235122 0.714297 -0.0033 0
0.235093 0.715295 -0.0033 0
0.235092 0.715294 -0.0036 0
0.235094 0.715294 -0.0036 0
0.235095 0.715295 -0.0032 0
0.235095 0.715294 -0.0032 0
0.235095 0.715293 -0.0032 0
0.235095 0.715292 -0.0032 0
0.235096 0.715292 -0.0036 0
0.235096 0.71529 -0.0036 0
0.235097 0.715288 -0.0036 0
0.235221 0.715263 -0.0031 0
0.235221 0.715262 -0.0031 0
0.235221 0.715261 -0.0033 0
0.235222 0.715259 -0.0033 0
0.235222 0.715258 -0.0037 0
0.235253 0.714258 -0.0037 0
0.235223 0.715256 -0.0038 0
0.235222 0.715256 -0.0038 0
0.235222 0.715255 -0.0038 0
0.235222 0.715254 -0.0036 0
0.235222 0.715253 -0.0036 0
0.235221 0.715252 -0.0036 0
0.235221 0.715251 -0.0036 0
0.23522 0.71525 -0.0036 0
0.23522 0.71525 -0.0036 0
0.23522 0.71525 -0.0034 0
0.235219 0.71525 -0.0034 0
0.235218 0.715249 -0.0034 0
0.235217 0.715248 -0.0038 0
0.235217 0.715247 -0.0031 0
0.235217 0.715247 -0.0031 0
0.235216 0.715247 -0.0031 0
0.235091 0.71527 -0.0038 0
0.235091 0.71527 -0.0031 0
0.235091 0.71527 -0.0031 0
0.235092 0.71527 -0.0031 0
0.235091 0.715269 -0.0036 0
0.235091 0.715268 -0.0033 0
0.235214 0.715244 -0.0033 0
0.235214 0.715244 -0.0033 0
0.235089 0.715267 -0.0035 0
0.235089 0.715266 -0.0036 0
0.235089 0.715265 -0.0036 0
0.235089 0.715265 -0.0034 0
0.235089 0.715264 -0.0034 0
0.235213 0.715239 -0.0036 0
0.235212 0.715239 -0.0036 0
0.235212 0.715238 -0.0033 0
0.235211 0.715237 -0.0033 0
0.235086 0.71526 -0.003 0
0.235208 0.715236 -0.003 0
0.235207 0.715236 -0.0036 0
0.235206 0.715236 -0.0036 0
0.235206 0.715235 -0.0036 0
0.235206 0.715234 -0.0036 0
0.235205 0.715232 -0.0036 0
0.235297 0.712232 -0.0036 0
0.235205 0.71523 -0.0036 0
0.235206 0.71523 -0.0032 0
0.235208 0.715228 -0.0032 0
0.235208 0.715227 -0.0039 0
0.235209 0.715225 -0.0039 0
0.235208 0.715225 -0.0028 0
0.235208 0.715224 -0.0028 0
0.235208 0.715222 -0.0034 0
0.235207 0.715222 -0.0034 0
0.235207 0.715221 -0.004 0
0.235207 0.715221 -0.004 0
0.235207 0.71522 -0.004 0
0.235207 0.715218 -0.003 0
0.235207 0.715217 -0.0038 0
0.235207 0.715217 -0.0038 0
0.235207 0.715216 -0.0038 0
0.235207 0.715216 -0.0037 0
0.235082 0.715238 -0.0037 0
0.235082 0.715237 -0.0033 0
0.235082 0.715235 -0.0033 0
0.235081 0.715233 -0.0033 0
0.235082 0.715232 -0.0036 0
0.235082 0.71523 -0.0032 0
0.235081 0.715229 -0.0032 0
0.235081 0.715228 -0.0032 0
0.235081 0.715227 -0.0034 0
0.235081 0.715225 -0.0034 0
0.235081 0.715224 -0.0033 0
0.235081 0.715222 -0.0033 0
0.235081 0.715221 -0.0034 0
0.235081 0.71522 -0.0034 0
0.23508 0.715219 -0.0037 0
0.23508 0.715218 -0.0037 0
0.235081 0.715217 -0.0037 0
0.235173 0.712217 -0.0031 0
0.23508 0.715215 -0.0031 0
0.23508 0.715214 -0.0035 0
0.23508 0.715213 -0.0035 0
0.23508 0.715212 -0.0037 0
0.23508 0.715211 -0.0037 0
0.23508 0.71521 -0.0035 0
0.23508 0.715208 -0.0035 0
0.235081 0.715207 -0.0035 0
0.235205 0.715183 -0.0038 0
0.235236 0.714182 -0.003 0
0.235206 0.715181 -0.003 0
0.235206 0.715179 -0.003 0
0.235206 0.715178 -0.0038 0
0.235205 0.715176 -0.0038 0
0.235205 0.715175 -0.0034 0
0.235204 0.715173 -0.0034 0
0.23508 0.715196 -0.0034 0
0.23508 0.715195 -0.0037 0
0.235204 0.715171 -0.0036 0
0.235205 0.715169 -0.0036 0
0.235205 0.715169 -0.0036 0
0.235205 0.715168 -0.0033 0
0.235205 0.715168 -0.0033 0
0.235297 0.712168 -0.0035 0
0.235206 0.715164 -0.0035 0
0.235206 0.715162 -0.0036 0
0.235206 0.715161 -0.0036 0
0.235205 0.71516 -0.0033 0
0.235205 0.715159 -0.0033 0
0.235204 0.715159 -0.0039 0
0.235204 0.715157 -0.0039 0
0.235205 0.715156 -0.0033 0
0.235205 0.715154 -0.0033 0
0.235205 0.715152 -0.0033 0
0.235204 0.715151 -0.0032 0
0.235204 0.715149 -0.0036 0
0.235203 0.715148 -0.0036 0
0.235202 0.715148 -0.0036 0
0.235201 0.715146 -0.0033 0
0.235201 0.715146 -0.0033 0
0.235201 0.715146 -0.0038 0
0.235201 0.715145 -0.0038 0
0.235201 0.715144 -0.0034 0
0.235201 0.715143 -0.0034 0
0.2352 0.715143 -0.0034 0
0.2352 0.715142 -0.0034 0
0.2352 0.715142 -0.0034 0
0.235199 0.715141 -0.0034 0
0.235198 0.715141 -0.0034 0
0.235197 0.71514 -0.0036 0
0.235196 0.715139 -0.0036 0
0.235196 0.715138 -0.0035 0
0.235196 0.715137 -0.0035 0
0.235196 0.715137 -0.0035 0
0.235195 0.715136 -0.0035 0
0.235195 0.715134 -0.0035 0
0.235194 0.715133 -0.0036 0
0.235194 0.715132 -0.0036 0
0.235193 0.715131 -0.0033 0
0.235193 0.71513 -0.0033 0
0.235193 0.715129 -0.0032 0
0.235193 0.715128 -0.0032 0
0.235192 0.715127 -0.0042 0
0.235192 0.715125 -0.0042 0
0.235191 0.715124 -0.0036 0
0.235191 0.715123 -0.0036 0
0.235191 0.71512 -0.0033 0
0.235191 0.71512 -0.0033 0
0.235191 0.715118 -0.0036 0
0.235191 0.715118 -0.0036 0
0.23516 0.712142 -0.003 0
0.235068 0.715141 -0.003 0
0.235191 0.715117 -0.0035 0
0.235192 0.715117 -0.0035 0
0.235192 0.715115 -0.0034 0
0.235192 0.715114 -0.0034 0
0.235192 0.715113 -0.0034 0
0.235191 0.715112 -0.0037 0
0.235192 0.715112 -0.0037 0
0.235192 0.715111 -0.0035 0
0.235192 0.71511 -0.0035 0
0.235192 0.715109 -0.0033 0
0.235191 0.715108 -0.0033 0
0.235191 0.715106 -0.0036 0
0.235191 0.715105 -0.0036 0
0.235191 0.715105 -0.0033 0
0.235191 0.715104 -0.0033 0
0.23519 0.715103 -0.0037 0
0.23519 0.715102 -0.0037 0
0.23519 0.715102 -0.0034 0
0.235189 0.715101 -0.0036 0
0.23519 0.7151 -0.0036 0
0.23519 0.7151 -0.0036 0
0.23519 0.715099 -0.0031 0
0.235189 0.715099 -0.0031 0
0.235191 0.715098 -0.0032 0
0.235191 0.715097 -0.0037 0
0.235191 0.715096 -0.0037 0
0.235282 0.712096 -0.0037 0
0.235191 0.715091 -0.0036 0
0.235191 0.71509 -0.0036 0
0.235191 0.715089 -0.0029 0
0.235191 0.715089 -0.0029 0
0.235191 0.715087 -0.0037 0
0.235192 0.715085 -0.0037 0
0.235192 0.715084 -0.0033 0
0.235192 0.715083 -0.0033 0
0.235192 0.715082 -0.0039 0
0.235192 0.715081 -0.0039 0
0.235192 0.715081 -0.0039 0
0.235192 0.71508 -0.003 0
0.235192 0.715079 -0.003 0
0.235191 0.715077 -0.0036 0
0.235191 0.715075 -0.0036 0
0.235191 0.715074 -0.0032 0
0.235191 0.715072 -0.0032 0
0.235191 0.71507 -0.0033 0
0.235191 0.715069 -0.0033 0
0.235189 0.715067 -0.0036 0
0.235188 0.715065 -0.0036 0
0.235187 0.715065 -0.0035 0
0.235186 0.715063 -0.0035 0
0.235186 0.715062 -0.0036 0
0.235186 0.715061 -0.0036 0
0.235185 0.715059 -0.0033 0
0.235185 0.715059 -0.0033 0
0.235184 0.715059 -0.0033 0
0.235184 0.715059 -0.0037 0
0.235184 0.715058 -0.0037 0
0.235184 0.715056 -0.0031 0
0.235184 0.715056 -0.0031 0
0.235184 0.715055 -0.0037 0
0.235184 0.715055 -0.0037 0
0.235184 0.715055 -0.0032 0
0.235183 0.715054 -0.0032 0
0.235183 0.715055 -0.0034 0
0.235183 0.715055 -0.0034 0
0.235184 0.715055 -0.0033 0
0.235183 0.715054 -0.0033 0
0.235184 0.715053 -0.0033 0
0.235185 0.715052 -0.0033 0
0.235186 0.71505 -0.0033 0
0.235186 0.715048 -0.0033 0
0.235186 0.715047 -0.0033 0
0.235186 0.715045 -0.0033 0
0.235186 0.715043 -0.0032 0
0.235185 0.715042 -0.0032 0
0.235185 0.715041 -0.0032 0
0.235061 0.715063 -0.0036 0
0.235061 0.715062 -0.0036 0
0.235061 0.715061 -0.0036 0
0.234999 0.717058 -0.0032 0
0.23506 0.715058 -0.0032 0
0.23506 0.715057 -0.0032 0
0.23506 0.715056 -0.0032 0
0.235059 0.715056 -0.0032 0
0.235058 0.715055 -0.0032 0
0.235182 0.715031 -0.0038 0
0.235058 0.715054 -0.0038 0
0.235058 0.715054 -0.0038 0
0.235058 0.715052 -0.0033 0
0.235178 0.715027 -0.0039 0
0.235185 0.715026 -0.0039 0
0.235329 0.715002 -0.0039 0
0.235976 0.714883 0.0101 0
0.236201 0.71483 0.0466 0
0.236545 0.714753 0.0466 0
0.236827 0.713676 -0.0032 0
0.236858 0.713652 -0.0032 0
0.23689 0.713631 0.0321 0
0.23677 0.713653 0.0321 0
0.236623 0.713711 0.0321 0
0.236139 0.713849 0.0022 0
0.236001 0.713886 0.0073 0
0.236013 0.712895 0.0073 0
0.235999 0.712902 0.0073 0
0.235984 0.712915 -0.0065 0
0.235982 0.71292 -0.0045 0
0.235858 0.712947 -0.0045 0
0.235734 0.71297 -0.0041 0
0.235771 0.711971 -0.0041 0
0.235505 0.713018 0.0021 0
0.235423 0.712038 0.0021 0
0.235173 0.712077 0.0086 0
0.235015 0.713094 0.0086 0
0.235039 0.712088 -0.002 0
0.234546 0.712167 -0.002 0
0.234519 0.713155 0.0035 0
0.234402 0.713167 0.0035 0
0.234412 0.713163 -0.0016 0
0.234443 0.712171 -0.0016 0
0.234442 0.712181 -0.0025 0
0.234444 0.712189 -0.0025 0
0.234445 0.712194 0.002 0
0.234442 0.712198 0.002 0
0.234441 0.712198 -0.0015 0
0.234443 0.712197 -0.0015 0
0.234444 0.712195 -0.000599997 0
0.234447 0.712198 -0.000599997 0
0.234448 0.712198 0.0024 0
0.23445 0.712198 0.0024 0
0.234453 0.712197 2.79397e-09 0
0.234453 0.712195 2.79397e-09 0
0.234422 0.713195 -0.000399997 0
0.234455 0.712197 -0.000399997 0
0.234454 0.712197 0.002 0
0.234453 0.712199 0.002 0
0.234451 0.712199 0.002 0
0.234416 0.713199 -0.000299997 0
0.234446 0.7122 -0.000299997 0
0.234447 0.712203 -0.003 0
0.234449 0.712206 -0.003 0
0.234448 0.712206 0.0017 0
0.23445 0.712205 0.0017 0
0.234452 0.712203 2.79397e-09 0
0.234454 0.7122 2.79397e-09 0
0.234455 0.712199 2.79397e-09 0
0.234455 0.712195 0.000100003 0
0.234455 0.712194 0.0022 0
0.234453 0.712193 0.0022 0
0.234452 0.712192 0.0022 0
0.234452 0.712189 -0.0037 0
0.234453 0.71219 -0.000799997 0
0.234453 0.712191 -0.000799997 0
0.234454 0.712191 -0.000799997 0
0.234453 0.712191 -0.002 0
0.234453 0.712188 -0.0025 0
0.234454 0.712186 -0.0025 0
0.234455 0.712185 -0.0025 0
0.234456 0.712185 0.0019 0
0.234458 0.712185 -0.000999998 0
0.234459 0.712186 -0.000999998 0
0.234459 0.712185 -0.000999998 0
0.234428 0.713184 -0.0013 0
0.234461 0.712184 -0.0013 0
0.234461 0.712181 0.000100002 0
0.234461 0.712181 0.000100002 0
0.234462 0.71218 -0.0024 0
0.234462 0.71218 -0.0024 0
0.234461 0.71218 0.000200002 0
0.234463 0.712179 0.000200002 0
0.234462 0.712178 0.000500002 0
0.234462 0.712177 0.000500002 0
0.234462 0.712177 -0.000899998 0
0.234463 0.712174 -0.000899998 0
0.234463 0.712174 -0.0016 0
0.234462 0.712173 -0.0016 0
0.23446 0.712172 -0.0011 0
0.234461 0.712175 -0.0011 0
0.234462 0.712176 -0.0024 0
0.23446 0.712174 0.000500002 0
0.234458 0.712172 0.000500002 0
0.234421 0.713167 0.000500002 0
0.234453 0.712164 0.0016 0
0.234454 0.712162 0.0016 0
0.23446 0.712165 2.32831e-09 0
0.234429 0.713165 2.32831e-09 0
0.234462 0.712165 -0.002 0
0.234429 0.71316 0.0021 0
0.234462 0.71216 0.0021 0
0.234461 0.712158 0.0021 0
0.234459 0.712157 0.000900002 0
0.234425 0.713155 0.000900002 0
0.234426 0.713152 -0.0027 0
0.234458 0.712152 -0.0027 0
0.234458 0.712152 0.000700002 0
0.234426 0.713151 0.000700002 0
0.234425 0.71315 0.000100002 0
0.234522 0.710151 0.000100002 0
0.234457 0.712148 -0.000499998 0
0.234456 0.712148 -0.000499998 0
0.234422 0.713146 -0.0026 0
0.234453 0.712146 -0.0026 0
0.234329 0.712169 -0.0033 0
0.234453 0.712144 -0.0033 0
0.234422 0.713143 0.002 0
0.234456 0.712145 0.002 0
0.234459 0.712145 0.002 0
0.234466 0.712147 0.000400002 0
0.234467 0.712146 -0.0018 0
0.234468 0.712145 -0.0018 0
0.234464 0.712142 -0.000399998 0
0.234463 0.712143 -0.000399998 0
0.234463 0.71214 -0.0013 0
0.234461 0.712139 -0.0013 0
0.234459 0.712138 0.0018 0
0.234429 0.713137 0.0018 0
0.234462 0.712136 -0.0023 0
0.234459 0.712136 -0.0023 0
0.234458 0.712137 0.0036 0
0.234458 0.712136 0.0036 0
0.234459 0.712135 -0.0012 0
0.234456 0.712131 -0.0012 0
0.234456 0.71213 0.000300002 0
0.234457 0.71213 0.000300002 0
0.234456 0.712129 -0.0011 0
0.234424 0.713127 -0.0011 0
0.234455 0.712128 0.0021 0
0.234454 0.712127 0.0021 0
0.234454 0.712126 0.0015 0
0.23442 0.713124 0.0015 0
0.239863 0.54221 0.0015 0
0.234451 0.712123 0.0028 0
0.23445 0.712121 0.0028 0
0.234451 0.71212 0.0013 0
0.234452 0.712118 0.0013 0
0.234453 0.712117 -0.000199998 0
0.234455 0.712118 -0.000199998 0
0.234456 0.712119 -0.0019 0
0.234521 0.71012 -0.0019 0
0.234458 0.712118 -0.0019 0
0.234459 0.712117 -0.0012 0
0.234461 0.712118 -0.0012 0
0.23446 0.712118 -0.000499998 0
0.234461 0.712117 -0.000499998 0
0.234459 0.712116 -0.000499998 0
0.234459 0.712114 -0.0026 0
0.234456 0.712112 -0.0026 0
0.234453 0.71211 0.000700002 0
0.234453 0.712109 0.000700002 0
0.234454 0.712108 0.000700002 0
0.234452 0.712107 0.0031 0
0.234452 0.712104 0.0031 0
0.234452 0.712104 -0.0016 0
0.234452 0.712104 -0.0016 0
0.234454 0.712105 0.000800002 0
0.234453 0.712102 0.000800002 0
0.234445 0.712099 0.000300002 0
0.235774 0.670118 0.000300002 0
0.23443 0.712096 0.000300002 0
0.234369 0.712093 0.000500002 0
0.234212 0.713088 0.000500002 0
0.234088 0.712083 -0.0029 0
0.233865 0.713074 -0.0029 0
0.233643 0.712065 -0.0029 0
0.232995 0.712066 -0.000799998 0
0.232693 0.712054 -0.0024 0
0.232366 0.71204 -0.0024 0
0.232384 0.701034 -0.0024 0
0.23169 0.712017 -0.003 0
0.231032 0.710075 -0.003 0
0.23046 0.712085 -0.0026 0
0.229925 0.712094 -0.0026 0
0.22894 0.712083 -0.000399998 0
0.228124 0.712136 -0.000399998 0
0.227666 0.71212 -0.0024 0
0.227058 0.712128 -0.0024 0
0.225815 0.712144 -0.002 0
0.225206 0.71115 -0.002 0
0.224517 0.712157 -0.0034 0
0.223863 0.712166 -0.0034 0
0.223098 0.711204 -0.0034 0
0.221325 0.711297 0.0022 0
0.220599 0.711305 0.001 0
0.219755 0.71033 0.001 0
0.218972 0.71033 0.001 0
0.217421 0.709325 0.0011 0
0.216555 0.710317 -0.0034 0
0.215704 0.710308 -0.0034 0
0.215001 0.709276 -0.0034 0
0.214188 0.707268 0.0019 0
0.212526 0.709195 -0.000299998 0
0.211708 0.70917 -0.000299998 0
0.210488 0.709212 -0.000299998 0
0.209609 0.671293 0.0013 0
0.20853 0.670307 0.0045 0
0.207542 0.669301 0.0045 0
0.205009 0.668383 0.0012 0
0.203801 0.668391 0.0012 0
0.202582 0.668394 -0.0024 0
0.200194 0.668366 -0.0024 0
0.199095 0.667336 -0.0019 0
0.198013 0.66728 -0.0019 0
0.196792 0.66725 -0.000599998 0
0.194429 0.666166 -0.000599998 0
0.193187 0.665139 0.000200002 0
0.191948 0.666084 0.000200002 0
0.189534 0.664972 0.0019 0
0.188247 0.66492 0.0019 0
0.186787 0.663917 0.0016 0
0.185315 0.662915 0.0016 0
0.182333 0.66288 0.0017 0
0.180738 0.662868 0.0017 0
0.179035 0.661875 0.000600002 0
0.175832 0.661805 -0.0027 0
0.174191 0.660774 -0.0027 0
0.172607 0.660718 -0.0027 0
0.170986 0.660659 -0.0023 0
0.169501 0.659572 -0.0023 0
0.167904 0.659508 -0.0042 0
0.166354 0.659429 -0.0042 0
0.164932 0.659324 -0.0042 0
0.162139 0.659079 0.0014 0
0.160886 0.658922 0.0042 0
0.159606 0.658767 0.0042 0
0.157289 0.658385 0.0017 0
0.156089 0.659182 0.0017 0
0.154846 0.658 0.000700001 0
0.153651 0.658796 0.000700001 0
0.15165 0.658295 0.000100001 0
0.150309 0.660093 0.000100001 0
0.148785 0.659943 0.0017 0
0.147233 0.659801 0.0017 0
0.146579 0.659488 0.0017 0
0.143588 0.659185 -0.0044 0
0.142032 0.660028 -0.0054 0
0.140382 0.659893 -0.0054 0
0.138906 0.659741 -0.0054 0
0.135527 0.659473 0.000300001 0
0.133762 0.659375 -0.0056 0
0.131925 0.658278 -0.0056 0
0.13011 0.659154 -0.0056 0
0.126346 0.65891 -0.0018 0
0.124616 0.658741 0.000200001 0
0.122948 0.658543 0.000200001 0
0.120736 0.659465 0.000200001 0
0.117042 0.696944 0.0018 0
0.115281 0.698765 0.0022 0
0.113519 0.699586 0.0022 0
0.110211 0.699179 -0.0028 0
0.108437 0.698003 -0.0028 0
0.106618 0.698829 -0.000199999 0
0.104796 0.698659 -0.000199999 0
0.101063 0.698328 -0.0037 0
0.0991031 0.698194 -0.0037 0
0.0969244 0.699082 -0.0046 0
0.094854 0.698937 -0.0046 0
0.0929814 0.697774 -0.0046 0
0.0916485 0.620666 0.0029 0
0.0886229 0.697517 0.0029 0
0.0860965 0.697458 -0.0051 0
0.0840275 0.698293 -0.0051 0
0.0818345 0.697155 -0.0051 0
0.0792277 0.698097 -0.002 0
0.0744838 0.696878 0.0001 0
0.0719421 0.696804 0.0001 0
0.0693747 0.697732 0.0001 0
0.0668928 0.697665 0.0003 0
0.0643183 0.697595 0.0003 0
0.0619961 0.696469 0.0075 0
0.0588142 0.697 0.0075 0
0.0574045 0.696793 -0.001 0
0.0558801 0.69664 -0.001 0
0.0543914 0.697509 0.0048 0
0.0509695 0.696464 0.0048 0
0.0493486 0.696478 0.005 0
0.0479722 0.696468 0.005 0
0.0468297 0.696434 0.0007 0
0.0445993 0.696428 0.0007 0
0.0436215 0.696426 0.0022 0
0.0426059 0.697453 0.0022 0
0.0417799 0.69745 0.0017 0
0.0410258 0.696446 0.0017 0
0.0403299 0.697443 0.0017 0
0.0389912 0.697465 0.0006 0
0.0384616 0.69646 0.0029 0
0.0379775 0.696454 0.0029 0
0.0372526 0.696419 -0.0008 0
0.0368795 0.696416 -0.0008 0
0.0365394 0.696415 -0.0009 0
0.0362299 0.697413 -0.0009 0
0.0359456 0.696412 -0.0009 0
0.0356825 0.69741 0.0014 0
0.0354422 0.697408 0.0014 0
0.0352245 0.697405 -0.0021 0
0.0350259 0.696401 -0.0021 0
0.0348462 0.696397 -0.0021 0
0.0346887 0.697393 -0.0033 0
0.0345354 0.696391 -0.0033 0
0.0342694 0.696383 -0.0023 0
0.0341547 0.696379 -0.0023 0
0.0340637 0.657374 0.0017 0
0.0339568 0.69637 0.0017 0
0.0339447 0.518369 0.0025 0
0.0337989 0.697367 0.0025 0
0.0337329 0.696365 0.0025 0
