ply
format ascii 1.0
element vertex 1729
property float x
property float y
property float z
property float intensity
end_header
0.30019 0.716367 -0.0087 0
0.30019 0.716366 -0.0085 0
0.30019 0.716366 -0.0085 0
0.300189 0.716364 -0.0082 0
0.300189 0.716363 -0.0082 0
0.300189 0.716361 -0.0087 0
0.300189 0.71636 -0.0087 0
0.300189 0.716358 -0.0082 0
0.300188 0.716357 -0.0082 0
0.300189 0.716355 -0.0083 0
0.300189 0.716354 -0.0083 0
0.300189 0.716352 -0.0083 0
0.300188 0.716351 -0.0086 0
0.300187 0.71635 -0.0086 0
0.300186 0.716349 -0.0085 0
0.300309 0.716323 -0.0084 0
0.300275 0.713347 -0.0084 0
0.300185 0.716344 -0.0084 0
0.300184 0.716343 -0.0084 0
0.300184 0.716342 -0.0084 0
0.300183 0.716341 -0.0082 0
0.300183 0.716339 -0.0082 0
0.300183 0.716338 -0.0082 0
0.300183 0.716336 -0.0089 0
0.300183 0.716335 -0.0087 0
0.300183 0.716335 -0.0087 0
0.300183 0.716333 -0.0087 0
0.300182 0.716332 -0.0078 0
0.300182 0.716331 -0.0078 0
0.300183 0.71633 -0.0089 0
0.300183 0.716329 -0.0089 0
0.300183 0.716329 -0.0086 0
0.300182 0.716329 -0.0086 0
0.300183 0.716328 -0.0086 0
0.300183 0.716328 -0.0077 0
0.300182 0.716328 -0.0077 0
0.300181 0.716328 -0.0086 0
0.300182 0.716326 -0.0086 0
0.300182 0.716325 -0.0083 0
0.300182 0.716325 -0.0083 0
0.300183 0.716324 -0.0082 0
0.300184 0.716323 -0.0082 0
0.300184 0.716323 -0.0081 0
0.300184 0.716324 -0.0081 0
0.300184 0.716323 -0.0086 0
0.300183 0.716323 -0.0086 0
0.300183 0.716323 -0.0083 0
0.300182 0.716322 -0.0083 0
0.300181 0.716321 -0.0086 0
0.300211 0.715321 -0.0086 0
0.300181 0.716319 -0.0086 0
0.30018 0.716317 -0.0086 0
0.30018 0.716315 -0.0084 0
0.30018 0.716314 -0.0084 0
0.300179 0.716313 -0.0082 0
0.300179 0.716313 -0.0082 0
0.300178 0.716312 -0.0082 0
0.300178 0.716311 -0.0082 0
0.300178 0.716311 -0.0082 0
0.300178 0.71631 -0.0082 0
0.300177 0.716309 -0.0082 0
0.300177 0.716308 -0.0083 0
0.300178 0.716306 -0.0083 0
0.300178 0.716305 -0.0084 0
0.300178 0.716304 -0.0084 0
0.300177 0.716302 -0.0084 0
0.300177 0.716301 -0.0088 0
0.300177 0.7163 -0.0088 0
0.300176 0.716299 -0.0082 0
0.300177 0.716298 -0.0082 0
0.300176 0.716295 -0.0086 0
0.300176 0.716294 -0.0086 0
0.300177 0.716293 -0.008 0
0.300177 0.716293 -0.008 0
0.300177 0.716292 -0.008 0
0.300207 0.715291 -0.0083 0
0.300176 0.71629 -0.0083 0
0.300177 0.716289 -0.0087 0
0.300177 0.716288 -0.0087 0
0.300301 0.716264 -0.0082 0
0.3003 0.716263 -0.0082 0
0.3003 0.716261 -0.0081 0
0.3003 0.71626 -0.0081 0
0.300299 0.716259 -0.0081 0
0.3003 0.716258 -0.0085 0
0.3003 0.716257 -0.0085 0
0.3003 0.716255 -0.0082 0
0.3003 0.716255 -0.0082 0
0.3003 0.716254 -0.0085 0
0.300301 0.716253 -0.0085 0
0.3003 0.716253 -0.0085 0
0.3003 0.716252 -0.0086 0
0.300359 0.714252 -0.0086 0
0.300299 0.716249 -0.0082 0
0.300298 0.716248 -0.0082 0
0.300298 0.716247 -0.0087 0
0.300298 0.716247 -0.0087 0
0.300297 0.716246 -0.008 0
0.300297 0.716244 -0.008 0
0.300296 0.716243 -0.0085 0
0.300294 0.716241 -0.0085 0
0.300294 0.71624 -0.0084 0
0.300295 0.71624 -0.0084 0
0.300295 0.716239 -0.0084 0
0.300295 0.716238 -0.0084 0
0.300295 0.716237 -0.0084 0
0.300295 0.716237 -0.0087 0
0.300294 0.716236 -0.0087 0
0.300171 0.716258 -0.008 0
0.30017 0.716257 -0.008 0
0.30017 0.716256 -0.008 0
0.300201 0.715256 -0.0086 0
0.300171 0.716255 -0.0086 0
0.300171 0.716254 -0.0073 0
0.300201 0.715254 -0.0073 0
0.300172 0.716252 -0.0073 0
0.300173 0.716251 -0.0091 0
0.300174 0.71625 -0.0091 0
0.300174 0.716248 -0.0086 0
0.300175 0.716248 -0.0086 0
0.300175 0.716247 -0.0085 0
0.300175 0.716246 -0.0085 0
0.300174 0.716245 -0.0084 0
0.300174 0.716243 -0.0084 0
0.300174 0.716242 -0.0077 0
0.300175 0.716241 -0.0077 0
0.300174 0.716241 -0.0079 0
0.300174 0.71624 -0.0079 0
0.300174 0.716239 -0.0079 0
0.300174 0.716238 -0.0089 0
0.300174 0.716237 -0.0089 0
0.300174 0.716237 -0.0089 0
0.300174 0.716236 -0.0088 0
0.300175 0.716233 -0.0086 0
0.300175 0.716233 -0.0086 0
0.300175 0.716232 -0.0086 0
0.300175 0.716231 -0.0082 0
0.300174 0.71623 -0.0082 0
0.300174 0.716229 -0.0082 0
0.300173 0.716229 -0.0085 0
0.300171 0.716228 -0.0085 0
0.300171 0.716227 -0.0085 0
0.300171 0.716226 -0.0089 0
0.300171 0.716226 -0.0089 0
0.300171 0.716226 -0.0084 0
0.30017 0.716225 -0.0084 0
0.30017 0.716225 -0.0084 0
0.30017 0.716224 -0.0083 0
0.300169 0.716222 -0.0083 0
0.300169 0.71622 -0.0079 0
0.300169 0.71622 -0.0079 0
0.300169 0.716219 -0.0083 0
0.300169 0.716219 -0.0083 0
0.300199 0.715219 -0.0081 0
0.300169 0.716217 -0.0081 0
0.300169 0.716216 -0.0081 0
0.300168 0.716215 -0.0085 0
0.300167 0.716214 -0.0085 0
0.300167 0.716213 -0.0085 0
0.300165 0.716212 -0.0081 0
0.300164 0.716212 -0.008 0
0.300164 0.716212 -0.008 0
0.300163 0.716211 -0.0084 0
0.300223 0.714212 -0.0084 0
0.300163 0.71621 -0.0084 0
0.300163 0.716209 -0.0085 0
0.300163 0.716208 -0.0085 0
0.300162 0.716206 -0.0083 0
0.300161 0.716206 -0.0083 0
0.300161 0.716206 -0.0085 0
0.30016 0.716206 -0.0085 0
0.300159 0.716206 -0.008 0
0.300159 0.716204 -0.008 0
0.300159 0.716204 -0.0082 0
0.300159 0.716203 -0.0082 0
0.300159 0.716202 -0.0087 0
0.300158 0.716201 -0.0087 0
0.300281 0.716177 -0.0083 0
0.30028 0.716177 -0.0083 0
0.300369 0.713178 -0.0084 0
0.300156 0.716198 -0.0084 0
0.300156 0.716196 -0.0084 0
0.30028 0.716172 -0.0084 0
0.30028 0.71617 -0.008 0
0.30028 0.71617 -0.008 0
0.300281 0.716168 -0.008 0
0.300281 0.716166 -0.0086 0
0.30028 0.716165 -0.0082 0
0.300281 0.716163 -0.0082 0
0.300281 0.716162 -0.0082 0
0.300282 0.71616 -0.0085 0
0.300283 0.716159 -0.0085 0
0.300283 0.716158 -0.0083 0
0.300284 0.716157 -0.0083 0
0.300284 0.716155 -0.0084 0
0.300284 0.716154 -0.0084 0
0.300284 0.716153 -0.0082 0
0.300284 0.716152 -0.0082 0
0.300286 0.71615 -0.0083 0
0.300286 0.716149 -0.0083 0
0.300287 0.716148 -0.0086 0
0.300287 0.716147 -0.0086 0
0.300287 0.716145 -0.0089 0
0.300286 0.716143 -0.0089 0
0.300286 0.716142 -0.0085 0
0.300287 0.71614 -0.0085 0
0.300287 0.716139 -0.0083 0
0.300288 0.716139 -0.0083 0
0.300288 0.716138 -0.0084 0
0.300165 0.716158 -0.0084 0
0.300165 0.716156 -0.0084 0
0.300165 0.716155 -0.0084 0
0.300165 0.716154 -0.0087 0
0.300165 0.716151 -0.0087 0
0.300165 0.71615 -0.0085 0
0.300165 0.716149 -0.0085 0
0.300165 0.716148 -0.0085 0
0.300164 0.716145 -0.0083 0
0.300164 0.716144 -0.008 0
0.300164 0.716143 -0.008 0
0.300165 0.716141 -0.0083 0
0.300165 0.71614 -0.0083 0
0.300166 0.716139 -0.0083 0
0.300165 0.716138 -0.0083 0
0.300166 0.716138 -0.0083 0
0.300166 0.716138 -0.0082 0
0.300167 0.716137 -0.0082 0
0.300166 0.716135 -0.0082 0
0.300165 0.716135 -0.0081 0
0.300288 0.71611 -0.0081 0
0.300165 0.716133 -0.0086 0
0.300165 0.716133 -0.0086 0
0.300165 0.716133 -0.0085 0
0.300165 0.716133 -0.0085 0
0.300165 0.716132 -0.0086 0
0.300289 0.716108 -0.0086 0
0.300289 0.716108 -0.0086 0
0.300289 0.716108 -0.0085 0
0.300165 0.716131 -0.0085 0
0.300165 0.716132 -0.0085 0
0.300164 0.716132 -0.0085 0
0.300164 0.716132 -0.0086 0
0.300288 0.716108 -0.0086 0
0.300288 0.716107 -0.0082 0
0.300288 0.716107 -0.0082 0
0.300288 0.716107 -0.0082 0
0.30029 0.716105 -0.0085 0
0.300321 0.715104 -0.0085 0
0.30029 0.716104 -0.0081 0
0.300291 0.716103 -0.0081 0
0.300291 0.716101 -0.0082 0
0.300291 0.716099 -0.0087 0
0.300291 0.716098 -0.0087 0
0.30017 0.716121 -0.0078 0
0.300171 0.71612 -0.0078 0
0.30017 0.716119 -0.0078 0
0.30017 0.716118 -0.0083 0
0.300169 0.716116 -0.0087 0
0.300169 0.716115 -0.0087 0
0.300168 0.716114 -0.0085 0
0.300291 0.716089 -0.0085 0
0.300289 0.716087 -0.0086 0
0.300319 0.715087 -0.0086 0
0.300288 0.716086 -0.0086 0
0.300288 0.716083 -0.0086 0
0.300288 0.716082 -0.0085 0
0.300288 0.71608 -0.0085 0
0.300287 0.716078 -0.0082 0
0.300287 0.716076 -0.0082 0
0.300286 0.716072 -0.0083 0
0.300285 0.71607 -0.0083 0
0.300284 0.716068 -0.0082 0
0.300283 0.716065 -0.0082 0
0.300283 0.716064 -0.0081 0
0.300283 0.716062 -0.0081 0
0.300282 0.71606 -0.008 0
0.300282 0.716059 -0.008 0
0.300281 0.716058 -0.008 0
0.300157 0.71608 -0.0081 0
0.300155 0.716077 -0.0081 0
0.300155 0.716075 -0.0083 0
0.300155 0.716072 -0.0083 0
0.300155 0.71607 -0.0084 0
0.300154 0.716068 -0.0084 0
0.300278 0.716042 -0.0085 0
0.300279 0.716041 -0.0085 0
0.300279 0.716039 -0.0082 0
0.300279 0.716038 -0.0082 0
0.300279 0.716036 -0.0076 0
0.300279 0.716035 -0.0076 0
0.30028 0.716034 -0.0084 0
0.30028 0.716033 -0.0084 0
0.30028 0.716032 -0.0085 0
0.300279 0.716033 -0.0085 0
0.300156 0.716055 -0.0081 0
0.300156 0.716054 -0.0083 0
0.300157 0.716053 -0.0083 0
0.300157 0.716052 -0.0083 0
0.300157 0.71605 -0.0086 0
0.300281 0.716025 -0.0083 0
0.30028 0.716025 -0.0083 0
0.300279 0.716024 -0.0083 0
0.300279 0.716023 -0.0085 0
0.300279 0.716022 -0.0085 0
0.300279 0.71602 -0.0085 0
0.300278 0.716019 -0.0085 0
0.300279 0.716018 -0.0085 0
0.300279 0.716017 -0.0083 0
0.300279 0.716016 -0.0083 0
0.300279 0.716015 -0.0083 0
0.300279 0.716014 -0.0082 0
0.300279 0.716014 -0.0082 0
0.300278 0.716013 -0.0082 0
0.300278 0.716012 -0.0085 0
0.300278 0.716011 -0.0085 0
0.300277 0.71601 -0.0085 0
0.300278 0.716008 -0.0085 0
0.300278 0.716005 -0.0082 0
0.300278 0.716004 -0.0082 0
0.300277 0.716004 -0.0086 0
0.300277 0.716004 -0.0086 0
0.300276 0.716003 -0.0078 0
0.300276 0.716002 -0.0078 0
0.300276 0.716001 -0.0078 0
0.300275 0.716001 -0.0081 0
0.300275 0.716 -0.0081 0
0.300275 0.715999 -0.0082 0
0.300274 0.715999 -0.0082 0
0.300274 0.715997 -0.0086 0
0.300273 0.715996 -0.0086 0
0.300273 0.715995 -0.0086 0
0.300272 0.715995 -0.0084 0
0.300271 0.715995 -0.0084 0
0.300269 0.715993 -0.0084 0
0.300268 0.715992 -0.0084 0
0.300268 0.715991 -0.0082 0
0.300267 0.715991 -0.0082 0
0.300266 0.715989 -0.0081 0
0.300266 0.715988 -0.0081 0
0.300264 0.715988 -0.0086 0
0.300263 0.715987 -0.0086 0
0.300262 0.715986 -0.0084 0
0.300262 0.715985 -0.0084 0
0.300262 0.715983 -0.0084 0
0.300261 0.715983 -0.0084 0
0.300261 0.715982 -0.0083 0
0.300135 0.716003 -0.008 0
0.300135 0.716002 -0.008 0
0.300134 0.716 -0.008 0
0.300465 0.705005 -0.0086 0
0.300133 0.715999 -0.0086 0
0.300133 0.715998 -0.0086 0
0.300132 0.715997 -0.0087 0
0.300132 0.715996 -0.0087 0
0.300131 0.715995 -0.0081 0
0.300131 0.715994 -0.0081 0
0.300131 0.715993 -0.0086 0
0.300131 0.715992 -0.0086 0
0.300131 0.715992 -0.009 0
0.300131 0.715991 -0.009 0
0.300131 0.71599 -0.0083 0
0.300131 0.715988 -0.0083 0
0.300132 0.715986 -0.0083 0
0.300133 0.715985 -0.0084 0
0.300134 0.715985 -0.0084 0
0.300136 0.715986 -0.0092 0
0.300137 0.715985 -0.0092 0
0.300137 0.715985 -0.0081 0
0.300137 0.715985 -0.0081 0
0.300137 0.715985 -0.0081 0
0.300137 0.715984 -0.0081 0
0.30026 0.715958 -0.0079 0
0.30026 0.715957 -0.0079 0
0.300259 0.715956 -0.0088 0
0.30026 0.715955 -0.0088 0
0.30026 0.715955 -0.0088 0
0.30026 0.715954 -0.0085 0
0.30026 0.715953 -0.0085 0
0.300136 0.715976 -0.008 0
0.300135 0.715975 -0.008 0
0.300135 0.715976 -0.0084 0
0.300134 0.715975 -0.0084 0
0.300135 0.715975 -0.0084 0
0.300135 0.715974 -0.0082 0
0.300136 0.715973 -0.0082 0
0.300136 0.715972 -0.0088 0
0.30026 0.715946 -0.0083 0
0.30026 0.715945 -0.0083 0
0.300136 0.715967 -0.0083 0
0.300137 0.715966 -0.0081 0
0.300137 0.715966 -0.0081 0
0.300137 0.715965 -0.0087 0
0.300137 0.715962 -0.0087 0
0.300138 0.71596 -0.0083 0
0.300139 0.715959 -0.0083 0
0.30014 0.715957 -0.0083 0
0.30014 0.715956 -0.0083 0
0.300263 0.715932 -0.0083 0
0.30014 0.715955 -0.0089 0
0.300234 0.716931 -0.0089 0
0.30014 0.715954 -0.0089 0
0.300264 0.71593 -0.0088 0
0.300264 0.715929 -0.0088 0
0.300264 0.715926 -0.0086 0
0.300265 0.715926 -0.0082 0
0.300324 0.713926 -0.0082 0
0.300264 0.715925 -0.0082 0
0.300265 0.715924 -0.0082 0
0.300264 0.715922 -0.0082 0
0.30014 0.715945 -0.0082 0
0.300264 0.715921 -0.0084 0
0.300264 0.71592 -0.0085 0
0.300141 0.715943 -0.0085 0
0.300141 0.715942 -0.0085 0
0.30014 0.71594 -0.0081 0
0.30014 0.715937 -0.0087 0
0.300264 0.715911 -0.0087 0
0.300265 0.71591 -0.0079 0
0.300265 0.71591 -0.0079 0
0.300266 0.715909 -0.0079 0
0.300266 0.715908 -0.0091 0
0.300266 0.715906 -0.0091 0
0.300266 0.715905 -0.0085 0
0.300266 0.715902 -0.0085 0
0.300265 0.7159 -0.0083 0
0.300265 0.7159 -0.0083 0
0.300265 0.7159 -0.0087 0
0.300264 0.7159 -0.0087 0
0.300139 0.715923 -0.0087 0
0.300139 0.715922 -0.0082 0
0.300138 0.71592 -0.0083 0
0.300137 0.715919 -0.0083 0
0.300137 0.715918 -0.0083 0
0.300137 0.715917 -0.0087 0
0.300137 0.715917 -0.0087 0
0.300138 0.715917 -0.0087 0
0.300138 0.715917 -0.0083 0
0.300138 0.715916 -0.0085 0
0.300137 0.715915 -0.0085 0
0.300138 0.715913 -0.0085 0
0.300138 0.715912 -0.0081 0
0.300138 0.715911 -0.0081 0
0.300138 0.715909 -0.0085 0
0.300137 0.715908 -0.0086 0
0.300137 0.715906 -0.0086 0
0.300136 0.715905 -0.0084 0
0.300137 0.715904 -0.0084 0
0.300137 0.715903 -0.0083 0
0.300137 0.7159 -0.0083 0
0.300137 0.715899 -0.008 0
0.300137 0.715898 -0.008 0
0.300137 0.715897 -0.0084 0
0.300137 0.715895 -0.0084 0
0.300137 0.715894 -0.0084 0
0.300137 0.715892 -0.0084 0
0.300138 0.715891 -0.008 0
0.300138 0.715891 -0.008 0
0.300138 0.715889 -0.0081 0
0.300138 0.715889 -0.0081 0
0.300138 0.715887 -0.0084 0
0.300138 0.715887 -0.0084 0
0.300138 0.715887 -0.0081 0
0.300138 0.715886 -0.0081 0
0.300137 0.715886 -0.0086 0
0.300137 0.715886 -0.0086 0
0.300137 0.715885 -0.008 0
0.300136 0.715884 -0.008 0
0.300136 0.715885 -0.008 0
0.300136 0.715884 -0.008 0
0.300137 0.715884 -0.0085 0
0.300137 0.715883 -0.0085 0
0.300137 0.715882 -0.0085 0
0.300137 0.715882 -0.0084 0
0.300137 0.715881 -0.0084 0
0.300138 0.715879 -0.008 0
0.300138 0.715877 -0.008 0
0.300138 0.715875 -0.0082 0
0.300139 0.715874 -0.0082 0
0.300139 0.715873 -0.0082 0
0.300139 0.715872 -0.0081 0
0.300139 0.715871 -0.0081 0
0.300139 0.71587 -0.0081 0
0.300139 0.715869 -0.0085 0
0.30023 0.712869 -0.0085 0
0.300141 0.715866 -0.0085 0
0.300141 0.715866 -0.0085 0
0.300141 0.715865 -0.0084 0
0.300141 0.715864 -0.0084 0
0.300141 0.715863 -0.0084 0
0.300141 0.715863 -0.0087 0
0.300141 0.715861 -0.0087 0
0.300142 0.715861 -0.0081 0
0.300142 0.715859 -0.0087 0
0.300142 0.715858 -0.0087 0
0.300142 0.715858 -0.0087 0
0.300142 0.715858 -0.0088 0
0.300142 0.715858 -0.0088 0
0.300142 0.715857 -0.0088 0
0.300141 0.715856 -0.0084 0
0.300141 0.715855 -0.0084 0
0.300141 0.715853 -0.0082 0
0.300141 0.715852 -0.0082 0
0.300141 0.715852 -0.0085 0
0.300141 0.715852 -0.0085 0
0.300141 0.71585 -0.0081 0
0.300141 0.71585 -0.0081 0
0.30014 0.71585 -0.0088 0
0.30014 0.715849 -0.0088 0
0.30014 0.715849 -0.0088 0
0.300141 0.715848 -0.0082 0
0.300141 0.715848 -0.0082 0
0.300141 0.715847 -0.0084 0
0.300141 0.715847 -0.0084 0
0.30014 0.715846 -0.0084 0
0.30014 0.715845 -0.0085 0
0.300141 0.715845 -0.0085 0
0.300141 0.715844 -0.0083 0
0.300142 0.715843 -0.0083 0
0.300142 0.715843 -0.0083 0
0.300143 0.715842 -0.0079 0
0.300143 0.715841 -0.0083 0
0.300144 0.715841 -0.0083 0
0.300144 0.71584 -0.0083 0
0.300235 0.712841 -0.0082 0
0.300146 0.715839 -0.0082 0
0.300146 0.715838 -0.0082 0
0.300147 0.715837 -0.0082 0
0.300147 0.715837 -0.0082 0
0.300147 0.715836 -0.0083 0
0.300147 0.715835 -0.0083 0
0.300147 0.715833 -0.008 0
0.300148 0.715832 -0.008 0
0.300148 0.715831 -0.0078 0
0.300147 0.715831 -0.0078 0
0.300147 0.715831 -0.0081 0
0.300147 0.715831 -0.0081 0
0.300147 0.715831 -0.0081 0
0.300148 0.715828 -0.0084 0
0.300148 0.715827 -0.0081 0
0.300148 0.715825 -0.0081 0
0.300148 0.715824 -0.0081 0
0.300179 0.714823 -0.0084 0
0.300149 0.715822 -0.0084 0
0.30015 0.715822 -0.0082 0
0.30015 0.715822 -0.0082 0
0.30015 0.715821 -0.0084 0
0.300151 0.715821 -0.0084 0
0.300151 0.71582 -0.0083 0
0.300151 0.71582 -0.0083 0
0.30015 0.715819 -0.0083 0
0.30015 0.715818 -0.0081 0
0.300148 0.715817 -0.0088 0
0.300147 0.715816 -0.0088 0
0.300147 0.715815 -0.0088 0
0.300147 0.715814 -0.0082 0
0.300147 0.715813 -0.0082 0
0.300147 0.715814 -0.0087 0
0.300237 0.712815 -0.0087 0
0.300147 0.715813 -0.0087 0
0.300148 0.715812 -0.0084 0
0.300148 0.71581 -0.0084 0
0.300148 0.715809 -0.0084 0
0.300147 0.715806 -0.0085 0
0.300146 0.715805 -0.0082 0
0.300145 0.715804 -0.0082 0
0.300144 0.715802 -0.0086 0
0.300143 0.715801 -0.0086 0
0.300143 0.7158 -0.0083 0
0.300142 0.715799 -0.0083 0
0.300142 0.715797 -0.0084 0
0.300141 0.715797 -0.0084 0
0.300141 0.715796 -0.0087 0
0.30014 0.715795 -0.0087 0
0.30014 0.715794 -0.0083 0
0.300139 0.715793 -0.0083 0
0.300138 0.715792 -0.0083 0
0.300197 0.713792 -0.0089 0
0.300137 0.715791 -0.0089 0
0.300197 0.713791 -0.0086 0
0.300137 0.715789 -0.0086 0
0.300137 0.715788 -0.0083 0
0.300138 0.715787 -0.0083 0
0.300138 0.715784 -0.0088 0
0.300137 0.715783 -0.0088 0
0.300137 0.715782 -0.0088 0
0.30026 0.715756 -0.0079 0
0.30026 0.715756 -0.0083 0
0.30026 0.715756 -0.0083 0
0.30026 0.715756 -0.0083 0
0.300136 0.715779 -0.0084 0
0.300136 0.715777 -0.0083 0
0.30026 0.715753 -0.0083 0
0.30026 0.715752 -0.0083 0
0.300138 0.715772 -0.0082 0
0.30014 0.715771 -0.0083 0
0.30014 0.715771 -0.0083 0
0.298907 0.756752 -0.0083 0
0.300142 0.715771 -0.0085 0
0.300172 0.714771 -0.0085 0
0.300141 0.71577 -0.0085 0
0.30014 0.71577 -0.0085 0
0.300264 0.715746 -0.0082 0
0.300263 0.715745 -0.0082 0
0.300262 0.715743 -0.0084 0
0.300263 0.715743 -0.0084 0
0.300263 0.715742 -0.0082 0
0.300264 0.715742 -0.0082 0
0.300264 0.715741 -0.0085 0
0.300265 0.71574 -0.0085 0
0.300264 0.715739 -0.008 0
0.300264 0.715738 -0.008 0
0.300264 0.715737 -0.008 0
0.300263 0.715735 -0.0085 0
0.300263 0.715733 -0.0084 0
0.300262 0.715732 -0.0084 0
0.300262 0.715732 -0.0084 0
0.300261 0.715731 -0.008 0
0.300261 0.71573 -0.008 0
0.300261 0.715729 -0.0086 0
0.300261 0.715727 -0.0085 0
0.300262 0.715727 -0.0085 0
0.300263 0.715727 -0.0085 0
0.300263 0.715726 -0.0086 0
0.300264 0.715725 -0.0086 0
0.300263 0.715724 -0.0082 0
0.300263 0.715723 -0.0082 0
0.300263 0.715722 -0.0082 0
0.300263 0.715721 -0.0081 0
0.300263 0.715721 -0.0081 0
0.300263 0.71572 -0.0083 0
0.300263 0.715719 -0.0083 0
0.300262 0.715717 -0.0082 0
0.300262 0.715717 -0.0082 0
0.300262 0.715716 -0.008 0
0.300263 0.715715 -0.008 0
0.300263 0.715715 -0.008 0
0.300262 0.715715 -0.0086 0
0.300263 0.715715 -0.0086 0
0.300263 0.715712 -0.0083 0
0.300262 0.71571 -0.0083 0
0.300262 0.715709 -0.0088 0
0.300262 0.715708 -0.0088 0
0.300139 0.71573 -0.0088 0
0.300138 0.715727 -0.0084 0
0.300199 0.713726 -0.0084 0
0.300139 0.715724 -0.0084 0
0.300139 0.715722 -0.0086 0
0.300138 0.715721 -0.0086 0
0.300138 0.71572 -0.0086 0
0.300138 0.715719 -0.0083 0
0.300138 0.715717 -0.0083 0
0.300137 0.715716 -0.0085 0
0.300261 0.71569 -0.0085 0
0.300137 0.715713 -0.0085 0
0.300197 0.713713 -0.0085 0
0.30026 0.715687 -0.0082 0
0.300136 0.715709 -0.0082 0
0.300136 0.715707 -0.0082 0
0.300136 0.715706 -0.008 0
0.300136 0.715706 -0.008 0
0.300135 0.715703 -0.0085 0
0.300136 0.715703 -0.0085 0
0.300135 0.715702 -0.0081 0
0.300134 0.715701 -0.0081 0
0.300258 0.715677 -0.0081 0
0.300194 0.7137 -0.0081 0
0.300134 0.715698 -0.0081 0
0.300134 0.715697 -0.0085 0
0.300258 0.71567 -0.0085 0
0.300258 0.715668 -0.0083 0
0.300259 0.715667 -0.0083 0
0.300259 0.715666 -0.0084 0
0.30026 0.715664 -0.0084 0
0.30026 0.715663 -0.0084 0
0.30026 0.715662 -0.0079 0
0.30026 0.715661 -0.0079 0
0.300261 0.71566 -0.0084 0
0.300261 0.71566 -0.0084 0
0.300261 0.715659 -0.0087 0
0.300261 0.715659 -0.0087 0
0.30026 0.715658 -0.008 0
0.30026 0.715657 -0.008 0
0.300259 0.715657 -0.0088 0
0.300258 0.715658 -0.0088 0
0.300258 0.715658 -0.0084 0
0.300257 0.715659 -0.0084 0
0.300256 0.715658 -0.0088 0
0.300256 0.715657 -0.0088 0
0.300255 0.715657 -0.0082 0
0.300256 0.715655 -0.0086 0
0.300256 0.715654 -0.0086 0
0.300256 0.715652 -0.0086 0
0.300256 0.715651 -0.0086 0
0.300255 0.715648 -0.0086 0
0.300255 0.715646 -0.0079 0
0.300256 0.715644 -0.0079 0
0.300256 0.715643 -0.0083 0
0.300255 0.71564 -0.0084 0
0.300255 0.715639 -0.0084 0
0.300255 0.715638 -0.0084 0
0.300256 0.715636 -0.0085 0
0.300255 0.715634 -0.0081 0
0.300255 0.715633 -0.0081 0
0.300254 0.715632 -0.0081 0
0.300253 0.71563 -0.0086 0
0.300252 0.71563 -0.0086 0
0.300252 0.715628 -0.0086 0
0.300252 0.715626 -0.0086 0
0.300252 0.715624 -0.008 0
0.300251 0.715623 -0.008 0
0.30025 0.715622 -0.0086 0
0.30025 0.715621 -0.0086 0
0.30025 0.71562 -0.008 0
0.30025 0.715617 -0.0085 0
0.30025 0.715615 -0.0085 0
0.30025 0.715614 -0.0085 0
0.300249 0.715611 -0.0084 0
0.300249 0.71561 -0.0084 0
0.300248 0.715609 -0.0084 0
0.300247 0.715608 -0.0084 0
0.300247 0.715608 -0.0086 0
0.300246 0.715607 -0.0086 0
0.300246 0.715606 -0.0086 0
0.300246 0.715605 -0.0089 0
0.300246 0.715604 -0.0089 0
0.300245 0.715604 -0.0084 0
0.300245 0.715603 -0.0084 0
0.300244 0.715603 -0.0083 0
0.300243 0.715602 -0.0083 0
0.300243 0.7156 -0.0088 0
0.300242 0.715598 -0.0088 0
0.300242 0.715596 -0.0085 0
0.300242 0.715592 -0.0085 0
0.300242 0.715592 -0.0088 0
0.300243 0.715591 -0.0088 0
0.300243 0.715591 -0.0083 0
0.300243 0.71559 -0.0083 0
0.300244 0.715589 -0.0083 0
0.300245 0.715588 -0.0083 0
0.300245 0.715588 -0.0082 0
0.300245 0.715586 -0.0082 0
0.300245 0.715585 -0.0082 0
0.300244 0.715583 -0.0085 0
0.300245 0.715581 -0.0085 0
0.300244 0.715579 -0.0089 0
0.300244 0.715579 -0.0089 0
0.300244 0.715579 -0.0083 0
0.300245 0.715578 -0.0083 0
0.300246 0.715578 -0.0084 0
0.300246 0.715577 -0.0084 0
0.300246 0.715576 -0.0084 0
0.300246 0.715575 -0.0083 0
0.300246 0.715575 -0.0083 0
0.300246 0.715575 -0.0083 0
0.300246 0.715574 -0.0076 0
0.300246 0.715571 -0.008 0
0.300246 0.71557 -0.008 0
0.300247 0.715568 -0.0081 0
0.300247 0.715568 -0.0081 0
0.300248 0.715567 -0.0081 0
0.300248 0.715565 -0.0083 0
0.300249 0.715564 -0.0083 0
0.30025 0.715563 -0.0082 0
0.30025 0.715562 -0.0082 0
0.300251 0.715562 -0.0082 0
0.30025 0.715561 -0.0087 0
0.300251 0.71556 -0.0087 0
0.300251 0.715558 -0.0085 0
0.30025 0.715555 -0.0085 0
0.30025 0.715554 -0.0085 0
0.300249 0.715553 -0.0085 0
0.300249 0.715552 -0.0084 0
0.300249 0.715551 -0.0084 0
0.300247 0.715551 -0.0084 0
0.300247 0.715549 -0.0085 0
0.300248 0.715548 -0.0085 0
0.300248 0.715547 -0.0085 0
0.300248 0.715545 -0.008 0
0.300248 0.715544 -0.0084 0
0.300248 0.715543 -0.0084 0
0.300247 0.715542 -0.0085 0
0.300247 0.715541 -0.0085 0
0.300246 0.71554 -0.0085 0
0.300246 0.715537 -0.0088 0
0.300244 0.715534 -0.0088 0
0.300243 0.715532 -0.0083 0
0.300243 0.715531 -0.0083 0
0.300242 0.715529 -0.0083 0
0.300241 0.715529 -0.0083 0
0.30024 0.715528 -0.0083 0
0.300239 0.715526 -0.0083 0
0.300238 0.715524 -0.0085 0
0.300237 0.715522 -0.0085 0
0.300236 0.715521 -0.0085 0
0.300235 0.715519 -0.0085 0
0.300234 0.715518 -0.0085 0
0.300234 0.715517 -0.0078 0
0.300233 0.715517 -0.0078 0
0.300233 0.715516 -0.0082 0
0.300233 0.715515 -0.0082 0
0.300263 0.714515 -0.0082 0
0.300232 0.715512 -0.0084 0
0.300233 0.715511 -0.0084 0
0.300233 0.71551 -0.0084 0
0.300232 0.71551 -0.0084 0
0.300232 0.715508 -0.0086 0
0.300232 0.715507 -0.0086 0
0.300232 0.715505 -0.0084 0
0.300231 0.715504 -0.0084 0
0.30023 0.715501 -0.0084 0
0.30023 0.715501 -0.0084 0
0.30023 0.715501 -0.0078 0
0.30023 0.7155 -0.0078 0
0.300229 0.715499 -0.0078 0
0.300289 0.713499 -0.0084 0
0.300228 0.715497 -0.0084 0
0.300228 0.715496 -0.0083 0
0.300228 0.715495 -0.0083 0
0.300227 0.715494 -0.0083 0
0.300228 0.715493 -0.0085 0
0.300228 0.715492 -0.0085 0
0.300228 0.715492 -0.0079 0
0.300228 0.71549 -0.0079 0
0.300228 0.715489 -0.0081 0
0.300228 0.715489 -0.0081 0
0.300228 0.715488 -0.008 0
0.300227 0.715487 -0.008 0
0.300227 0.715487 -0.008 0
0.300227 0.715487 -0.0085 0
0.300227 0.715486 -0.0085 0
0.300257 0.714485 -0.0081 0
0.300257 0.714484 -0.0081 0
0.300227 0.715483 -0.0081 0
0.300226 0.715482 -0.0082 0
0.300585 0.703487 -0.0086 0
0.300225 0.71548 -0.0086 0
0.300224 0.715479 -0.0086 0
0.300224 0.715478 -0.0081 0
0.300224 0.715478 -0.0081 0
0.300224 0.715477 -0.0085 0
0.300223 0.715476 -0.0085 0
0.300222 0.715475 -0.0083 0
0.300098 0.715499 -0.0083 0
0.300098 0.715498 -0.0079 0
0.300098 0.715498 -0.0079 0
0.300097 0.715497 -0.0085 0
0.300098 0.715496 -0.0085 0
0.300097 0.715496 -0.0085 0
0.300098 0.715496 -0.0079 0
0.300098 0.715495 -0.0079 0
0.300098 0.715494 -0.008 0
0.300098 0.715494 -0.008 0
0.300097 0.715493 -0.0082 0
0.300098 0.715492 -0.0082 0
0.300222 0.715468 -0.0082 0
0.300222 0.715466 -0.0085 0
0.300221 0.715466 -0.0085 0
0.30022 0.715465 -0.0087 0
0.300095 0.715486 -0.0087 0
0.300095 0.715485 -0.0084 0
0.300219 0.71546 -0.0084 0
0.300219 0.715459 -0.0085 0
0.300309 0.712458 -0.0085 0
0.300219 0.715457 -0.0085 0
0.300217 0.715456 -0.0085 0
0.300216 0.715455 -0.0091 0
0.300215 0.715453 -0.0091 0
0.300215 0.715452 -0.0089 0
0.300215 0.715451 -0.0079 0
0.300215 0.71545 -0.0079 0
0.300215 0.715449 -0.0079 0
0.300215 0.715448 -0.0085 0
0.300216 0.715447 -0.0087 0
0.300216 0.715446 -0.0087 0
0.300217 0.715445 -0.0087 0
0.300217 0.715444 -0.0085 0
0.300217 0.715441 -0.0084 0
0.300217 0.715441 -0.0084 0
0.300218 0.715439 -0.0087 0
0.300218 0.715439 -0.0087 0
0.300219 0.715438 -0.0081 0
0.30022 0.715437 -0.0081 0
0.300221 0.715436 -0.0081 0
0.300221 0.715434 -0.0088 0
0.300222 0.715433 -0.0083 0
0.300222 0.715432 -0.0083 0
0.300222 0.715432 -0.0083 0
0.300098 0.715454 -0.0081 0
0.300098 0.715453 -0.0082 0
0.300098 0.715452 -0.0082 0
0.300099 0.715451 -0.0085 0
0.300099 0.715451 -0.0085 0
0.300099 0.715451 -0.0081 0
0.300099 0.715451 -0.0081 0
0.3001 0.715452 -0.0084 0
0.3001 0.715451 -0.0083 0
0.3001 0.715451 -0.0083 0
0.3001 0.71545 -0.0083 0
0.3001 0.715447 -0.0083 0
0.3001 0.715446 -0.0083 0
0.3001 0.715445 -0.0083 0
0.301303 0.675462 -0.0083 0
0.3001 0.715444 -0.0082 0
0.3001 0.715443 -0.0082 0
0.300101 0.715442 -0.0086 0
0.300101 0.715441 -0.0086 0
0.300101 0.71544 -0.0086 0
0.300101 0.715439 -0.0083 0
0.300101 0.715439 -0.0083 0
0.3001 0.715437 -0.0087 0
0.300101 0.715436 -0.0087 0
0.300101 0.715435 -0.0082 0
0.300101 0.715434 -0.0082 0
0.3001 0.715433 -0.0084 0
0.300098 0.715431 -0.0084 0
0.300098 0.71543 -0.0084 0
0.300097 0.715428 -0.0084 0
0.300096 0.715426 -0.0083 0
0.300095 0.715425 -0.0083 0
0.300095 0.715423 -0.0083 0
0.300096 0.715422 -0.0083 0
0.300095 0.715421 -0.0083 0
0.300096 0.71542 -0.0084 0
0.300096 0.715418 -0.0084 0
0.300098 0.715416 -0.0084 0
0.300099 0.715415 -0.0084 0
0.300099 0.715414 -0.0085 0
0.300099 0.715413 -0.0085 0
0.300099 0.715411 -0.0085 0
0.300098 0.71541 -0.0078 0
0.300098 0.71541 -0.0078 0
0.300098 0.715409 -0.0086 0
0.300098 0.715408 -0.0086 0
0.300098 0.715408 -0.0086 0
0.300097 0.715407 -0.0081 0
0.300097 0.715406 -0.0081 0
0.300098 0.715406 -0.0082 0
0.3001 0.715402 -0.0082 0
0.3001 0.7154 -0.0082 0
0.300101 0.715398 -0.0082 0
0.300102 0.715396 -0.0086 0
0.300102 0.715394 -0.0086 0
0.300102 0.715392 -0.0086 0
0.300102 0.71539 -0.0084 0
0.300102 0.715389 -0.0079 0
0.300103 0.715388 -0.0079 0
0.300103 0.715387 -0.0083 0
0.300103 0.715386 -0.0083 0
0.300104 0.715385 -0.0083 0
0.300104 0.715385 -0.0083 0
0.300105 0.715384 -0.0082 0
0.300196 0.712385 -0.0082 0
0.300105 0.715384 -0.0087 0
0.300105 0.715381 -0.0087 0
0.300105 0.71538 -0.0082 0
0.300105 0.715379 -0.0082 0
0.300165 0.71338 -0.0086 0
0.300104 0.715377 -0.0086 0
0.300104 0.715376 -0.0085 0
0.300105 0.715375 -0.0085 0
0.300105 0.715375 -0.0077 0
0.300105 0.715374 -0.0077 0
0.300104 0.715373 -0.0083 0
0.300104 0.715372 -0.0083 0
0.300228 0.715346 -0.0084 0
0.300226 0.715343 -0.0084 0
0.300226 0.715342 -0.0086 0
0.300226 0.715341 -0.0086 0
0.300226 0.715339 -0.0086 0
0.300102 0.715361 -0.0086 0
0.300101 0.715358 -0.0082 0
0.3001 0.715357 -0.0082 0
0.300099 0.715357 -0.0085 0
0.300098 0.715354 -0.0085 0
0.300189 0.712354 -0.0084 0
0.300098 0.715352 -0.0084 0
0.300099 0.715351 -0.0083 0
0.300099 0.71535 -0.0083 0
0.3001 0.71535 -0.0083 0
0.300461 0.703355 -0.0084 0
0.3001 0.715349 -0.0084 0
0.300224 0.715325 -0.0085 0
0.300224 0.715324 -0.0085 0
0.3001 0.715346 -0.0085 0
0.3001 0.715345 -0.0082 0
0.3001 0.715344 -0.0082 0
0.3001 0.715344 -0.0082 0
0.300099 0.715343 -0.0082 0
0.300099 0.715342 -0.0085 0
0.300099 0.715341 -0.0085 0
0.300098 0.715339 -0.008 0
0.300098 0.715338 -0.008 0
0.300097 0.715337 -0.0081 0
0.300097 0.715337 -0.0081 0
0.300096 0.715335 -0.0083 0
0.300096 0.715334 -0.0083 0
0.300096 0.715333 -0.0078 0
0.300096 0.715332 -0.0078 0
0.300219 0.715306 -0.0084 0
0.300219 0.715304 -0.0084 0
0.300219 0.715302 -0.0084 0
0.30022 0.715302 -0.0084 0
0.300096 0.715323 -0.008 0
0.30022 0.715299 -0.008 0
0.300221 0.715298 -0.0085 0
0.30022 0.715297 -0.0085 0
0.300221 0.715294 -0.0085 0
0.300097 0.715317 -0.0085 0
0.300097 0.715316 -0.0082 0
0.300097 0.715314 -0.0085 0
0.300097 0.715312 -0.0085 0
0.300097 0.715311 -0.0085 0
0.300097 0.715309 -0.008 0
0.300097 0.715308 -0.0083 0
0.300097 0.715306 -0.0083 0
0.300097 0.715305 -0.0083 0
0.300097 0.715304 -0.0086 0
0.300097 0.715304 -0.0083 0
0.300097 0.715303 -0.0083 0
0.300099 0.715302 -0.0083 0
0.300222 0.715278 -0.0083 0
0.300222 0.715274 -0.0084 0
0.300222 0.715273 -0.0084 0
0.300222 0.715272 -0.0087 0
0.300222 0.715271 -0.0081 0
0.300222 0.71527 -0.0081 0
0.300221 0.715269 -0.0081 0
0.300222 0.715268 -0.0086 0
0.300222 0.715267 -0.0086 0
0.300222 0.715266 -0.0083 0
0.300224 0.715263 -0.0083 0
0.300223 0.715261 -0.0088 0
0.300223 0.715259 -0.0088 0
0.300223 0.715257 -0.0084 0
0.300099 0.715279 -0.0084 0
0.300099 0.715278 -0.0084 0
0.300099 0.715276 -0.0082 0
0.300098 0.715275 -0.0081 0
0.300098 0.715274 -0.0081 0
0.300098 0.715274 -0.0081 0
0.300097 0.71527 -0.0082 0
0.300097 0.715269 -0.0089 0
0.300096 0.715267 -0.0089 0
0.300096 0.715266 -0.0089 0
0.300096 0.715266 -0.0087 0
0.300095 0.715265 -0.0085 0
0.300095 0.715264 -0.0085 0
0.300095 0.715264 -0.0085 0
0.300096 0.715263 -0.008 0
0.300097 0.715262 -0.0079 0
0.300097 0.715261 -0.0079 0
0.300098 0.715261 -0.0079 0
0.300097 0.71526 -0.0081 0
0.300097 0.715259 -0.0084 0
0.300097 0.715259 -0.0084 0
0.300097 0.715259 -0.0084 0
0.300096 0.715258 -0.0089 0
0.300095 0.715257 -0.0084 0
0.300094 0.715255 -0.0084 0
0.300216 0.715231 -0.0082 0
0.300215 0.71523 -0.0082 0
0.300215 0.715229 -0.008 0
0.300215 0.715227 -0.008 0
0.300214 0.715227 -0.0085 0
0.300214 0.715226 -0.0085 0
0.300213 0.715225 -0.0079 0
0.300213 0.715225 -0.0079 0
0.300214 0.715223 -0.0086 0
0.300274 0.713222 -0.0086 0
0.300214 0.71522 -0.0086 0
0.300214 0.715219 -0.0086 0
0.300214 0.715216 -0.0078 0
0.300215 0.715216 -0.0078 0
0.300215 0.715216 -0.008 0
0.300215 0.715214 -0.008 0
0.300091 0.715236 -0.0086 0
0.300091 0.715235 -0.0086 0
0.300091 0.715235 -0.0088 0
0.300091 0.715234 -0.0088 0
0.300091 0.715234 -0.0088 0
0.300092 0.715234 -0.0084 0
0.300092 0.715233 -0.0084 0
0.300091 0.715232 -0.0087 0
0.300092 0.715231 -0.0087 0
0.300092 0.71523 -0.0089 0
0.300092 0.715229 -0.0089 0
0.300092 0.715228 -0.0084 0
0.300092 0.715227 -0.0084 0
0.300217 0.715202 -0.0084 0
0.300094 0.715222 -0.0083 0
0.300094 0.715222 -0.0088 0
0.300093 0.715222 -0.0088 0
0.300094 0.715221 -0.0088 0
0.300094 0.71522 -0.0084 0
0.300094 0.715219 -0.0084 0
0.300094 0.715218 -0.0087 0
0.300094 0.715218 -0.0087 0
0.300094 0.715217 -0.0087 0
0.300217 0.715191 -0.0086 0
0.300217 0.715191 -0.0083 0
0.300217 0.71519 -0.0083 0
0.300216 0.715188 -0.0083 0
0.300216 0.715187 -0.0086 0
0.300215 0.715184 -0.0081 0
0.300214 0.715183 -0.0081 0
0.300214 0.715182 -0.0081 0
0.300215 0.715182 -0.0082 0
0.300215 0.715181 -0.0082 0
0.300215 0.71518 -0.0086 0
0.300214 0.715179 -0.0086 0
0.300214 0.715178 -0.0086 0
0.300214 0.715177 -0.0084 0
0.300214 0.715176 -0.0084 0
0.300214 0.715175 -0.0084 0
0.300303 0.712176 -0.0084 0
0.300214 0.715174 -0.0084 0
0.300214 0.715173 -0.0082 0
0.300213 0.715173 -0.0082 0
0.300213 0.715171 -0.0086 0
0.300211 0.715168 -0.0086 0
0.30027 0.713167 -0.0082 0
0.30021 0.715165 -0.0082 0
0.300209 0.715163 -0.0084 0
0.300208 0.715161 -0.0084 0
0.300208 0.71516 -0.0082 0
0.300207 0.715159 -0.0082 0
0.300207 0.715158 -0.0084 0
0.300206 0.715157 -0.0084 0
0.300443 0.703186 -0.0084 0
0.300082 0.715179 -0.0084 0
0.300082 0.715178 -0.0088 0
0.300082 0.715177 -0.0088 0
0.300082 0.715176 -0.0085 0
0.300081 0.715175 -0.0085 0
0.300204 0.71515 -0.0081 0
0.300204 0.71515 -0.0081 0
0.30008 0.715172 -0.009 0
0.30008 0.715171 -0.009 0
0.300079 0.715169 -0.0077 0
0.300079 0.715167 -0.0077 0
0.300079 0.715166 -0.0082 0
0.300079 0.715164 -0.0084 0
0.300079 0.715164 -0.0084 0
0.300079 0.715163 -0.0084 0
0.30008 0.715161 -0.0083 0
0.30008 0.71516 -0.0081 0
0.30008 0.715158 -0.0081 0
0.30008 0.715158 -0.0081 0
0.30008 0.715156 -0.0083 0
0.30008 0.715155 -0.0079 0
0.300079 0.715153 -0.0079 0
0.300203 0.715129 -0.0079 0
0.300202 0.715128 -0.0087 0
0.300078 0.71515 -0.0087 0
0.300077 0.715149 -0.0081 0
0.300046 0.716147 -0.0081 0
0.300199 0.715122 -0.0081 0
0.300199 0.715121 -0.0084 0
0.300199 0.715119 -0.0086 0
0.300199 0.715117 -0.0086 0
0.300199 0.715116 -0.0086 0
0.3002 0.715115 -0.0083 0
0.3002 0.715114 -0.0083 0
0.300201 0.71511 -0.0086 0
0.300201 0.715109 -0.0086 0
0.300202 0.715108 -0.0083 0
0.300202 0.715109 -0.0083 0
0.300202 0.715109 -0.0088 0
0.300202 0.715109 -0.0088 0
0.300202 0.715108 -0.0088 0
0.300203 0.715106 -0.008 0
0.300203 0.715106 -0.008 0
0.300203 0.715106 -0.008 0
0.300203 0.715106 -0.0085 0
0.300204 0.715105 -0.0085 0
0.300205 0.715101 -0.0082 0
0.300205 0.7151 -0.0082 0
0.300206 0.715099 -0.0084 0
0.300236 0.714098 -0.0083 0
0.300205 0.715097 -0.0083 0
0.300205 0.715096 -0.0083 0
0.300205 0.715095 -0.0087 0
0.300204 0.715094 -0.0087 0
0.300204 0.715093 -0.0083 0
0.300204 0.715092 -0.0083 0
0.300203 0.715091 -0.0083 0
0.300204 0.71509 -0.0082 0
0.300204 0.715087 -0.0082 0
0.300204 0.715085 -0.0082 0
0.300205 0.715083 -0.0082 0
0.300205 0.715081 -0.008 0
0.300206 0.71508 -0.008 0
0.300206 0.715081 -0.0085 0
0.300207 0.71508 -0.0085 0
0.300206 0.715079 -0.0079 0
0.300206 0.715078 -0.0079 0
0.300206 0.715078 -0.008 0
0.300206 0.715078 -0.008 0
0.300206 0.715078 -0.008 0
0.300207 0.715076 -0.009 0
0.300207 0.715075 -0.0079 0
0.300238 0.714074 -0.0079 0
0.300208 0.715072 -0.0079 0
0.300207 0.715071 -0.0085 0
0.300207 0.71507 -0.0085 0
0.300207 0.715067 -0.008 0
0.300207 0.715066 -0.008 0
0.300267 0.713065 -0.008 0
0.300207 0.715062 -0.008 0
0.300206 0.715061 -0.008 0
0.300237 0.71406 -0.008 0
0.300207 0.715058 -0.008 0
0.300207 0.715056 -0.0084 0
0.300207 0.715055 -0.0087 0
0.29898 0.756036 -0.0087 0
0.300206 0.715055 -0.0087 0
0.300206 0.715055 -0.0081 0
0.300205 0.715055 -0.0081 0
0.300205 0.715054 -0.0082 0
0.300205 0.715054 -0.0082 0
0.300205 0.715053 -0.0082 0
0.300206 0.715051 -0.0083 0
0.300206 0.71505 -0.0086 0
0.300205 0.715049 -0.0086 0
0.300205 0.715048 -0.0086 0
0.300205 0.715048 -0.0082 0
0.300205 0.715047 -0.0082 0
0.300204 0.715046 -0.0083 0
0.30008 0.715067 -0.0083 0
0.30008 0.715066 -0.0086 0
0.30008 0.715066 -0.0086 0
0.298847 0.756045 -0.0088 0
0.30008 0.715062 -0.0088 0
0.30008 0.715061 -0.0082 0
0.30008 0.71506 -0.0082 0
0.30008 0.715058 -0.0083 0
0.300079 0.715057 -0.0083 0
0.300079 0.715056 -0.0088 0
0.30014 0.713056 -0.0088 0
0.300078 0.715053 -0.0081 0
0.300077 0.715053 -0.0081 0
0.300077 0.715052 -0.0082 0
0.3002 0.715028 -0.0082 0
0.300201 0.715027 -0.0091 0
0.300202 0.715026 -0.0091 0
0.300202 0.715025 -0.0091 0
0.300202 0.715024 -0.0088 0
0.300201 0.715023 -0.0088 0
0.3002 0.715022 -0.0082 0
0.3002 0.715021 -0.0082 0
0.300199 0.715019 -0.0081 0
0.300198 0.715019 -0.0081 0
0.300197 0.715019 -0.0085 0
0.300197 0.715017 -0.0085 0
0.300197 0.715017 -0.0085 0
0.300196 0.715016 -0.0078 0
0.300195 0.715015 -0.0078 0
0.300223 0.714014 -0.0082 0
0.300193 0.715011 -0.0082 0
0.300192 0.715011 -0.0091 0
0.300191 0.71501 -0.0091 0
0.30019 0.71501 -0.0076 0
0.30019 0.71501 -0.0076 0
0.300189 0.715008 -0.0082 0
0.300189 0.715007 -0.0082 0
0.300189 0.715006 -0.0087 0
0.300189 0.715005 -0.0087 0
0.300188 0.715002 -0.0082 0
0.300189 0.715 -0.0082 0
0.300188 0.715 -0.0077 0
0.300188 0.715 -0.0077 0
0.300063 0.715021 -0.0081 0
0.300187 0.714996 -0.0081 0
0.300187 0.714995 -0.009 0
0.300063 0.715017 -0.009 0
0.300065 0.715015 -0.008 0
0.300065 0.715015 -0.008 0
0.300065 0.715016 -0.0082 0
0.300065 0.715015 -0.0082 0
0.300155 0.712015 -0.0083 0
0.300065 0.715013 -0.0083 0
0.300066 0.715012 -0.0082 0
0.300096 0.714012 -0.0082 0
0.300067 0.71501 -0.0082 0
0.300067 0.715009 -0.0085 0
0.300068 0.715009 -0.0085 0
0.300069 0.71501 -0.0081 0
0.30007 0.715009 -0.0081 0
0.30007 0.715008 -0.0081 0
0.30007 0.715007 -0.0081 0
0.30007 0.715007 -0.0085 0
0.300071 0.715005 -0.0085 0
0.300071 0.715003 -0.0085 0
0.300195 0.714978 -0.008 0
0.300195 0.714977 -0.008 0
0.300195 0.714975 -0.0082 0
0.300196 0.714974 -0.0082 0
0.300197 0.714973 -0.0086 0
0.300227 0.713973 -0.0086 0
0.300197 0.714971 -0.0087 0
0.300197 0.714971 -0.0087 0
0.300197 0.71497 -0.0087 0
0.300197 0.714969 -0.0085 0
0.300196 0.714968 -0.0085 0
0.300195 0.714966 -0.0085 0
0.300195 0.714966 -0.0085 0
0.300195 0.714965 -0.0085 0
0.300194 0.714965 -0.0085 0
0.300194 0.714965 -0.0083 0
0.300193 0.714965 -0.0083 0
0.300193 0.714964 -0.0083 0
0.300192 0.714962 -0.0087 0
0.300192 0.714962 -0.008 0
0.300191 0.714962 -0.008 0
0.30019 0.714962 -0.008 0
0.300066 0.714985 -0.0087 0
0.300065 0.714985 -0.008 0
0.300066 0.714985 -0.008 0
0.300066 0.714985 -0.008 0
0.300066 0.714984 -0.0085 0
0.300065 0.714983 -0.0082 0
0.300189 0.714959 -0.0082 0
0.300189 0.714958 -0.0082 0
0.300064 0.714982 -0.0084 0
0.300063 0.714981 -0.0085 0
0.300063 0.71498 -0.0085 0
0.300063 0.71498 -0.0083 0
0.300063 0.714979 -0.0083 0
0.300187 0.714954 -0.0085 0
0.300186 0.714953 -0.0085 0
0.300186 0.714953 -0.0082 0
0.300185 0.714952 -0.0082 0
0.30006 0.714975 -0.0079 0
0.300182 0.714951 -0.0079 0
0.300181 0.714951 -0.0085 0
0.300181 0.714951 -0.0085 0
0.30018 0.71495 -0.0085 0
0.30018 0.714948 -0.0085 0
0.30018 0.714947 -0.0085 0
0.300269 0.711947 -0.0085 0
0.30018 0.714945 -0.0085 0
0.30018 0.714945 -0.0081 0
0.300182 0.714943 -0.0081 0
0.300183 0.714942 -0.0088 0
0.300183 0.71494 -0.0088 0
0.300183 0.71494 -0.0077 0
0.300183 0.714939 -0.0077 0
0.300182 0.714937 -0.0083 0
0.300182 0.714936 -0.0083 0
0.300181 0.714936 -0.0089 0
0.300181 0.714936 -0.0089 0
0.300181 0.714935 -0.0089 0
0.300182 0.714933 -0.0079 0
0.300182 0.714932 -0.0087 0
0.300182 0.714932 -0.0087 0
0.300182 0.714931 -0.0087 0
0.300181 0.714931 -0.0086 0
0.300057 0.714953 -0.0086 0
0.300056 0.714952 -0.0082 0
0.300056 0.71495 -0.0082 0
0.300056 0.714948 -0.0082 0
0.300056 0.714947 -0.0085 0
0.300056 0.714945 -0.0081 0
0.300056 0.714944 -0.0081 0
0.300055 0.714943 -0.0081 0
0.300055 0.714942 -0.0083 0
0.300056 0.71494 -0.0083 0
0.300055 0.714939 -0.0082 0
0.300055 0.714937 -0.0082 0
0.300055 0.714936 -0.0083 0
0.300055 0.714935 -0.0083 0
0.300055 0.714934 -0.0086 0
0.300055 0.714933 -0.0086 0
0.300055 0.714932 -0.0086 0
0.300145 0.711932 -0.008 0
0.300054 0.71493 -0.008 0
0.300055 0.714929 -0.0084 0
0.300054 0.714928 -0.0084 0
0.300054 0.714927 -0.0086 0
0.300054 0.714926 -0.0086 0
0.300054 0.714925 -0.0084 0
0.300055 0.714923 -0.0084 0
0.300055 0.714922 -0.0084 0
0.300179 0.714898 -0.0087 0
0.30021 0.713897 -0.0079 0
0.30018 0.714896 -0.0079 0
0.30018 0.714894 -0.0079 0
0.30018 0.714893 -0.0087 0
0.30018 0.714891 -0.0087 0
0.300179 0.71489 -0.0083 0
0.300178 0.714888 -0.0083 0
0.300054 0.714911 -0.0083 0
0.300054 0.71491 -0.0086 0
0.300179 0.714886 -0.0085 0
0.300179 0.714884 -0.0085 0
0.300179 0.714884 -0.0085 0
0.300179 0.714883 -0.0082 0
0.30018 0.714883 -0.0082 0
0.300269 0.711883 -0.0084 0
0.30018 0.714879 -0.0084 0
0.30018 0.714877 -0.0085 0
0.30018 0.714876 -0.0085 0
0.300179 0.714875 -0.0082 0
0.300179 0.714874 -0.0082 0
0.300178 0.714873 -0.0088 0
0.300179 0.714872 -0.0088 0
0.300179 0.714871 -0.0082 0
0.300179 0.714869 -0.0082 0
0.300179 0.714867 -0.0082 0
0.300179 0.714866 -0.0081 0
0.300178 0.714864 -0.0085 0
0.300177 0.714863 -0.0085 0
0.300176 0.714863 -0.0085 0
0.300176 0.714861 -0.0082 0
0.300176 0.714861 -0.0082 0
0.300176 0.71486 -0.0087 0
0.300175 0.714859 -0.0087 0
0.300175 0.714859 -0.0083 0
0.300175 0.714858 -0.0083 0
0.300175 0.714858 -0.0083 0
0.300174 0.714857 -0.0083 0
0.300174 0.714857 -0.0083 0
0.300174 0.714856 -0.0083 0
0.300173 0.714855 -0.0083 0
0.300172 0.714855 -0.0085 0
0.300171 0.714854 -0.0085 0
0.30017 0.714853 -0.0084 0
0.30017 0.714852 -0.0084 0
0.30017 0.714852 -0.0084 0
0.30017 0.714851 -0.0084 0
0.300169 0.714849 -0.0084 0
0.300168 0.714848 -0.0085 0
0.300168 0.714847 -0.0085 0
0.300167 0.714846 -0.0082 0
0.300168 0.714845 -0.0082 0
0.300167 0.714844 -0.0081 0
0.300167 0.714843 -0.0081 0
0.300167 0.714842 -0.0091 0
0.300166 0.71484 -0.0091 0
0.300166 0.714839 -0.0085 0
0.300165 0.714838 -0.0085 0
0.300165 0.714835 -0.0082 0
0.300165 0.714835 -0.0082 0
0.300166 0.714833 -0.0085 0
0.300166 0.714833 -0.0085 0
0.300133 0.711857 -0.0079 0
0.300042 0.714856 -0.0079 0
0.300166 0.714832 -0.0084 0
0.300166 0.714831 -0.0084 0
0.300166 0.71483 -0.0083 0
0.300166 0.714829 -0.0083 0
0.300166 0.714828 -0.0083 0
0.300166 0.714827 -0.0086 0
0.300166 0.714827 -0.0086 0
0.300167 0.714826 -0.0084 0
0.300167 0.714825 -0.0084 0
0.300166 0.714823 -0.0082 0
0.300166 0.714823 -0.0082 0
0.300165 0.714821 -0.0085 0
0.300165 0.71482 -0.0085 0
0.300165 0.71482 -0.0082 0
0.300165 0.714819 -0.0082 0
0.300165 0.714818 -0.0086 0
0.300164 0.714817 -0.0086 0
0.300164 0.714817 -0.0083 0
0.300164 0.714816 -0.0085 0
0.300164 0.714815 -0.0085 0
0.300164 0.714814 -0.0085 0
0.300164 0.714814 -0.008 0
0.300163 0.714813 -0.008 0
0.300165 0.714813 -0.0081 0
0.300166 0.714812 -0.0081 0
0.300165 0.714811 -0.0086 0
0.300255 0.711811 -0.0086 0
0.300165 0.714806 -0.0085 0
0.300165 0.714805 -0.0085 0
0.300165 0.714804 -0.0078 0
0.300166 0.714804 -0.0078 0
0.300166 0.714802 -0.0086 0
0.300166 0.7148 -0.0086 0
0.300166 0.714799 -0.0082 0
0.300166 0.714798 -0.0082 0
0.300166 0.714797 -0.0088 0
0.300166 0.714796 -0.0088 0
0.300166 0.714796 -0.0088 0
0.300166 0.714795 -0.0079 0
0.300166 0.714794 -0.0079 0
0.300166 0.714792 -0.0085 0
0.300166 0.71479 -0.0085 0
0.300165 0.714788 -0.0081 0
0.300165 0.714787 -0.0081 0
0.300165 0.714785 -0.0082 0
0.300165 0.714784 -0.0082 0
0.300163 0.714782 -0.0085 0
0.300162 0.71478 -0.0085 0
0.300161 0.71478 -0.0084 0
0.30016 0.714778 -0.0084 0
0.30016 0.714777 -0.0085 0
0.30016 0.714776 -0.0085 0
0.300159 0.714774 -0.0082 0
0.300159 0.714774 -0.0082 0
0.300158 0.714774 -0.0082 0
0.300158 0.714774 -0.0086 0
0.300158 0.714773 -0.0086 0
0.300158 0.714771 -0.008 0
0.300158 0.714771 -0.008 0
0.300158 0.71477 -0.0086 0
0.300158 0.71477 -0.0086 0
0.300158 0.71477 -0.0081 0
0.300158 0.714769 -0.0081 0
0.300158 0.71477 -0.0083 0
0.300158 0.71477 -0.0083 0
0.300158 0.714769 -0.0082 0
0.300157 0.714769 -0.0082 0
0.300158 0.714768 -0.0082 0
0.300159 0.714767 -0.0082 0
0.30016 0.714765 -0.0082 0
0.30016 0.714763 -0.0082 0
0.30016 0.714762 -0.0082 0
0.30016 0.71476 -0.0082 0
0.30016 0.714758 -0.0081 0
0.300159 0.714757 -0.0081 0
0.300159 0.714756 -0.0081 0
0.300035 0.714778 -0.0085 0
0.300035 0.714777 -0.0085 0
0.300035 0.714776 -0.0085 0
0.299974 0.716773 -0.0081 0
0.300034 0.714773 -0.0081 0
0.300034 0.714772 -0.0081 0
0.300034 0.714771 -0.0081 0
0.300033 0.714771 -0.0081 0
0.300033 0.71477 -0.0081 0
0.300156 0.714746 -0.0087 0
0.300032 0.714769 -0.0087 0
0.300032 0.714769 -0.0087 0
0.300032 0.714767 -0.0082 0
0.300152 0.714742 -0.0088 0
0.300159 0.714741 -0.0088 0
0.300304 0.714717 -0.0088 0
0.30095 0.714597 0.0052 0
0.301175 0.714544 0.0417 0
0.301519 0.714467 0.0417 0
0.3018 0.713389 -0.0081 0
0.301832 0.713365 -0.0081 0
0.301863 0.713345 0.0272 0
0.301743 0.713367 0.0272 0
0.301596 0.713425 0.0272 0
0.301112 0.713564 -0.0027 0
0.300974 0.713601 0.0024 0
0.300986 0.71261 0.0024 0
0.300972 0.712616 0.0024 0
0.300957 0.71263 -0.0114 0
0.300954 0.712635 -0.0094 0
0.300831 0.712662 -0.0094 0
0.300707 0.712685 -0.009 0
0.300743 0.711686 -0.009 0
0.300478 0.712732 -0.0028 0
0.300395 0.711752 -0.0028 0
0.300145 0.711792 0.0037 0
0.299988 0.712809 0.0037 0
0.300012 0.711803 -0.0069 0
0.299518 0.711882 -0.0069 0
0.299491 0.71287 -0.0014 0
0.299375 0.712883 -0.0014 0
0.299385 0.712878 -0.0065 0
0.299415 0.711886 -0.0065 0
0.299415 0.711896 -0.0074 0
0.299416 0.711905 -0.0074 0
0.299417 0.711909 -0.0029 0
0.299414 0.711913 -0.0029 0
0.299414 0.711913 -0.0064 0
0.299415 0.711912 -0.0064 0
0.299416 0.711911 -0.0055 0
0.299419 0.711914 -0.0055 0
0.29942 0.711914 -0.0025 0
0.299422 0.711914 -0.0025 0
0.299425 0.711912 -0.0049 0
0.299425 0.711911 -0.0049 0
0.299395 0.712911 -0.0053 0
0.299428 0.711913 -0.0053 0
0.299426 0.711913 -0.0029 0
0.299426 0.711915 -0.0029 0
0.299423 0.711915 -0.0029 0
0.299389 0.712914 -0.0052 0
0.299418 0.711915 -0.0052 0
0.29942 0.711918 -0.0079 0
0.299421 0.711921 -0.0079 0
0.29942 0.711921 -0.0032 0
0.299422 0.71192 -0.0032 0
0.299425 0.711919 -0.0049 0
0.299426 0.711916 -0.0049 0
0.299428 0.711914 -0.0049 0
0.299427 0.71191 -0.0048 0
0.299427 0.71191 -0.0027 0
0.299425 0.711909 -0.0027 0
0.299424 0.711907 -0.0027 0
0.299424 0.711904 -0.0086 0
0.299425 0.711906 -0.0057 0
0.299425 0.711907 -0.0057 0
0.299426 0.711907 -0.0057 0
0.299426 0.711906 -0.0069 0
0.299425 0.711904 -0.0074 0
0.299426 0.711902 -0.0074 0
0.299427 0.711901 -0.0074 0
0.299428 0.711901 -0.003 0
0.299431 0.711901 -0.0059 0
0.299431 0.711902 -0.0059 0
0.299431 0.7119 -0.0059 0
0.299401 0.7129 -0.0062 0
0.299433 0.711899 -0.0062 0
0.299433 0.711897 -0.0048 0
0.299433 0.711896 -0.0048 0
0.299434 0.711896 -0.0073 0
0.299434 0.711895 -0.0073 0
0.299434 0.711895 -0.0047 0
0.299435 0.711895 -0.0047 0
0.299434 0.711894 -0.0044 0
0.299434 0.711893 -0.0044 0
0.299434 0.711892 -0.0058 0
0.299435 0.71189 -0.0058 0
0.299435 0.711889 -0.0065 0
0.299434 0.711888 -0.0065 0
0.299432 0.711887 -0.006 0
0.299433 0.711891 -0.006 0
0.299434 0.711892 -0.0073 0
0.299432 0.71189 -0.0044 0
0.29943 0.711887 -0.0044 0
0.299394 0.712882 -0.0044 0
0.299425 0.711879 -0.0033 0
0.299426 0.711878 -0.0033 0
0.299433 0.711881 -0.0049 0
0.299402 0.71288 -0.0049 0
0.299434 0.711881 -0.0069 0
0.299402 0.712876 -0.0028 0
0.299434 0.711875 -0.0028 0
0.299433 0.711873 -0.0028 0
0.299431 0.711872 -0.004 0
0.299398 0.712871 -0.004 0
0.299399 0.712867 -0.0076 0
0.29943 0.711868 -0.0076 0
0.29943 0.711867 -0.0042 0
0.299399 0.712867 -0.0042 0
0.299398 0.712865 -0.0048 0
0.299492 0.709866 -0.0048 0
0.299429 0.711864 -0.0054 0
0.299428 0.711863 -0.0054 0
0.299395 0.712861 -0.0075 0
0.299425 0.711861 -0.0075 0
0.299301 0.711884 -0.0082 0
0.299425 0.71186 -0.0082 0
0.299395 0.712858 -0.0029 0
0.299429 0.711861 -0.0029 0
0.299431 0.711861 -0.0029 0
0.299438 0.711862 -0.0045 0
0.29944 0.711861 -0.0067 0
0.29944 0.711861 -0.0067 0
0.299436 0.711857 -0.0053 0
0.299436 0.711858 -0.0053 0
0.299435 0.711856 -0.0062 0
0.299433 0.711855 -0.0062 0
0.299432 0.711853 -0.0031 0
0.299401 0.712853 -0.0031 0
0.299434 0.711851 -0.0072 0
0.299431 0.711852 -0.0072 0
0.29943 0.711852 -0.0013 0
0.299431 0.711852 -0.0013 0
0.299431 0.71185 -0.0061 0
0.299428 0.711846 -0.0061 0
0.299428 0.711845 -0.0046 0
0.299429 0.711846 -0.0046 0
0.299428 0.711844 -0.006 0
0.299397 0.712843 -0.006 0
0.299427 0.711844 -0.0028 0
0.299426 0.711842 -0.0028 0
0.299426 0.711842 -0.0034 0
0.299393 0.71284 -0.0034 0
0.304717 0.541922 -0.0034 0
0.299423 0.711838 -0.0021 0
0.299423 0.711837 -0.0021 0
0.299423 0.711835 -0.0036 0
0.299424 0.711834 -0.0036 0
0.299425 0.711832 -0.0051 0
0.299427 0.711833 -0.0051 0
0.299428 0.711835 -0.0068 0
0.299491 0.709836 -0.0068 0
0.29943 0.711833 -0.0068 0
0.299431 0.711833 -0.0061 0
0.299433 0.711833 -0.0061 0
0.299433 0.711834 -0.0054 0
0.299433 0.711832 -0.0054 0
0.299431 0.711832 -0.0054 0
0.299431 0.71183 -0.0075 0
0.299428 0.711827 -0.0075 0
0.299426 0.711825 -0.0042 0
0.299425 0.711824 -0.0042 0
0.299426 0.711823 -0.0042 0
0.299424 0.711822 -0.0018 0
0.299424 0.71182 -0.0018 0
0.299424 0.71182 -0.0065 0
0.299424 0.71182 -0.0065 0
0.299427 0.71182 -0.0041 0
0.299425 0.711818 -0.0041 0
0.299417 0.711815 -0.0046 0
0.300717 0.669832 -0.0046 0
0.299402 0.711812 -0.0046 0
0.299341 0.711809 -0.0044 0
0.299185 0.712803 -0.0044 0
0.299061 0.711799 -0.0078 0
0.298838 0.71279 -0.0078 0
0.298615 0.711781 -0.0078 0
0.297967 0.711783 -0.0057 0
0.297665 0.71177 -0.0073 0
0.297338 0.711756 -0.0073 0
0.297348 0.700751 -0.0073 0
0.296663 0.711735 -0.0079 0
0.296003 0.709793 -0.0079 0
0.295432 0.711803 -0.0075 0
0.294897 0.711812 -0.0075 0
0.293912 0.711803 -0.0053 0
0.293096 0.711856 -0.0053 0
0.292639 0.71184 -0.0073 0
0.292031 0.711849 -0.0073 0
0.290787 0.711865 -0.0069 0
0.290178 0.710872 -0.0069 0
0.28949 0.711879 -0.0083 0
0.288836 0.711889 -0.0083 0
0.28807 0.710927 -0.0083 0
0.286297 0.711022 -0.0027 0
0.28557 0.71103 -0.0039 0
