ply
format ascii 1.0
element vertex 1657
property float x
property float y
property float z
property float intensity
end_header
0.0467518 0.717608 -0.0013 0
0.0467515 0.717607 -0.0013 0
0.0467506 0.717606 -0.0018 0
0.0467491 0.717604 -0.0018 0
0.0467488 0.717603 -0.0017 0
0.0467496 0.717603 -0.0017 0
0.0467496 0.717601 -0.0017 0
0.0467497 0.7176 -0.0017 0
0.0467496 0.7176 -0.0017 0
0.0467494 0.717599 -0.002 0
0.046749 0.717598 -0.002 0
0.0466254 0.717619 -0.0013 0
0.0466248 0.717619 -0.0013 0
0.0466249 0.717618 -0.0013 0
0.0466601 0.716618 -0.0019 0
0.0466252 0.717617 -0.0019 0
0.0466255 0.717615 -0.000599997 0
0.0466607 0.716616 -0.000599997 0
0.0466265 0.717614 -0.000599997 0
0.0466277 0.717613 -0.0024 0
0.0466285 0.717612 -0.0024 0
0.0466289 0.71761 -0.0019 0
0.0466292 0.71761 -0.0019 0
0.0466292 0.717609 -0.0018 0
0.0466292 0.717607 -0.0018 0
0.0466287 0.717607 -0.0017 0
0.0466288 0.717605 -0.0017 0
0.0466291 0.717604 -0.000999997 0
0.0466291 0.717603 -0.000999997 0
0.0466285 0.717603 -0.0012 0
0.0466283 0.717602 -0.0012 0
0.0466287 0.717601 -0.0012 0
0.0466288 0.7176 -0.0022 0
0.0466288 0.717599 -0.0022 0
0.0466289 0.717598 -0.0022 0
0.0466287 0.717598 -0.0021 0
0.0466295 0.717595 -0.0019 0
0.0466296 0.717595 -0.0019 0
0.0466296 0.717594 -0.0015 0
0.0466294 0.717592 -0.0015 0
0.0466292 0.717592 -0.0015 0
0.0466284 0.717591 -0.0015 0
0.0466273 0.71759 -0.0018 0
0.046626 0.71759 -0.0018 0
0.046626 0.717589 -0.0018 0
0.0466258 0.717588 -0.0022 0
0.0466255 0.717588 -0.0022 0
0.0466253 0.717588 -0.0017 0
0.0466249 0.717587 -0.0017 0
0.0466246 0.717586 -0.0017 0
0.0466243 0.717586 -0.0016 0
0.0466242 0.717583 -0.0016 0
0.0466241 0.717582 -0.0012 0
0.0466242 0.717582 -0.0012 0
0.0466241 0.717581 -0.0016 0
0.0466239 0.71758 -0.0016 0
0.0466583 0.716581 -0.0014 0
0.0466236 0.717579 -0.0014 0
0.0466234 0.717578 -0.0014 0
0.0466228 0.717577 -0.0018 0
0.0466221 0.717576 -0.0018 0
0.0466214 0.717575 -0.0014 0
0.04662 0.717574 -0.0014 0
0.0466192 0.717574 -0.0013 0
0.0466184 0.717574 -0.0013 0
0.0466179 0.717573 -0.0017 0
0.0466879 0.715574 -0.0017 0
0.0466179 0.717572 -0.0017 0
0.0466177 0.717571 -0.0018 0
0.0466173 0.71757 -0.0018 0
0.0466165 0.717568 -0.0016 0
0.046616 0.717568 -0.0016 0
0.0466155 0.717568 -0.0018 0
0.0466147 0.717568 -0.0018 0
0.0466138 0.717567 -0.0013 0
0.0466137 0.717566 -0.0013 0
0.0466138 0.717565 -0.0015 0
0.0466142 0.717565 -0.0015 0
0.0466138 0.717564 -0.002 0
0.0466128 0.717563 -0.002 0
0.0467359 0.717539 -0.0016 0
0.0467353 0.717539 -0.0016 0
0.046839 0.714541 -0.0017 0
0.0466113 0.71756 -0.0017 0
0.046611 0.717558 -0.0017 0
0.046735 0.717534 -0.0017 0
0.0467349 0.717533 -0.0013 0
0.0467352 0.717532 -0.0013 0
0.0467357 0.717531 -0.0013 0
0.0467356 0.717529 -0.0019 0
0.0467355 0.717527 -0.0015 0
0.046736 0.717526 -0.0015 0
0.0467365 0.717524 -0.0015 0
0.0467371 0.717523 -0.0018 0
0.046738 0.717522 -0.0018 0
0.0467384 0.717521 -0.0016 0
0.0467387 0.71752 -0.0016 0
0.046739 0.717517 -0.0017 0
0.0467388 0.717516 -0.0017 0
0.0467393 0.717516 -0.0015 0
0.0467394 0.717515 -0.0015 0
0.0467409 0.717512 -0.0016 0
0.0467414 0.717511 -0.0016 0
0.0467417 0.717511 -0.0019 0
0.0467423 0.717509 -0.0019 0
0.046742 0.717507 -0.0022 0
0.0467416 0.717506 -0.0022 0
0.0467416 0.717504 -0.0018 0
0.0467421 0.717502 -0.0018 0
0.0467426 0.717501 -0.0016 0
0.0467429 0.717501 -0.0016 0
0.0467435 0.7175 -0.0017 0
0.04662 0.71752 -0.0017 0
0.04662 0.717518 -0.0017 0
0.0466199 0.717517 -0.0017 0
0.04662 0.717516 -0.002 0
0.0466201 0.717513 -0.002 0
0.0466201 0.717512 -0.0018 0
0.04662 0.717511 -0.0018 0
0.0466198 0.71751 -0.0018 0
0.0466195 0.717507 -0.0016 0
0.0466193 0.717506 -0.0013 0
0.0466194 0.717504 -0.0013 0
0.0466199 0.717503 -0.0016 0
0.0466205 0.717502 -0.0016 0
0.0466207 0.717501 -0.0016 0
0.0466206 0.7175 -0.0016 0
0.0466212 0.7175 -0.0016 0
0.0466215 0.717499 -0.0015 0
0.0466218 0.717498 -0.0015 0
0.0466215 0.717497 -0.0015 0
0.0466206 0.717496 -0.0014 0
0.0467437 0.717473 -0.0014 0
0.0466198 0.717495 -0.0019 0
0.0466198 0.717494 -0.0019 0
0.0466203 0.717494 -0.0018 0
0.0466204 0.717495 -0.0018 0
0.0466205 0.717494 -0.0019 0
0.0467444 0.717471 -0.0019 0
0.0467444 0.71747 -0.0019 0
0.0467443 0.71747 -0.0018 0
0.0466203 0.717493 -0.0018 0
0.0466199 0.717493 -0.0018 0
0.0466195 0.717494 -0.0018 0
0.0466194 0.717494 -0.0019 0
0.0467428 0.71747 -0.0019 0
0.0467434 0.71747 -0.0015 0
0.0467434 0.717469 -0.0015 0
0.0467436 0.717469 -0.0015 0
0.0467455 0.717467 -0.0018 0
0.0467807 0.716467 -0.0018 0
0.0467458 0.717466 -0.0014 0
0.0467462 0.717465 -0.0014 0
0.0467461 0.717463 -0.0015 0
0.0467465 0.717462 -0.002 0
0.0467467 0.717461 -0.002 0
0.0466249 0.717483 -0.0011 0
0.0466259 0.717482 -0.0011 0
0.0466257 0.717481 -0.0011 0
0.0466252 0.71748 -0.0016 0
0.0466243 0.717478 -0.002 0
0.0466238 0.717477 -0.002 0
0.046623 0.717476 -0.0018 0
0.0467462 0.717452 -0.0018 0
0.0467446 0.71745 -0.0019 0
0.0467788 0.71645 -0.0019 0
0.0467435 0.717448 -0.0019 0
0.0467433 0.717446 -0.0019 0
0.0467434 0.717444 -0.0018 0
0.0467433 0.717442 -0.0018 0
0.0467429 0.71744 -0.0015 0
0.0467424 0.717438 -0.0015 0
0.046741 0.717434 -0.0016 0
0.0467402 0.717432 -0.0016 0
0.0467393 0.717431 -0.0015 0
0.0467389 0.717428 -0.0015 0
0.0467386 0.717426 -0.0014 0
0.0467386 0.717424 -0.0014 0
0.0467378 0.717423 -0.0013 0
0.0467372 0.717421 -0.0013 0
0.0467366 0.71742 -0.0013 0
0.0466121 0.717441 -0.0014 0
0.0466108 0.717438 -0.0014 0
0.0466107 0.717437 -0.0016 0
0.0466106 0.717434 -0.0016 0
0.0466106 0.717432 -0.0017 0
0.0466098 0.71743 -0.0017 0
0.0467336 0.717404 -0.0018 0
0.0467341 0.717403 -0.0018 0
0.0467345 0.717402 -0.0015 0
0.0467342 0.7174 -0.0015 0
0.0467344 0.717399 -0.000899997 0
0.0467351 0.717397 -0.000899997 0
0.0467355 0.717396 -0.0017 0
0.0467355 0.717396 -0.0017 0
0.0467353 0.717395 -0.0018 0
0.0467351 0.717395 -0.0018 0
0.0466113 0.717417 -0.0014 0
0.0466119 0.717416 -0.0016 0
0.0466124 0.717414 -0.0016 0
0.0466124 0.717414 -0.0016 0
0.0466125 0.717412 -0.0019 0
0.0467364 0.717388 -0.0016 0
0.0467361 0.717387 -0.0016 0
0.0467352 0.717387 -0.0016 0
0.0467348 0.717386 -0.0018 0
0.0467346 0.717384 -0.0018 0
0.0467343 0.717383 -0.0018 0
0.046734 0.717381 -0.0018 0
0.0467345 0.717381 -0.0018 0
0.0467344 0.71738 -0.0016 0
0.0467346 0.717379 -0.0016 0
0.0467346 0.717377 -0.0016 0
0.0467346 0.717376 -0.0015 0
0.0467349 0.717376 -0.0015 0
0.0467338 0.717375 -0.0015 0
0.0467336 0.717375 -0.0018 0
0.0467334 0.717374 -0.0018 0
0.0467332 0.717373 -0.0018 0
0.0467336 0.717371 -0.0018 0
0.0467336 0.717367 -0.0015 0
0.0467335 0.717367 -0.0015 0
0.0467332 0.717366 -0.0019 0
0.0467329 0.717366 -0.0019 0
0.0467323 0.717365 -0.0011 0
0.0467323 0.717364 -0.0011 0
0.0467315 0.717364 -0.0011 0
0.046731 0.717363 -0.0014 0
0.0467306 0.717363 -0.0014 0
0.0467308 0.717362 -0.0015 0
0.0467303 0.717361 -0.0015 0
0.04673 0.717359 -0.0019 0
0.0467288 0.717359 -0.0019 0
0.0467285 0.717358 -0.0019 0
0.0467275 0.717358 -0.0017 0
0.0467264 0.717357 -0.0017 0
0.0467248 0.717356 -0.0017 0
0.0467243 0.717354 -0.0017 0
0.0467238 0.717354 -0.0015 0
0.0467233 0.717353 -0.0015 0
0.0467223 0.717352 -0.0014 0
0.0467214 0.717351 -0.0014 0
0.0467198 0.71735 -0.0019 0
0.0467187 0.717349 -0.0019 0
0.0467179 0.717348 -0.0017 0
0.0467179 0.717347 -0.0017 0
0.0467175 0.717346 -0.0017 0
0.0467172 0.717345 -0.0017 0
0.046717 0.717344 -0.0016 0
0.0465911 0.717365 -0.0013 0
0.0465905 0.717364 -0.0013 0
0.04659 0.717362 -0.0013 0
0.0469743 0.706368 -0.0019 0
0.0465891 0.71736 -0.0019 0
0.0465889 0.71736 -0.0019 0
0.046588 0.717359 -0.002 0
0.0465874 0.717358 -0.002 0
0.0465871 0.717357 -0.0014 0
0.0465869 0.717356 -0.0014 0
0.0465872 0.717354 -0.0019 0
0.0465873 0.717354 -0.0019 0
0.0465872 0.717354 -0.0023 0
0.046587 0.717353 -0.0023 0
0.0465865 0.717352 -0.0016 0
0.0465869 0.717349 -0.0016 0
0.0465879 0.717348 -0.0016 0
0.0465886 0.717346 -0.0017 0
0.0465898 0.717346 -0.0017 0
0.0465914 0.717347 -0.0025 0
0.0465925 0.717347 -0.0025 0
0.0465925 0.717347 -0.0014 0
0.0465924 0.717347 -0.0014 0
0.0465925 0.717346 -0.0014 0
0.0465925 0.717346 -0.0014 0
0.0467159 0.71732 -0.0012 0
0.0467157 0.717319 -0.0012 0
0.0467152 0.717318 -0.0012 0
0.0467157 0.717317 -0.0021 0
0.0467159 0.717317 -0.0021 0
0.0467159 0.717316 -0.0018 0
0.0467158 0.717315 -0.0018 0
0.0465918 0.717338 -0.0013 0
0.0465909 0.717337 -0.0013 0
0.0465906 0.717337 -0.0017 0
0.0465902 0.717337 -0.0017 0
0.0465905 0.717337 -0.0017 0
0.0465914 0.717336 -0.0015 0
0.046592 0.717335 -0.0015 0
0.0465922 0.717334 -0.0021 0
0.0467161 0.717309 -0.0016 0
0.0467162 0.717308 -0.0016 0
0.0465922 0.717329 -0.0016 0
0.0465928 0.717328 -0.0014 0
0.0465928 0.717327 -0.0014 0
0.0465933 0.717326 -0.002 0
0.0465934 0.717323 -0.002 0
0.0465939 0.717322 -0.0016 0
0.046595 0.71732 -0.0016 0
0.0465956 0.717319 -0.0016 0
0.0465959 0.717317 -0.0016 0
0.0467195 0.717294 -0.0016 0
0.046596 0.717317 -0.0022 0
0.046685 0.718293 -0.0022 0
0.0465958 0.717316 -0.0022 0
0.0467202 0.717292 -0.0021 0
0.0467205 0.717291 -0.0021 0
0.0467207 0.717289 -0.0019 0
0.0467208 0.717288 -0.0015 0
0.0467903 0.715288 -0.0015 0
0.0467203 0.717287 -0.0015 0
0.0467207 0.717286 -0.0015 0
0.0467201 0.717285 -0.0015 0
0.0465964 0.717307 -0.0015 0
0.0467204 0.717283 -0.0017 0
0.0467203 0.717283 -0.0018 0
0.0465967 0.717304 -0.0018 0
0.0465967 0.717303 -0.0018 0
0.0465966 0.717302 -0.0014 0
0.0465965 0.717298 -0.002 0
0.0467206 0.717274 -0.002 0
0.0467208 0.717273 -0.0012 0
0.0467215 0.717272 -0.0012 0
0.0467224 0.717271 -0.0012 0
0.0467225 0.71727 -0.0024 0
0.0467225 0.717268 -0.0024 0
0.0467223 0.717267 -0.0018 0
0.0467219 0.717264 -0.0018 0
0.0467216 0.717263 -0.0016 0
0.0467213 0.717262 -0.0016 0
0.0467209 0.717262 -0.002 0
0.0467204 0.717262 -0.002 0
0.0465957 0.717284 -0.002 0
0.0465952 0.717284 -0.0015 0
0.0465938 0.717282 -0.0015 0
0.0465933 0.71728 -0.0016 0
0.0465932 0.717279 -0.0016 0
0.0465928 0.717279 -0.002 0
0.0465933 0.717279 -0.002 0
0.0465938 0.717278 -0.002 0
0.0465941 0.717278 -0.0016 0
0.046594 0.717278 -0.0018 0
0.0465936 0.717277 -0.0018 0
0.0465942 0.717275 -0.0018 0
0.0465947 0.717274 -0.0014 0
0.046594 0.717273 -0.0014 0
0.0465939 0.717271 -0.0018 0
0.0465934 0.71727 -0.0019 0
0.0465933 0.717268 -0.0019 0
0.0465927 0.717267 -0.0017 0
0.0465934 0.717265 -0.0017 0
0.0465929 0.717264 -0.0016 0
0.0465929 0.717261 -0.0016 0
0.0465932 0.71726 -0.0013 0
0.0465936 0.717259 -0.0013 0
0.0465938 0.717258 -0.0017 0
0.0465934 0.717256 -0.0017 0
0.0465936 0.717255 -0.0017 0
0.0465936 0.717254 -0.0017 0
0.0465939 0.717253 -0.0013 0
0.0465941 0.717252 -0.0013 0
0.0465942 0.717251 -0.0014 0
0.0465941 0.717251 -0.0014 0
0.0465943 0.717249 -0.0017 0
0.0465939 0.717248 -0.0017 0
0.0465941 0.717248 -0.0014 0
0.0465941 0.717248 -0.0014 0
0.0465938 0.717247 -0.0019 0
0.0465935 0.717247 -0.0019 0
0.0465931 0.717247 -0.0013 0
0.0465929 0.717246 -0.0013 0
0.0465925 0.717246 -0.0013 0
0.0465927 0.717246 -0.0013 0
0.0465931 0.717246 -0.0018 0
0.0465936 0.717245 -0.0018 0
0.0465938 0.717244 -0.0018 0
0.0465936 0.717243 -0.0017 0
0.0465939 0.717242 -0.0017 0
0.0465943 0.717241 -0.0013 0
0.0465943 0.717238 -0.0013 0
0.0465946 0.717236 -0.0015 0
0.0465951 0.717235 -0.0015 0
0.0465952 0.717235 -0.0015 0
0.0465956 0.717233 -0.0014 0
0.0465956 0.717233 -0.0014 0
0.0465956 0.717232 -0.0014 0
0.0465957 0.717231 -0.0018 0
0.0467012 0.714231 -0.0018 0
0.0465971 0.717228 -0.0018 0
0.0465973 0.717227 -0.0018 0
0.0465976 0.717227 -0.0017 0
0.0465975 0.717225 -0.0017 0
0.0465978 0.717225 -0.0017 0
0.0465979 0.717224 -0.002 0
0.0465979 0.717223 -0.002 0
0.0465982 0.717223 -0.0014 0
0.0465986 0.717221 -0.002 0
0.0465989 0.71722 -0.002 0
0.046599 0.71722 -0.002 0
0.0465989 0.71722 -0.0021 0
0.0465984 0.717219 -0.0021 0
0.0465984 0.717219 -0.0021 0
0.0465979 0.717218 -0.0017 0
0.046598 0.717216 -0.0017 0
0.0465975 0.717215 -0.0015 0
0.0465975 0.717214 -0.0015 0
0.0465973 0.717213 -0.0018 0
0.0465976 0.717213 -0.0018 0
0.0465972 0.717212 -0.0014 0
0.0465971 0.717212 -0.0014 0
0.0465965 0.717211 -0.0021 0
0.0465963 0.717211 -0.0021 0
0.0465965 0.71721 -0.0021 0
0.0465972 0.71721 -0.0015 0
0.0465974 0.717209 -0.0015 0
0.0465973 0.717209 -0.0017 0
0.0465971 0.717209 -0.0017 0
0.0465967 0.717208 -0.0017 0
0.0465966 0.717207 -0.0018 0
0.0465972 0.717207 -0.0018 0
0.046598 0.717206 -0.0016 0
0.0465988 0.717205 -0.0016 0
0.0465991 0.717204 -0.0016 0
0.0465996 0.717203 -0.0012 0
0.0466 0.717203 -0.0016 0
0.0466006 0.717202 -0.0016 0
0.0466009 0.717202 -0.0016 0
0.0467065 0.714203 -0.0015 0
0.0466022 0.717201 -0.0015 0
0.0466024 0.7172 -0.0015 0
0.0466033 0.717199 -0.0015 0
0.0466036 0.717199 -0.0015 0
0.0466034 0.717198 -0.0016 0
0.0466038 0.717197 -0.0016 0
0.0466041 0.717195 -0.0013 0
0.0466042 0.717194 -0.0013 0
0.0466042 0.717193 -0.0011 0
0.046604 0.717192 -0.0011 0
0.0466038 0.717193 -0.0014 0
0.0466039 0.717193 -0.0014 0
0.0466038 0.717193 -0.0014 0
0.0466044 0.71719 -0.0017 0
0.0466043 0.717189 -0.0014 0
0.0466048 0.717187 -0.0014 0
0.0466047 0.717186 -0.0014 0
0.0466403 0.716185 -0.0017 0
0.0466056 0.717184 -0.0017 0
0.0466065 0.717183 -0.0015 0
0.0466069 0.717184 -0.0015 0
0.0466071 0.717183 -0.0017 0
0.0466075 0.717183 -0.0017 0
0.0466075 0.717182 -0.0016 0
0.0466073 0.717181 -0.0016 0
0.0466069 0.71718 -0.0016 0
0.0466063 0.71718 -0.0014 0
0.0466051 0.717179 -0.0021 0
0.0466042 0.717178 -0.0021 0
0.0466037 0.717177 -0.0021 0
0.0466035 0.717175 -0.0015 0
0.0466037 0.717175 -0.0015 0
0.0466036 0.717175 -0.002 0
0.0467083 0.714177 -0.002 0
0.046604 0.717174 -0.002 0
0.0466044 0.717173 -0.0017 0
0.0466045 0.717172 -0.0017 0
0.0466043 0.71717 -0.0017 0
0.0466034 0.717168 -0.0018 0
0.046603 0.717167 -0.0015 0
0.046602 0.717165 -0.0015 0
0.0466011 0.717164 -0.0019 0
0.0466 0.717163 -0.0019 0
0.0465997 0.717162 -0.0016 0
0.0465993 0.717161 -0.0016 0
0.0465985 0.717159 -0.0017 0
0.0465981 0.717158 -0.0017 0
0.0465979 0.717157 -0.002 0
0.0465972 0.717156 -0.002 0
0.0465965 0.717156 -0.0016 0
0.046596 0.717155 -0.0016 0
0.0465946 0.717154 -0.0016 0
0.046664 0.715154 -0.0022 0
0.0465936 0.717152 -0.0022 0
0.0466639 0.715153 -0.0019 0
0.0465943 0.717151 -0.0019 0
0.0465944 0.71715 -0.0016 0
0.0465948 0.717148 -0.0016 0
0.0465946 0.717146 -0.0021 0
0.0465944 0.717145 -0.0021 0
0.046594 0.717144 -0.0021 0
0.0467171 0.717119 -0.0012 0
0.0467171 0.717118 -0.0016 0
0.046717 0.717118 -0.0016 0
0.0467169 0.717118 -0.0016 0
0.0465932 0.717141 -0.0017 0
0.046593 0.717139 -0.0016 0
0.0467167 0.717115 -0.0016 0
0.0467173 0.717114 -0.0016 0
0.0465954 0.717134 -0.0015 0
0.0465968 0.717133 -0.0016 0
0.0465973 0.717133 -0.0016 0
0.0451641 0.758107 -0.0016 0
0.0465985 0.717132 -0.0018 0
0.0466338 0.716133 -0.0018 0
0.0465978 0.717131 -0.0018 0
0.0465974 0.717131 -0.0018 0
0.0467208 0.717108 -0.0015 0
0.0467204 0.717107 -0.0015 0
0.0467194 0.717106 -0.0017 0
0.0467197 0.717105 -0.0017 0
0.04672 0.717104 -0.0015 0
0.0467207 0.717104 -0.0015 0
0.0467214 0.717103 -0.0018 0
0.0467217 0.717103 -0.0018 0
0.0467212 0.717101 -0.0013 0
0.0467208 0.717101 -0.0013 0
0.0467208 0.7171 -0.0013 0
0.0467204 0.717097 -0.0018 0
0.0467204 0.717096 -0.0017 0
0.0467194 0.717094 -0.0017 0
0.0467195 0.717094 -0.0017 0
0.0467185 0.717093 -0.0013 0
0.0467184 0.717092 -0.0013 0
0.0467186 0.717091 -0.0019 0
0.0467184 0.717089 -0.0018 0
0.0467193 0.717089 -0.0018 0
0.04672 0.717089 -0.0018 0
0.0467202 0.717088 -0.0019 0
0.0467207 0.717087 -0.0019 0
0.0467204 0.717086 -0.0015 0
0.0467206 0.717085 -0.0015 0
0.0467206 0.717085 -0.0015 0
0.0467205 0.717084 -0.0014 0
0.0467203 0.717083 -0.0014 0
0.0467201 0.717082 -0.0016 0
0.0467198 0.717081 -0.0016 0
0.0467189 0.717079 -0.0015 0
0.046719 0.717079 -0.0015 0
0.0467191 0.717078 -0.0013 0
0.0467199 0.717077 -0.0013 0
0.0467199 0.717078 -0.0013 0
0.0467196 0.717077 -0.0019 0
0.0467199 0.717077 -0.0019 0
0.0467199 0.717074 -0.0016 0
0.0467197 0.717073 -0.0016 0
0.0467195 0.717072 -0.0021 0
0.0467196 0.71707 -0.0021 0
0.0465957 0.717092 -0.0021 0
0.0465953 0.717088 -0.0017 0
0.0466657 0.715088 -0.0017 0
0.0465959 0.717086 -0.0017 0
0.0465962 0.717084 -0.0019 0
0.0465954 0.717082 -0.0019 0
0.0465953 0.717081 -0.0019 0
0.0465949 0.71708 -0.0016 0
0.0465948 0.717079 -0.0016 0
0.0465946 0.717078 -0.0018 0
0.046718 0.717053 -0.0018 0
0.0465942 0.717074 -0.0018 0
0.046664 0.715075 -0.0018 0
0.0467177 0.717049 -0.0018 0
0.0465936 0.717071 -0.0015 0
0.0465933 0.717069 -0.0015 0
0.0465928 0.717068 -0.0013 0
0.0465929 0.717067 -0.0013 0
0.0465924 0.717065 -0.0018 0
0.0465928 0.717064 -0.0018 0
0.0465921 0.717064 -0.0014 0
0.0465918 0.717062 -0.0014 0
0.046715 0.717039 -0.0014 0
0.046661 0.715062 -0.0014 0
0.0465915 0.717059 -0.0014 0
0.0465916 0.717058 -0.0018 0
0.0467155 0.717032 -0.0018 0
0.0467157 0.717031 -0.0016 0
0.0467168 0.71703 -0.0016 0
0.0467169 0.717028 -0.0017 0
0.0467172 0.717027 -0.0017 0
0.0467171 0.717025 -0.0017 0
0.0467174 0.717024 -0.0012 0
0.0467179 0.717023 -0.0012 0
0.0467181 0.717022 -0.0017 0
0.0467185 0.717022 -0.0017 0
0.0467184 0.717022 -0.002 0
0.0467182 0.717021 -0.002 0
0.0467179 0.71702 -0.0013 0
0.0467172 0.71702 -0.0013 0
0.0467165 0.717019 -0.0021 0
0.0467159 0.71702 -0.0021 0
0.0467154 0.717021 -0.0017 0
0.0467147 0.717021 -0.0017 0
0.0467139 0.717021 -0.0021 0
0.0467135 0.71702 -0.0021 0
0.0467129 0.717019 -0.0015 0
0.0467132 0.717018 -0.0019 0
0.0467131 0.717016 -0.0019 0
0.0467135 0.717015 -0.0019 0
0.0467133 0.717013 -0.0019 0
0.0467128 0.71701 -0.0019 0
0.0467129 0.717008 -0.0012 0
0.0467132 0.717007 -0.0012 0
0.0467134 0.717005 -0.0016 0
0.0467129 0.717003 -0.0017 0
0.0467125 0.717001 -0.0017 0
0.0467127 0.717 -0.0017 0
0.0467136 0.716999 -0.0018 0
0.046713 0.716997 -0.0018 0
0.0467124 0.716995 -0.0014 0
0.0467119 0.716994 -0.0014 0
0.0467103 0.716992 -0.0019 0
0.0467101 0.716992 -0.0019 0
0.04671 0.716991 -0.0019 0
0.0467098 0.716989 -0.0019 0
0.0467094 0.716987 -0.0013 0
0.0467086 0.716986 -0.0013 0
0.0467077 0.716985 -0.0019 0
0.0467077 0.716983 -0.0019 0
0.0467079 0.716982 -0.0013 0
0.0467077 0.716979 -0.0018 0
0.0467076 0.716978 -0.0018 0
0.046708 0.716976 -0.0018 0
0.046707 0.716974 -0.0017 0
0.0467065 0.716973 -0.0017 0
0.0467058 0.716972 -0.0017 0
0.0467052 0.716971 -0.0017 0
0.0467046 0.71697 -0.0019 0
0.0467041 0.716969 -0.0019 0
0.0467035 0.716968 -0.0019 0
0.0467035 0.716967 -0.0022 0
0.0467034 0.716966 -0.0022 0
0.0467031 0.716966 -0.0017 0
0.0467025 0.716965 -0.0017 0
0.0467018 0.716965 -0.0016 0
0.0467013 0.716964 -0.0016 0
0.0467008 0.716962 -0.0021 0
0.0467001 0.71696 -0.0021 0
0.0467002 0.716958 -0.0018 0
0.0466997 0.716954 -0.0018 0
0.0467003 0.716954 -0.0021 0
0.0467008 0.716953 -0.0021 0
0.0467008 0.716953 -0.0016 0
0.0467011 0.716952 -0.0016 0
0.0467017 0.716952 -0.0016 0
0.0467026 0.71695 -0.0016 0
0.0467027 0.71695 -0.0015 0
0.0467026 0.716948 -0.0015 0
0.0467025 0.716947 -0.0015 0
0.0467023 0.716945 -0.0018 0
0.0467026 0.716944 -0.0018 0
0.0467019 0.716941 -0.0022 0
0.0467019 0.716941 -0.0022 0
0.0467023 0.716941 -0.0016 0
0.0467029 0.71694 -0.0016 0
0.0467035 0.71694 -0.0017 0
0.0467041 0.716939 -0.0017 0
0.0467043 0.716938 -0.0017 0
0.0467044 0.716938 -0.0016 0
0.0467043 0.716937 -0.0016 0
0.0467041 0.716937 -0.0016 0
0.0467039 0.716936 -0.000899997 0
0.0467038 0.716934 -0.0013 0
0.0467042 0.716932 -0.0013 0
0.0467049 0.716931 -0.0014 0
0.046705 0.71693 -0.0014 0
0.0467056 0.716929 -0.0014 0
0.0467063 0.716928 -0.0016 0
0.0467067 0.716926 -0.0016 0
0.0467078 0.716925 -0.0015 0
0.0467083 0.716925 -0.0015 0
0.0467086 0.716924 -0.0015 0
0.0467084 0.716923 -0.002 0
0.0467088 0.716922 -0.002 0
0.0467089 0.71692 -0.0018 0
0.0467081 0.716917 -0.0018 0
0.0467078 0.716916 -0.0018 0
0.0467074 0.716915 -0.0018 0
0.0467072 0.716914 -0.0018 0
0.0467066 0.716913 -0.0017 0
0.0467053 0.716913 -0.0017 0
0.0467053 0.716911 -0.0018 0
0.0467056 0.71691 -0.0018 0
0.0467061 0.716909 -0.0018 0
0.0467057 0.716907 -0.0013 0
0.0467057 0.716906 -0.0017 0
0.0467057 0.716905 -0.0017 0
0.0467055 0.716904 -0.0018 0
0.0467051 0.716903 -0.0018 0
0.0467046 0.716902 -0.0018 0
0.046704 0.716899 -0.0021 0
0.0467024 0.716896 -0.0021 0
0.0467015 0.716894 -0.0016 0
0.0467007 0.716893 -0.0016 0
0.0466999 0.716892 -0.0016 0
0.0466991 0.716891 -0.0016 0
0.0466983 0.71689 -0.0016 0
0.0466968 0.716888 -0.0016 0
0.0466963 0.716886 -0.0018 0
0.0466952 0.716884 -0.0018 0
0.0466942 0.716883 -0.0018 0
0.0466933 0.716881 -0.0018 0
0.0466925 0.71688 -0.0018 0
0.046692 0.716879 -0.0011 0
0.0466915 0.716879 -0.0011 0
0.0466912 0.716878 -0.0015 0
0.0466912 0.716877 -0.0015 0
0.046726 0.715877 -0.0015 0
0.0466904 0.716874 -0.0017 0
0.046691 0.716873 -0.0017 0
0.0466908 0.716873 -0.0017 0
0.0466904 0.716872 -0.0017 0
0.0466901 0.71687 -0.0019 0
0.0466902 0.716869 -0.0019 0
0.04669 0.716868 -0.0017 0
0.046689 0.716866 -0.0017 0
0.0466886 0.716864 -0.0017 0
0.0466886 0.716863 -0.0017 0
0.0466884 0.716863 -0.0011 0
0.046688 0.716862 -0.0011 0
0.0466875 0.716861 -0.0011 0
0.0467566 0.714861 -0.0017 0
0.0466862 0.716859 -0.0017 0
0.0466863 0.716858 -0.0016 0
0.0466864 0.716857 -0.0016 0
0.0466858 0.716856 -0.0016 0
0.0466861 0.716855 -0.0018 0
0.0466863 0.716855 -0.0018 0
0.0466863 0.716854 -0.0012 0
0.0466859 0.716852 -0.0012 0
0.0466863 0.716851 -0.0014 0
0.0466863 0.716851 -0.0014 0
0.046686 0.71685 -0.0013 0
0.0466856 0.716849 -0.0013 0
0.0466852 0.716849 -0.0013 0
0.0466849 0.716849 -0.0018 0
0.0466849 0.716848 -0.0018 0
0.0467199 0.715847 -0.0014 0
0.0467197 0.715846 -0.0014 0
0.0466852 0.716845 -0.0014 0
0.0466846 0.716844 -0.0015 0
0.0471016 0.704851 -0.0019 0
0.0466829 0.716842 -0.0019 0
0.0466824 0.716841 -0.0019 0
0.0466822 0.71684 -0.0014 0
0.0466821 0.71684 -0.0014 0
0.0466821 0.716839 -0.0018 0
0.0466815 0.716838 -0.0018 0
0.0466807 0.716837 -0.0016 0
0.0465563 0.71686 -0.0016 0
0.0465561 0.71686 -0.0012 0
0.0465558 0.716859 -0.0012 0
0.0465557 0.716859 -0.0012 0
0.046556 0.716858 -0.0018 0
0.0465557 0.716857 -0.0018 0
0.0465561 0.716857 -0.0012 0
0.0465563 0.716856 -0.0012 0
0.0465565 0.716856 -0.0013 0
0.046556 0.716855 -0.0013 0
0.0465556 0.716855 -0.0015 0
0.0465558 0.716854 -0.0015 0
0.0466799 0.71683 -0.0015 0
0.0466802 0.716829 -0.0018 0
0.0466794 0.716828 -0.0018 0
0.0466785 0.716827 -0.002 0
0.0465538 0.716848 -0.002 0
0.0465538 0.716846 -0.0017 0
0.0466778 0.716822 -0.0017 0
0.0466778 0.716821 -0.0018 0
0.0467823 0.713821 -0.0018 0
0.0466772 0.716819 -0.0018 0
0.0466758 0.716818 -0.0018 0
0.0466747 0.716817 -0.0024 0
0.0466739 0.716815 -0.0024 0
0.0466738 0.716814 -0.0022 0
0.0466732 0.716813 -0.0012 0
0.0466733 0.716812 -0.0012 0
0.0466734 0.716811 -0.0012 0
0.0466736 0.71681 -0.0018 0
0.0466741 0.716809 -0.002 0
0.0466748 0.716808 -0.002 0
0.0466751 0.716807 -0.002 0
0.0466752 0.716806 -0.0018 0
0.0466753 0.716803 -0.0017 0
0.0466751 0.716803 -0.0017 0
0.0466761 0.716801 -0.002 0
0.0466766 0.716801 -0.002 0
0.0466772 0.7168 -0.0014 0
0.0466784 0.716799 -0.0014 0
0.0466791 0.716798 -0.0014 0
0.0466797 0.716796 -0.0021 0
0.0466803 0.716795 -0.0016 0
0.0466805 0.716794 -0.0016 0
0.0466803 0.716794 -0.0016 0
0.0465569 0.716815 -0.0014 0
0.0465564 0.716814 -0.0015 0
0.0465565 0.716813 -0.0015 0
0.0465574 0.716812 -0.0018 0
0.0465577 0.716812 -0.0018 0
0.0465578 0.716812 -0.0014 0
0.046558 0.716813 -0.0014 0
0.0465583 0.716813 -0.0017 0
0.0465584 0.716813 -0.0016 0
0.0465588 0.716812 -0.0016 0
0.0465587 0.716812 -0.0016 0
0.0465587 0.716809 -0.0016 0
0.0465581 0.716807 -0.0016 0
0.0465582 0.716806 -0.0016 0
0.0479572 0.67683 -0.0016 0
0.0465587 0.716805 -0.0015 0
0.0465589 0.716805 -0.0015 0
0.0465592 0.716804 -0.0019 0
0.0465593 0.716803 -0.0019 0
0.0465593 0.716801 -0.0019 0
0.0465592 0.7168 -0.0016 0
0.0465593 0.7168 -0.0016 0
0.0465589 0.716799 -0.002 0
0.0465594 0.716798 -0.002 0
0.0465593 0.716797 -0.0015 0
0.0465592 0.716795 -0.0015 0
0.046559 0.716795 -0.0017 0
0.0465569 0.716792 -0.0017 0
0.0465562 0.716791 -0.0017 0
0.0465557 0.716789 -0.0017 0
0.0465546 0.716788 -0.0016 0
0.0465539 0.716786 -0.0016 0
0.0465538 0.716785 -0.0016 0
0.0465542 0.716784 -0.0016 0
0.0465541 0.716783 -0.0016 0
0.0465549 0.716781 -0.0017 0
0.046555 0.71678 -0.0017 0
0.0465562 0.716778 -0.0017 0
0.0465572 0.716776 -0.0017 0
0.0465577 0.716775 -0.0018 0
0.0465581 0.716774 -0.0018 0
0.0465573 0.716773 -0.0018 0
0.0465568 0.716772 -0.0011 0
0.0465566 0.716771 -0.0011 0
0.0465564 0.71677 -0.0019 0
0.0465564 0.716769 -0.0019 0
0.0465563 0.716769 -0.0019 0
0.046556 0.716769 -0.0014 0
0.046556 0.716768 -0.0014 0
0.0465566 0.716767 -0.0015 0
0.0465585 0.716763 -0.0015 0
0.0465592 0.716761 -0.0015 0
0.0465594 0.716759 -0.0015 0
0.0465604 0.716757 -0.0019 0
0.0465611 0.716756 -0.0019 0
0.0465612 0.716754 -0.0019 0
0.0465611 0.716752 -0.0017 0
0.0465609 0.716751 -0.0012 0
0.0465613 0.71675 -0.0012 0
0.0465619 0.716748 -0.0016 0
0.0465623 0.716748 -0.0016 0
0.0465628 0.716747 -0.0016 0
0.0465633 0.716746 -0.0016 0
0.0465636 0.716746 -0.0015 0
0.0466691 0.713747 -0.0015 0
0.0465643 0.716745 -0.002 0
0.0465638 0.716742 -0.002 0
0.0465634 0.716742 -0.0015 0
0.0465636 0.716741 -0.0015 0
0.0466333 0.714742 -0.0019 0
0.0465629 0.716738 -0.0019 0
0.046563 0.716738 -0.0018 0
0.0465635 0.716737 -0.0018 0
0.0465635 0.716737 -0.000999997 0
0.0465639 0.716735 -0.000999997 0
0.0465634 0.716734 -0.0016 0
0.0465631 0.716733 -0.0016 0
0.0466865 0.716708 -0.0017 0
0.0466855 0.716705 -0.0017 0
0.0466846 0.716704 -0.0019 0
0.0466847 0.716703 -0.0019 0
0.0466846 0.716702 -0.0019 0
0.0465606 0.716723 -0.0019 0
0.0465597 0.71672 -0.0015 0
0.0465588 0.716719 -0.0015 0
0.046558 0.716718 -0.0018 0
0.046557 0.716715 -0.0018 0
0.0466622 0.713715 -0.0017 0
0.0465571 0.716713 -0.0017 0
0.0465578 0.716712 -0.0016 0
0.0465579 0.716712 -0.0016 0
0.0465588 0.716712 -0.0016 0
0.0469789 0.704719 -0.0017 0
0.0465593 0.716711 -0.0017 0
0.0466831 0.716687 -0.0018 0
0.0466829 0.716686 -0.0018 0
0.046559 0.716708 -0.0018 0
0.0465587 0.716707 -0.0015 0
0.0465588 0.716706 -0.0015 0
0.0465587 0.716705 -0.0015 0
0.0465582 0.716704 -0.0015 0
0.0465582 0.716703 -0.0018 0
0.0465578 0.716702 -0.0018 0
0.046557 0.7167 -0.0013 0
0.0465566 0.7167 -0.0013 0
0.0465565 0.716699 -0.0014 0
0.0465557 0.716698 -0.0014 0
0.0465548 0.716696 -0.0016 0
0.0465549 0.716695 -0.0016 0
0.0465549 0.716694 -0.0011 0
0.0465547 0.716693 -0.0011 0
0.0466782 0.716668 -0.0017 0
0.0466778 0.716666 -0.0017 0
0.0466785 0.716664 -0.0017 0
0.0466789 0.716664 -0.0017 0
0.0465554 0.716685 -0.0013 0
0.0466797 0.716661 -0.0013 0
0.0466799 0.71666 -0.0018 0
0.0466797 0.716659 -0.0018 0
0.0466801 0.716656 -0.0018 0
0.0465562 0.716679 -0.0018 0
0.0465561 0.716677 -0.0015 0
0.0465562 0.716675 -0.0018 0
0.0465558 0.716673 -0.0018 0
0.046556 0.716672 -0.0018 0
0.0465559 0.716671 -0.0013 0
0.0465565 0.716669 -0.0016 0
0.0465567 0.716668 -0.0016 0
0.0465567 0.716667 -0.0016 0
0.0465562 0.716665 -0.0019 0
0.0465558 0.716665 -0.0016 0
0.0465562 0.716665 -0.0016 0
0.0465582 0.716664 -0.0016 0
0.0466817 0.71664 -0.0016 0
0.0466812 0.716637 -0.0017 0
0.0466815 0.716636 -0.0017 0
0.0466817 0.716634 -0.002 0
0.0466814 0.716633 -0.0014 0
0.0466812 0.716632 -0.0014 0
0.0466807 0.716631 -0.0014 0
0.0466812 0.71663 -0.0019 0
0.0466817 0.716629 -0.0019 0
0.0466817 0.716628 -0.0016 0
0.0466832 0.716625 -0.0016 0
0.0466829 0.716623 -0.0021 0
0.0466826 0.716622 -0.0021 0
0.0466824 0.716619 -0.0017 0
0.0465583 0.71664 -0.0017 0
0.046558 0.716639 -0.0017 0
0.0465579 0.716637 -0.0015 0
0.0465577 0.716636 -0.0014 0
0.0465573 0.716636 -0.0014 0
0.0465571 0.716635 -0.0014 0
0.0465565 0.716632 -0.0015 0
0.0465561 0.71663 -0.0022 0
0.0465558 0.716628 -0.0022 0
0.0465554 0.716627 -0.0022 0
0.046555 0.716627 -0.002 0
0.0465543 0.716626 -0.0018 0
0.0465546 0.716626 -0.0018 0
0.0465545 0.716625 -0.0018 0
0.0465551 0.716625 -0.0013 0
0.0465564 0.716623 -0.0012 0
0.0465566 0.716623 -0.0012 0
0.0465571 0.716622 -0.0012 0
0.0465569 0.716622 -0.0014 0
0.0465568 0.716621 -0.0017 0
0.0465569 0.716621 -0.0017 0
0.0465569 0.716621 -0.0017 0
0.0465553 0.716619 -0.0022 0
0.0465546 0.716618 -0.0017 0
0.0465538 0.716617 -0.0017 0
0.0466753 0.716593 -0.0015 0
0.0466747 0.716592 -0.0015 0
0.0466749 0.716591 -0.0013 0
0.0466748 0.71659 -0.0013 0
0.0466741 0.716589 -0.0018 0
0.0466737 0.716588 -0.0018 0
0.046673 0.716587 -0.0012 0
0.0466731 0.716587 -0.0012 0
0.0466734 0.716585 -0.0019 0
0.0467433 0.714585 -0.0019 0
0.0466735 0.716582 -0.0019 0
0.0466738 0.716581 -0.0019 0
0.0466741 0.716578 -0.0011 0
0.0466746 0.716578 -0.0011 0
0.0466748 0.716578 -0.0013 0
0.0466748 0.716577 -0.0013 0
0.0465505 0.716598 -0.0019 0
0.046551 0.716597 -0.0019 0
0.0465509 0.716596 -0.0021 0
0.046551 0.716596 -0.0021 0
0.046551 0.716596 -0.0021 0
0.0465511 0.716595 -0.0017 0
0.0465511 0.716594 -0.0017 0
0.046551 0.716594 -0.002 0
0.0465511 0.716592 -0.002 0
0.0465511 0.716591 -0.0022 0
0.0465516 0.716591 -0.0022 0
0.0465515 0.716589 -0.0017 0
0.046552 0.716589 -0.0017 0
0.0466763 0.716564 -0.0017 0
0.0465534 0.716584 -0.0016 0
0.0465534 0.716583 -0.0021 0
0.046553 0.716583 -0.0021 0
0.0465533 0.716583 -0.0021 0
0.0465537 0.716582 -0.0017 0
0.0465538 0.716581 -0.0017 0
0.0465538 0.71658 -0.002 0
0.0465534 0.716579 -0.002 0
0.0465535 0.716578 -0.002 0
0.0466766 0.716553 -0.0019 0
0.0466766 0.716553 -0.0016 0
0.0466765 0.716552 -0.0016 0
0.046676 0.71655 -0.0016 0
0.0466756 0.716549 -0.0019 0
0.0466744 0.716546 -0.0014 0
0.0466736 0.716545 -0.0014 0
0.0466737 0.716544 -0.0014 0
0.0466747 0.716544 -0.0015 0
0.0466747 0.716543 -0.0015 0
0.0466745 0.716542 -0.0019 0
0.0466743 0.716541 -0.0019 0
0.0466741 0.71654 -0.0019 0
0.0466741 0.716539 -0.0017 0
0.046674 0.716538 -0.0017 0
0.0466739 0.716537 -0.0017 0
0.0467778 0.713538 -0.0017 0
0.0466735 0.716536 -0.0017 0
0.0466734 0.716536 -0.0015 0
0.0466729 0.716535 -0.0015 0
0.0466727 0.716533 -0.0019 0
0.046671 0.71653 -0.0019 0
0.0467398 0.71453 -0.0015 0
0.0466695 0.716527 -0.0015 0
0.0466691 0.716525 -0.0017 0
0.0466684 0.716523 -0.0017 0
0.0466678 0.716522 -0.0015 0
0.0466673 0.716521 -0.0015 0
0.0466671 0.71652 -0.0017 0
0.0466661 0.716519 -0.0017 0
0.0469619 0.704549 -0.0017 0
0.0465421 0.716541 -0.0017 0
0.0465419 0.716539 -0.0021 0
0.0465421 0.716538 -0.0021 0
0.0465415 0.716537 -0.0018 0
0.046541 0.716537 -0.0018 0
0.0466644 0.716512 -0.0014 0
0.0466641 0.716512 -0.0014 0
0.0465401 0.716534 -0.0023 0
0.0465398 0.716532 -0.0023 0
0.0465391 0.71653 -0.000999997 0
0.0465388 0.716528 -0.000999997 0
0.0465385 0.716527 -0.0015 0
0.0465388 0.716526 -0.0017 0
0.0465388 0.716525 -0.0017 0
0.0465391 0.716524 -0.0017 0
0.0465401 0.716522 -0.0016 0
0.0465402 0.716521 -0.0014 0
0.0465396 0.71652 -0.0014 0
0.0465397 0.716519 -0.0014 0
0.0465402 0.716517 -0.0016 0
0.04654 0.716516 -0.0012 0
0.0465394 0.716515 -0.0012 0
0.0466627 0.716491 -0.0012 0
0.0466622 0.716489 -0.002 0
0.0465383 0.716511 -0.002 0
0.0465374 0.71651 -0.0014 0
0.0465014 0.717508 -0.0014 0
0.0466592 0.716484 -0.0014 0
0.0466594 0.716483 -0.0017 0
0.0466592 0.716481 -0.0019 0
0.0466593 0.716479 -0.0019 0
0.0466594 0.716478 -0.0019 0
0.0466597 0.716477 -0.0016 0
0.0466598 0.716476 -0.0016 0
0.0466607 0.716472 -0.0019 0
0.046661 0.716471 -0.0019 0
0.0466618 0.71647 -0.0016 0
0.0466622 0.71647 -0.0016 0
0.0466622 0.716471 -0.0021 0
0.0466624 0.716471 -0.0021 0
0.0466623 0.71647 -0.0021 0
0.0466633 0.716468 -0.0013 0
0.0466636 0.716468 -0.0013 0
0.0466631 0.716468 -0.0013 0
0.0466636 0.716468 -0.0018 0
0.0466638 0.716467 -0.0018 0
0.0466648 0.716463 -0.0015 0
0.0466656 0.716462 -0.0015 0
0.0466661 0.716461 -0.0017 0
0.046701 0.71546 -0.0016 0
0.0466657 0.716459 -0.0016 0
0.0466653 0.716458 -0.0016 0
0.0466649 0.716457 -0.002 0
0.0466645 0.716456 -0.002 0
0.0466639 0.716455 -0.0016 0
0.0466639 0.716454 -0.0016 0
0.0466636 0.716453 -0.0016 0
0.0466639 0.716452 -0.0015 0
0.0466644 0.716449 -0.0015 0
0.0466642 0.716447 -0.0015 0
0.0466649 0.716445 -0.0015 0
0.0466651 0.716443 -0.0013 0
0.0466659 0.716443 -0.0013 0
0.0466666 0.716443 -0.0018 0
0.0466672 0.716442 -0.0018 0
0.0466666 0.716441 -0.0012 0
0.046666 0.71644 -0.0012 0
0.0466659 0.71644 -0.0013 0
0.0466666 0.71644 -0.0013 0
0.0466667 0.71644 -0.0013 0
0.0466674 0.716438 -0.0023 0
0.0466678 0.716437 -0.0012 0
0.0467027 0.715436 -0.0012 0
0.0466679 0.716434 -0.0012 0
0.0466677 0.716433 -0.0018 0
0.0466675 0.716432 -0.0018 0
0.0466674 0.716429 -0.0013 0
0.0466673 0.716428 -0.0013 0
0.0467368 0.714427 -0.0013 0
0.046667 0.716424 -0.0013 0
0.0466666 0.716423 -0.0013 0
0.0467022 0.715422 -0.0013 0
0.0466675 0.71642 -0.0013 0
0.0466673 0.716418 -0.0017 0
0.0466674 0.716417 -0.002 0
0.0452399 0.757392 -0.002 0
0.0466664 0.716417 -0.002 0
0.0466661 0.716417 -0.0014 0
0.0466655 0.716417 -0.0014 0
0.0466656 0.716416 -0.0015 0
0.0466659 0.716416 -0.0015 0
0.0466657 0.716415 -0.0015 0
0.0466664 0.716413 -0.0016 0
0.046666 0.716412 -0.0019 0
0.0466659 0.716411 -0.0019 0
0.0466657 0.71641 -0.0019 0
0.0466653 0.71641 -0.0015 0
0.0466654 0.716409 -0.0015 0
0.046665 0.716408 -0.0016 0
0.0465403 0.716429 -0.0016 0
0.0465407 0.716428 -0.0019 0
0.0465409 0.716427 -0.0019 0
0.0451071 0.7574 -0.0021 0
0.0465402 0.716424 -0.0021 0
0.0465404 0.716422 -0.0015 0
0.0465404 0.716421 -0.0015 0
0.04654 0.716419 -0.0016 0
0.0465398 0.716418 -0.0016 0
0.0465395 0.716417 -0.0021 0
0.0466099 0.714418 -0.0021 0
0.0465382 0.716415 -0.0014 0
0.0465373 0.716414 -0.0014 0
0.0465373 0.716414 -0.0015 0
0.046661 0.71639 -0.0015 0
0.0466618 0.716389 -0.0024 0
0.0466621 0.716388 -0.0024 0
0.0466622 0.716387 -0.0024 0
0.0466622 0.716386 -0.0021 0
0.0466616 0.716385 -0.0021 0
0.0466608 0.716384 -0.0015 0
0.0466601 0.716383 -0.0015 0
0.0466592 0.716381 -0.0014 0
0.0466581 0.716381 -0.0014 0
0.0466578 0.71638 -0.0018 0
0.0466575 0.716379 -0.0018 0
0.0466574 0.716379 -0.0018 0
0.0466569 0.716378 -0.0011 0
0.0466554 0.716377 -0.0011 0
0.0466887 0.715376 -0.0015 0
0.0466533 0.716373 -0.0015 0
0.0466528 0.716373 -0.0024 0
0.0466518 0.716372 -0.0024 0
0.0466511 0.716372 -0.000899997 0
0.0466504 0.716371 -0.000899997 0
0.0466498 0.71637 -0.0015 0
0.0466499 0.716369 -0.0015 0
0.0466499 0.716368 -0.002 0
0.0466497 0.716367 -0.002 0
0.0466491 0.716364 -0.0015 0
0.0466492 0.716362 -0.0015 0
0.0466488 0.716362 -0.000999997 0
0.0466484 0.716362 -0.000999997 0
0.0465237 0.716382 -0.0014 0
0.0466476 0.716358 -0.0014 0
0.0466479 0.716357 -0.0023 0
0.0465238 0.716379 -0.0023 0
0.0465253 0.716377 -0.0013 0
0.0465256 0.716377 -0.0013 0
0.0465257 0.716377 -0.0015 0
0.0465258 0.716376 -0.0015 0
0.0466305 0.713377 -0.0016 0
0.0465257 0.716374 -0.0016 0
0.0465262 0.716373 -0.0015 0
0.0465616 0.715373 -0.0015 0
0.0465275 0.716371 -0.0015 0
0.0465274 0.716371 -0.0018 0
0.046529 0.71637 -0.0018 0
0.0465298 0.716371 -0.0014 0
0.0465302 0.716371 -0.0014 0
0.0465304 0.71637 -0.0014 0
0.0465305 0.716369 -0.0014 0
0.046531 0.716368 -0.0018 0
0.0465315 0.716366 -0.0018 0
0.0465316 0.716364 -0.0018 0
0.0466558 0.71634 -0.0013 0
0.0466557 0.716339 -0.0013 0
0.0466562 0.716337 -0.0015 0
0.0466568 0.716336 -0.0015 0
0.0466574 0.716335 -0.0019 0
0.0466926 0.715335 -0.0019 0
0.0466578 0.716333 -0.002 0
0.0466577 0.716333 -0.002 0
0.0466575 0.716332 -0.002 0
0.0466575 0.71633 -0.0018 0
0.0466571 0.71633 -0.0018 0
0.0466563 0.716328 -0.0018 0
0.0466559 0.716328 -0.0018 0
0.0466556 0.716327 -0.0018 0
0.0466551 0.716327 -0.0018 0
0.046655 0.716327 -0.0016 0
0.0466541 0.716327 -0.0016 0
0.0466535 0.716326 -0.0016 0
0.0466527 0.716324 -0.002 0
0.0466525 0.716324 -0.0013 0
0.0466524 0.716324 -0.0013 0
0.0466514 0.716324 -0.0013 0
0.0465265 0.716346 -0.002 0
0.0465262 0.716347 -0.0013 0
0.0465266 0.716347 -0.0013 0
0.0465269 0.716346 -0.0013 0
0.0465265 0.716345 -0.0018 0
0.0465262 0.716344 -0.0015 0
0.0466497 0.71632 -0.0015 0
0.0466496 0.71632 -0.0015 0
0.0465245 0.716343 -0.0017 0
0.0465242 0.716343 -0.0018 0
0.0465237 0.716342 -0.0018 0
0.046524 0.716341 -0.0016 0
0.0465241 0.71634 -0.0016 0
0.0466479 0.716316 -0.0018 0
0.0466472 0.716315 -0.0018 0
0.0466468 0.716314 -0.0015 0
0.0466458 0.716314 -0.0015 0
0.046521 0.716336 -0.0012 0
0.0466432 0.716313 -0.0012 0
0.0466422 0.716313 -0.0018 0
0.0466415 0.716312 -0.0018 0
0.0466413 0.716312 -0.0018 0
0.046641 0.71631 -0.0018 0
0.0466405 0.716309 -0.0018 0
0.0467448 0.713309 -0.0018 0
0.0466406 0.716307 -0.0018 0
0.0466413 0.716307 -0.0014 0
0.0466433 0.716305 -0.0014 0
0.0466436 0.716304 -0.0021 0
0.046644 0.716302 -0.0021 0
0.0466438 0.716302 -0.000999997 0
0.0466436 0.716301 -0.000999997 0
0.046643 0.716299 -0.0016 0
0.0466427 0.716298 -0.0016 0
0.0466423 0.716298 -0.0022 0
0.0466423 0.716298 -0.0022 0
0.046642 0.716296 -0.0022 0
0.0466426 0.716295 -0.0012 0
0.0466427 0.716294 -0.002 0
0.0466427 0.716294 -0.002 0
0.0466427 0.716293 -0.002 0
0.0466421 0.716293 -0.0019 0
0.0465177 0.716315 -0.0019 0
0.046517 0.716313 -0.0015 0
0.0465171 0.716311 -0.0015 0
0.0465167 0.716309 -0.0015 0
0.046517 0.716308 -0.0018 0
0.0465169 0.716306 -0.0014 0
0.0465166 0.716306 -0.0014 0
0.0465164 0.716304 -0.0014 0
0.0465162 0.716303 -0.0016 0
0.0465165 0.716301 -0.0016 0
0.0465161 0.7163 -0.0015 0
0.0465163 0.716298 -0.0015 0
0.0465162 0.716297 -0.0016 0
0.046516 0.716296 -0.0016 0
0.0465158 0.716295 -0.0019 0
0.0465156 0.716294 -0.0019 0
0.0465162 0.716293 -0.0019 0
0.0466208 0.713294 -0.0013 0
0.0465153 0.716291 -0.0013 0
0.0465157 0.71629 -0.0017 0
0.0465154 0.716289 -0.0017 0
0.0465154 0.716288 -0.0019 0
0.0465151 0.716287 -0.0019 0
0.0465154 0.716286 -0.0017 0
0.0465158 0.716284 -0.0017 0
0.0465163 0.716283 -0.0017 0
0.0466402 0.71626 -0.002 0
0.0466758 0.715259 -0.0012 0
0.0466412 0.716258 -0.0012 0
0.0466412 0.716256 -0.0012 0
0.0466412 0.716254 -0.002 0
0.0466409 0.716253 -0.002 0
0.0466401 0.716252 -0.0016 0
0.0466397 0.71625 -0.0016 0
0.0465154 0.716272 -0.0016 0
0.0465156 0.716271 -0.0019 0
0.0466399 0.716248 -0.0018 0
0.0466406 0.716246 -0.0018 0
0.0466407 0.716245 -0.0018 0
0.0466407 0.716245 -0.0015 0
0.0466409 0.716244 -0.0015 0
0.0467454 0.713245 -0.0017 0
0.0466415 0.716241 -0.0017 0
0.0466413 0.716239 -0.0018 0
0.0466411 0.716237 -0.0018 0
0.0466408 0.716236 -0.0015 0
0.0466401 0.716236 -0.0015 0
0.0466394 0.716235 -0.0021 0
0.0466399 0.716234 -0.0021 0
0.0466401 0.716233 -0.0015 0
0.0466402 0.716231 -0.0015 0
0.0466407 0.716229 -0.0015 0
0.0466399 0.716228 -0.0014 0
0.0466392 0.716226 -0.0018 0
0.0466385 0.716225 -0.0018 0
0.0466374 0.716224 -0.0018 0
0.0466369 0.716223 -0.0015 0
0.0466371 0.716223 -0.0015 0
0.046637 0.716222 -0.002 0
0.0466366 0.716221 -0.002 0
0.0466368 0.716221 -0.0016 0
0.0466367 0.71622 -0.0016 0
0.0466361 0.71622 -0.0016 0
0.0466356 0.716219 -0.0016 0
0.0466352 0.716218 -0.0016 0
0.046635 0.716218 -0.0016 0
0.0466341 0.716217 -0.0016 0
0.0466331 0.716217 -0.0018 0
0.0466321 0.716216 -0.0018 0
0.0466318 0.716215 -0.0017 0
0.0466318 0.716214 -0.0017 0
0.0466316 0.716213 -0.0017 0
0.046631 0.716213 -0.0017 0
0.0466305 0.716211 -0.0017 0
0.0466298 0.71621 -0.0018 0
0.0466295 0.716209 -0.0018 0
0.0466288 0.716208 -0.0015 0
0.0466291 0.716207 -0.0015 0
0.0466283 0.716206 -0.0014 0
0.0466283 0.716205 -0.0014 0
0.0466281 0.716204 -0.0024 0
0.0466275 0.716202 -0.0024 0
0.0466272 0.716201 -0.0018 0
0.046627 0.7162 -0.0018 0
0.0466267 0.716197 -0.0015 0
0.0466264 0.716196 -0.0015 0
0.046627 0.716195 -0.0018 0
0.0466273 0.716195 -0.0018 0
0.0466087 0.713219 -0.0012 0
0.0465037 0.716217 -0.0012 0
0.0466272 0.716194 -0.0017 0
0.046628 0.716193 -0.0017 0
0.0466278 0.716192 -0.0016 0
0.0466276 0.716191 -0.0016 0
0.0466274 0.71619 -0.0016 0
0.0466272 0.716189 -0.0019 0
0.0466275 0.716189 -0.0019 0
0.0466281 0.716187 -0.0017 0
0.0466281 0.716187 -0.0017 0
0.0466279 0.716185 -0.0015 0
0.0466271 0.716185 -0.0015 0
0.0466269 0.716182 -0.0018 0
0.0466265 0.716182 -0.0018 0
0.0466264 0.716181 -0.0015 0
0.0466267 0.716181 -0.0015 0
0.0466263 0.71618 -0.0019 0
0.046626 0.716179 -0.0019 0
0.0466257 0.716178 -0.0016 0
0.0466251 0.716177 -0.0018 0
0.0466254 0.716177 -0.0018 0
0.0466255 0.716176 -0.0018 0
0.0466254 0.716176 -0.0013 0
0.0466251 0.716175 -0.0013 0
0.0466264 0.716174 -0.0014 0
0.0466272 0.716174 -0.0019 0
0.046627 0.716173 -0.0019 0
0.0467309 0.713173 -0.0019 0
0.0466265 0.716168 -0.0018 0
0.0466268 0.716167 -0.0018 0
0.0466269 0.716166 -0.0011 0
0.0466272 0.716165 -0.0011 0
0.0466273 0.716164 -0.0019 0
0.0466278 0.716162 -0.0019 0
0.046628 0.71616 -0.0015 0
0.0466278 0.716159 -0.0015 0
0.0466281 0.716159 -0.0021 0
0.0466282 0.716158 -0.0021 0
0.0466281 0.716157 -0.0021 0
0.0466277 0.716157 -0.0012 0
0.0466281 0.716156 -0.0012 0
0.0466273 0.716153 -0.0018 0
0.0466273 0.716152 -0.0018 0
0.0466269 0.71615 -0.0014 0
0.0466266 0.716149 -0.0014 0
0.0466271 0.716147 -0.0015 0
0.0466266 0.716146 -0.0015 0
0.0466251 0.716143 -0.0018 0
0.0466239 0.716142 -0.0018 0
0.0466228 0.716141 -0.0017 0
0.0466222 0.716139 -0.0017 0
0.0466219 0.716138 -0.0018 0
0.0466216 0.716137 -0.0018 0
0.0466212 0.716136 -0.0015 0
0.0466206 0.716136 -0.0015 0
0.0466201 0.716136 -0.0015 0
0.0466201 0.716136 -0.0019 0
0.04662 0.716135 -0.0019 0
0.04662 0.716133 -0.0013 0
0.0466199 0.716133 -0.0013 0
0.0466197 0.716132 -0.0019 0
0.0466198 0.716132 -0.0019 0
0.0466197 0.716132 -0.0014 0
0.0466194 0.716131 -0.0014 0
0.0466195 0.716132 -0.0016 0
0.0466194 0.716132 -0.0016 0
0.0466195 0.716131 -0.0015 0
0.0466193 0.716131 -0.0015 0
0.04662 0.71613 -0.0015 0
0.0466207 0.716129 -0.0015 0
0.0466216 0.716126 -0.0015 0
0.0466221 0.716125 -0.0015 0
0.0466223 0.716124 -0.0015 0
0.0466221 0.716121 -0.0015 0
0.0466222 0.716119 -0.0014 0
0.0466213 0.716119 -0.0014 0
0.0466211 0.716118 -0.0014 0
0.0464969 0.716139 -0.0018 0
0.0464966 0.716138 -0.0018 0
0.0464965 0.716137 -0.0018 0
0.0464262 0.718134 -0.0014 0
0.046496 0.716134 -0.0014 0
0.0464961 0.716133 -0.0014 0
0.0464957 0.716133 -0.0014 0
0.0464953 0.716132 -0.0014 0
0.0464945 0.716131 -0.0014 0
0.0466177 0.716108 -0.002 0
0.046494 0.716131 -0.002 0
0.0464942 0.71613 -0.002 0
0.0464936 0.716129 -0.0015 0
0.0466137 0.716103 -0.0021 0
0.0466209 0.716103 -0.0021 0
0.0467657 0.716079 -0.0021 0
0.047413 0.715963 0.0119 0
0.0476382 0.715911 0.0484 0
0.047982 0.715835 0.0484 0
0.0482687 0.714759 -0.0014 0
0.0483003 0.714735 -0.0014 0
0.0483321 0.714715 0.0339 0
0.0482118 0.714736 0.0339 0
0.0480648 0.714794 0.0339 0
0.0475796 0.71493 0.004 0
0.0474418 0.714966 0.0091 0
0.0474581 0.713976 0.0091 0
0.0474442 0.713982 0.0091 0
0.0474293 0.713995 -0.0047 0
0.0474266 0.714 -0.0027 0
0.0473027 0.714027 -0.0027 0
0.0471791 0.714049 -0.0023 0
0.04722 0.71305 -0.0023 0
0.04695 0.714096 0.0039 0
0.0468719 0.713115 0.0039 0
0.0466215 0.713154 0.0104 0
0.046459 0.71417 0.0104 0
0.0464879 0.713164 -0.000199997 0
0.0459941 0.713241 -0.000199997 0
0.0459626 0.714229 0.0053 0
0.0458461 0.714241 0.0053 0
0.0458558 0.714236 0.000200003 0
0.0458914 0.713244 0.000200003 0
0.0458905 0.713254 -0.000699997 0
0.045892 0.713263 -0.000699997 0
0.0458926 0.713268 0.0038 0
0.0458901 0.713271 0.0038 0
0.0458894 0.713271 0.000300003 0
0.0458907 0.71327 0.000300003 0
0.0458917 0.713269 0.0012 0
0.045895 0.713272 0.0012 0
0.0458963 0.713272 0.0042 0
0.0458981 0.713272 0.0042 0
0.0459011 0.71327 0.0018 0
0.0459012 0.713269 0.0018 0
0.045866 0.714269 0.0014 0
0.0459033 0.713271 0.0014 0
0.0459022 0.713271 0.0038 0
0.0459014 0.713273 0.0038 0
0.0458991 0.713273 0.0038 0
0.0458598 0.714272 0.0015 0
0.0458935 0.713274 0.0015 0
0.0458955 0.713277 -0.0012 0
0.0458971 0.71328 -0.0012 0
0.045896 0.713279 0.0035 0
0.0458981 0.713279 0.0035 0
0.0459005 0.713277 0.0018 0
0.0459019 0.713274 0.0018 0
0.0459035 0.713272 0.0018 0
0.0459028 0.713268 0.0019 0
0.0459026 0.713268 0.004 0
0.0459012 0.713267 0.004 0
0.0459003 0.713266 0.004 0
0.0459003 0.713263 -0.0019 0
0.0459006 0.713264 0.001 0
0.0459006 0.713265 0.001 0
0.0459016 0.713265 0.001 0
0.0459014 0.713264 -0.000199998 0
0.0459011 0.713262 -0.000699998 0
0.0459023 0.71326 -0.000699998 0
0.0459031 0.713259 -0.000699998 0
0.0459038 0.713259 0.0037 0
0.0459065 0.713259 0.000800002 0
0.0459071 0.71326 0.000800002 0
0.0459067 0.713259 0.000800002 0
0.0458716 0.714258 0.000500002 0
0.0459086 0.713257 0.000500002 0
0.045909 0.713255 0.0019 0
0.0459091 0.713255 0.0019 0
0.04591 0.713254 -0.000599998 0
0.0459099 0.713253 -0.000599998 0
0.0459095 0.713253 0.002 0
0.0459109 0.713253 0.002 0
0.0459104 0.713252 0.0023 0
0.04591 0.713251 0.0023 0
0.0459104 0.713251 0.000900002 0
0.0459112 0.713248 0.000900002 0
0.0459109 0.713248 0.000200002 0
0.04591 0.713246 0.000200002 0
0.045908 0.713245 0.000700002 0
0.0459089 0.713249 0.000700002 0
0.0459102 0.71325 -0.000599998 0
0.0459083 0.713248 0.0023 0
0.0459059 0.713246 0.0023 0
0.0458652 0.71424 0.0023 0
0.045901 0.713238 0.0034 0
0.0459017 0.713236 0.0034 0
0.0459085 0.713239 0.0018 0
0.0458729 0.714238 0.0018 0
0.0459097 0.713239 -0.000199998 0
0.0458729 0.714234 0.0039 0
0.0459102 0.713233 0.0039 0
0.0459091 0.713231 0.0039 0
0.0459072 0.71323 0.0027 0
0.0458692 0.714229 0.0027 0
0.0458705 0.714225 -0.000899998 0
0.0459064 0.713226 -0.000899998 0
0.0459065 0.713226 0.0025 0
0.0458701 0.714225 0.0025 0
0.0458687 0.714223 0.0019 0
0.0459783 0.711225 0.0019 0
0.0459054 0.713222 0.0013 0
0.0459043 0.713221 0.0013 0
0.0458665 0.714219 -0.000799998 0
0.0459015 0.71322 -0.000799998 0
0.0457773 0.713242 -0.0015 0
0.0459012 0.713218 -0.0015 0
0.0458663 0.714216 0.0038 0
0.0459046 0.713219 0.0038 0
0.0459067 0.713219 0.0038 0
0.0459144 0.71322 0.0022 0
0.0459156 0.71322 1.86265e-09 0
0.0459161 0.713219 1.86265e-09 0
0.0459122 0.713216 0.0014 0
0.0459117 0.713216 0.0014 0
0.0459111 0.713214 0.000500002 0
0.0459096 0.713213 0.000500002 0
0.0459077 0.713212 0.0036 0
0.0458727 0.714211 0.0036 0
0.0459103 0.71321 -0.000499998 0
0.0459073 0.71321 -0.000499998 0
0.0459063 0.713211 0.0054 0
0.0459066 0.71321 0.0054 0
0.0459069 0.713208 0.000600002 0
0.0459045 0.713204 0.000600002 0
0.0459045 0.713204 0.0021 0
0.0459049 0.713204 0.0021 0
0.0459042 0.713202 0.000700002 0
0.0458684 0.714201 0.000700002 0
0.0459036 0.713202 0.0039 0
0.0459023 0.7132 0.0039 0
0.0459027 0.7132 0.0033 0
0.0458639 0.714198 0.0033 0
0.0520233 0.543308 0.0033 0
0.0458991 0.713196 0.0046 0
0.0458988 0.713195 0.0046 0
0.0458994 0.713193 0.0031 0
0.0459006 0.713192 0.0031 0
0.0459011 0.71319 0.0016 0
0.0459031 0.713192 0.0016 0
0.045904 0.713193 -9.99979e-05 0
0.0459772 0.711194 -9.99979e-05 0
0.0459058 0.713191 -9.99979e-05 0
0.0459075 0.713191 0.000600002 0
0.0459089 0.713192 0.000600002 0
0.0459087 0.713192 0.0013 0
0.045909 0.71319 0.0013 0
0.0459076 0.71319 0.0013 0
0.0459069 0.713188 -0.000799998 0
0.0459044 0.713185 -0.000799998 0
0.0459018 0.713183 0.0025 0
0.045901 0.713182 0.0025 0
0.0459022 0.713181 0.0025 0
0.0459004 0.71318 0.0049 0
0.0459002 0.713178 0.0049 0
0.0459003 0.713178 0.000200002 0
0.0459 0.713178 0.000200002 0
0.0459028 0.713178 0.0026 0
0.045901 0.713176 0.0026 0
0.0458931 0.713173 0.0021 0
0.0473981 0.671198 0.0021 0
0.0458785 0.71317 0.0021 0
0.0458178 0.713167 0.0023 0
0.0456561 0.714161 0.0023 0
0.0455369 0.713155 -0.0011 0
0.0453091 0.714145 -0.0011 0
0.0450918 0.713135 -0.0011 0
0.0444432 0.713134 0.001 0
0.0441413 0.71312 -0.000599998 0
0.0438151 0.713104 -0.000599998 0
0.0438787 0.702099 -0.000599998 0
0.0431393 0.713079 -0.0012 0
0.042489 0.711134 -0.0012 0
0.0419086 0.713142 -0.000799998 0
0.0413736 0.713148 -0.000799998 0
0.0403883 0.713134 0.0014 0
0.039572 0.713183 0.0014 0
0.0391148 0.713165 -0.000599998 0
0.0385068 0.713171 -0.000599998 0
0.0372632 0.713181 -0.000199998 0
0.0366589 0.712185 -0.000199998 0
0.0359657 0.713189 -0.0016 0
0.0353117 0.713196 -0.0016 0
0.0345503 0.71223 -0.0016 0
0.0327772 0.712316 0.004 0
0.0320504 0.71232 0.0028 0
0.0312113 0.711342 0.0028 0
0.030428 0.711339 0.0028 0
0.0288811 0.710327 0.0029 0
0.0280112 0.711315 -0.0016 0
0.02716 0.711303 -0.0016 0
0.0264612 0.710269 -0.0016 0
0.025657 0.708257 0.0037 0
0.0239871 0.710177 0.0015 0
0.0231693 0.710148 0.0015 0
0.0219485 0.710185 0.0015 0
0.0212283 0.672263 0.0031 0
0.0201533 0.671273 0.0063 0
0.0191701 0.670262 0.0063 0
0.0166412 0.669334 0.003 0
0.0154329 0.669336 0.003 0
0.0142142 0.669334 -0.000599999 0
0.0118258 0.669296 -0.000599999 0
0.0107313 0.668262 -9.99984e-05 0
0.00964901 0.668202 -9.99984e-05 0
0.00842842 0.668166 0.0012 0
0.00607041 0.667072 0.0012 0
0.00483244 0.66604 0.002 0
0.00358992 0.66698 0.002 0
0.00117989 0.665858 0.0037 0
-0.000106791 0.6658 0.0037 0
