ply
format ascii 1.0
element vertex 1658
property float x
property float y
property float z
property float intensity
end_header
-0.365142 -1.24502 -0.0042 0
-0.36514 -1.24502 -0.0042 0
-0.365139 -1.24502 -0.0042 0
-0.365092 -1.24514 -0.0043 0
-0.365089 -1.24514 -0.0043 0
-0.365087 -1.24514 -0.0045 0
-0.365085 -1.24514 -0.0045 0
-0.365083 -1.24514 -0.0046 0
-0.365081 -1.24514 -0.0046 0
-0.365124 -1.24502 -0.0047 0
-0.365123 -1.24501 -0.0047 0
-0.365122 -1.24501 -0.0044 0
-0.365121 -1.24501 -0.0044 0
-0.36512 -1.24501 -0.0038 0
-0.365119 -1.24501 -0.0038 0
-0.365118 -1.24501 -0.0046 0
-0.365117 -1.24501 -0.0046 0
-0.365117 -1.24501 -0.0047 0
-0.365117 -1.24501 -0.0047 0
-0.365071 -1.24513 -0.0043 0
-0.36507 -1.24513 -0.0045 0
-0.365069 -1.24512 -0.0045 0
-0.365069 -1.24512 -0.0045 0
-0.365067 -1.24512 -0.0048 0
-0.365111 -1.245 -0.0045 0
-0.365111 -1.24501 -0.0045 0
-0.36511 -1.24501 -0.0045 0
-0.365109 -1.24501 -0.0047 0
-0.365107 -1.245 -0.0047 0
-0.365106 -1.245 -0.0047 0
-0.365104 -1.245 -0.0047 0
-0.365104 -1.245 -0.0047 0
-0.365104 -1.245 -0.0045 0
-0.365103 -1.245 -0.0045 0
-0.365101 -1.245 -0.0045 0
-0.3651 -1.245 -0.0044 0
-0.3651 -1.245 -0.0044 0
-0.365099 -1.245 -0.0044 0
-0.365099 -1.245 -0.0047 0
-0.365098 -1.245 -0.0047 0
-0.365097 -1.245 -0.0047 0
-0.365095 -1.245 -0.0047 0
-0.365092 -1.245 -0.0044 0
-0.365092 -1.245 -0.0044 0
-0.365091 -1.245 -0.0048 0
-0.365091 -1.245 -0.0048 0
-0.36509 -1.245 -0.004 0
-0.365089 -1.245 -0.004 0
-0.365088 -1.245 -0.004 0
-0.365088 -1.245 -0.0043 0
-0.365087 -1.245 -0.0043 0
-0.365086 -1.245 -0.0044 0
-0.365085 -1.245 -0.0044 0
-0.365084 -1.245 -0.0048 0
-0.365083 -1.245 -0.0048 0
-0.365082 -1.245 -0.0048 0
-0.365081 -1.245 -0.0046 0
-0.36508 -1.245 -0.0046 0
-0.365078 -1.245 -0.0046 0
-0.365076 -1.245 -0.0046 0
-0.365076 -1.245 -0.0044 0
-0.365075 -1.245 -0.0044 0
-0.365073 -1.245 -0.0043 0
-0.365072 -1.245 -0.0043 0
-0.36507 -1.245 -0.0048 0
-0.365069 -1.245 -0.0048 0
-0.365068 -1.245 -0.0046 0
-0.365067 -1.245 -0.0046 0
-0.365066 -1.245 -0.0046 0
-0.365065 -1.245 -0.0046 0
-0.365064 -1.245 -0.0045 0
-0.365016 -1.24512 -0.0042 0
-0.365015 -1.24512 -0.0042 0
-0.365013 -1.24512 -0.0042 0
-0.355841 -1.23904 -0.0048 0
-0.365011 -1.24512 -0.0048 0
-0.36501 -1.24512 -0.0048 0
-0.365009 -1.24512 -0.0049 0
-0.365008 -1.24512 -0.0049 0
-0.365007 -1.24512 -0.0043 0
-0.365006 -1.24512 -0.0043 0
-0.365005 -1.24511 -0.0048 0
-0.365004 -1.24511 -0.0048 0
-0.365004 -1.24511 -0.0052 0
-0.365003 -1.24511 -0.0052 0
-0.365002 -1.24511 -0.0045 0
-0.365 -1.24511 -0.0045 0
-0.365 -1.24511 -0.0045 0
-0.364999 -1.24511 -0.0046 0
-0.364999 -1.24511 -0.0046 0
-0.365001 -1.24511 -0.0054 0
-0.365001 -1.24511 -0.0054 0
-0.365001 -1.24511 -0.0043 0
-0.365001 -1.24511 -0.0043 0
-0.365001 -1.24511 -0.0043 0
-0.365 -1.24511 -0.0043 0
-0.365043 -1.24499 -0.0041 0
-0.365042 -1.24499 -0.0041 0
-0.365041 -1.24499 -0.0041 0
-0.36504 -1.24499 -0.005 0
-0.36504 -1.24499 -0.005 0
-0.365039 -1.24498 -0.0047 0
-0.365038 -1.24498 -0.0047 0
-0.364993 -1.2451 -0.0042 0
-0.364992 -1.2451 -0.0042 0
-0.364992 -1.2451 -0.0046 0
-0.364992 -1.2451 -0.0046 0
-0.364992 -1.2451 -0.0046 0
-0.364991 -1.2451 -0.0044 0
-0.364991 -1.2451 -0.0044 0
-0.36499 -1.2451 -0.005 0
-0.365033 -1.24498 -0.0045 0
-0.365032 -1.24498 -0.0045 0
-0.364986 -1.2451 -0.0045 0
-0.364985 -1.2451 -0.0043 0
-0.364985 -1.2451 -0.0043 0
-0.364984 -1.24509 -0.0049 0
-0.364982 -1.24509 -0.0049 0
-0.364981 -1.24509 -0.0045 0
-0.36498 -1.24509 -0.0045 0
-0.364979 -1.24509 -0.0045 0
-0.364978 -1.24509 -0.0045 0
-0.365022 -1.24497 -0.0045 0
-0.364977 -1.24509 -0.0051 0
-0.365856 -1.24552 -0.0051 0
-0.364976 -1.24509 -0.0051 0
-0.365021 -1.24497 -0.005 0
-0.36502 -1.24497 -0.005 0
-0.365019 -1.24497 -0.0048 0
-0.365018 -1.24497 -0.0044 0
-0.36335 -1.24386 -0.0044 0
-0.365017 -1.24497 -0.0044 0
-0.365016 -1.24497 -0.0044 0
-0.365015 -1.24496 -0.0044 0
-0.364969 -1.24508 -0.0044 0
-0.365014 -1.24496 -0.0046 0
-0.365013 -1.24496 -0.0047 0
-0.364967 -1.24508 -0.0047 0
-0.364966 -1.24508 -0.0047 0
-0.364965 -1.24508 -0.0043 0
-0.364962 -1.24508 -0.0049 0
-0.365006 -1.24496 -0.0049 0
-0.365005 -1.24496 -0.0041 0
-0.365005 -1.24496 -0.0041 0
-0.365005 -1.24496 -0.0041 0
-0.365004 -1.24496 -0.0053 0
-0.365002 -1.24495 -0.0053 0
-0.365001 -1.24495 -0.0047 0
-0.364998 -1.24495 -0.0047 0
-0.364997 -1.24495 -0.0045 0
-0.364997 -1.24495 -0.0045 0
-0.364996 -1.24495 -0.0049 0
-0.364996 -1.24495 -0.0049 0
-0.364949 -1.24507 -0.0049 0
-0.364949 -1.24507 -0.0044 0
-0.364946 -1.24507 -0.0044 0
-0.364945 -1.24507 -0.0045 0
-0.364944 -1.24507 -0.0045 0
-0.364944 -1.24507 -0.0049 0
-0.364943 -1.24507 -0.0049 0
-0.364944 -1.24507 -0.0049 0
-0.364944 -1.24507 -0.0045 0
-0.364943 -1.24507 -0.0047 0
-0.364942 -1.24507 -0.0047 0
-0.364941 -1.24507 -0.0047 0
-0.36494 -1.24507 -0.0043 0
-0.364939 -1.24507 -0.0043 0
-0.364937 -1.24507 -0.0047 0
-0.364936 -1.24507 -0.0048 0
-0.364934 -1.24506 -0.0048 0
-0.364933 -1.24506 -0.0046 0
-0.364932 -1.24506 -0.0046 0
-0.364931 -1.24506 -0.0045 0
-0.364929 -1.24506 -0.0045 0
-0.364928 -1.24506 -0.0042 0
-0.364927 -1.24506 -0.0042 0
-0.364927 -1.24506 -0.0046 0
-0.364925 -1.24506 -0.0046 0
-0.364924 -1.24506 -0.0046 0
-0.364922 -1.24506 -0.0046 0
-0.364922 -1.24506 -0.0042 0
-0.364921 -1.24506 -0.0042 0
-0.36492 -1.24505 -0.0043 0
-0.36492 -1.24505 -0.0043 0
-0.364919 -1.24505 -0.0046 0
-0.364918 -1.24505 -0.0046 0
-0.364918 -1.24505 -0.0043 0
-0.364918 -1.24505 -0.0043 0
-0.364917 -1.24505 -0.0048 0
-0.364917 -1.24505 -0.0048 0
-0.364916 -1.24505 -0.0042 0
-0.364916 -1.24505 -0.0042 0
-0.364915 -1.24505 -0.0042 0
-0.364915 -1.24505 -0.0042 0
-0.364915 -1.24505 -0.0047 0
-0.364915 -1.24505 -0.0047 0
-0.364914 -1.24505 -0.0047 0
-0.364914 -1.24505 -0.0046 0
-0.364913 -1.24505 -0.0046 0
-0.364912 -1.24505 -0.0042 0
-0.36491 -1.24505 -0.0042 0
-0.364908 -1.24505 -0.0044 0
-0.364908 -1.24505 -0.0044 0
-0.364907 -1.24505 -0.0044 0
-0.364906 -1.24504 -0.0043 0
-0.364906 -1.24504 -0.0043 0
-0.364905 -1.24504 -0.0043 0
-0.364904 -1.24504 -0.0047 0
-0.362401 -1.24338 -0.0047 0
-0.364902 -1.24504 -0.0047 0
-0.364902 -1.24504 -0.0047 0
-0.364901 -1.24504 -0.0046 0
-0.3649 -1.24504 -0.0046 0
-0.3649 -1.24504 -0.0046 0
-0.3649 -1.24504 -0.0049 0
-0.364899 -1.24504 -0.0049 0
-0.364898 -1.24504 -0.0043 0
-0.364897 -1.24504 -0.0049 0
-0.364897 -1.24503 -0.0049 0
-0.364897 -1.24503 -0.0049 0
-0.364896 -1.24503 -0.005 0
-0.364896 -1.24503 -0.005 0
-0.364895 -1.24503 -0.005 0
-0.364894 -1.24503 -0.0046 0
-0.364893 -1.24503 -0.0046 0
-0.364891 -1.24503 -0.0044 0
-0.364891 -1.24503 -0.0044 0
-0.36489 -1.24503 -0.0047 0
-0.36489 -1.24503 -0.0047 0
-0.364889 -1.24503 -0.0043 0
-0.364888 -1.24503 -0.0043 0
-0.364888 -1.24503 -0.005 0
-0.364888 -1.24503 -0.005 0
-0.364887 -1.24503 -0.005 0
-0.364887 -1.24503 -0.0044 0
-0.364886 -1.24503 -0.0044 0
-0.364886 -1.24503 -0.0046 0
-0.364886 -1.24503 -0.0046 0
-0.364885 -1.24503 -0.0046 0
-0.364884 -1.24503 -0.0047 0
-0.364884 -1.24503 -0.0047 0
-0.364884 -1.24503 -0.0045 0
-0.364884 -1.24503 -0.0045 0
-0.364883 -1.24503 -0.0045 0
-0.364883 -1.24503 -0.0041 0
-0.364882 -1.24502 -0.0045 0
-0.364882 -1.24502 -0.0045 0
-0.364882 -1.24502 -0.0045 0
-0.36238 -1.24337 -0.0044 0
-0.364882 -1.24502 -0.0044 0
-0.364881 -1.24502 -0.0044 0
-0.364881 -1.24502 -0.0044 0
-0.364881 -1.24502 -0.0044 0
-0.36488 -1.24502 -0.0045 0
-0.364879 -1.24502 -0.0045 0
-0.364878 -1.24502 -0.0042 0
-0.364877 -1.24502 -0.0042 0
-0.364876 -1.24502 -0.004 0
-0.364876 -1.24502 -0.004 0
-0.364876 -1.24502 -0.0043 0
-0.364876 -1.24502 -0.0043 0
-0.364876 -1.24502 -0.0043 0
-0.364874 -1.24501 -0.0046 0
-0.364873 -1.24501 -0.0043 0
-0.364871 -1.24501 -0.0043 0
-0.36487 -1.24501 -0.0043 0
-0.364036 -1.24446 -0.0046 0
-0.364869 -1.24501 -0.0046 0
-0.364869 -1.24501 -0.0044 0
-0.36487 -1.24501 -0.0044 0
-0.364869 -1.24501 -0.0046 0
-0.364869 -1.24501 -0.0046 0
-0.364869 -1.24501 -0.0045 0
-0.364868 -1.24501 -0.0045 0
-0.364867 -1.24501 -0.0045 0
-0.364866 -1.24501 -0.0043 0
-0.364865 -1.24501 -0.005 0
-0.364863 -1.24501 -0.005 0
-0.364862 -1.24501 -0.005 0
-0.364861 -1.24501 -0.0044 0
-0.364861 -1.24501 -0.0044 0
-0.364861 -1.24501 -0.0049 0
-0.362359 -1.24335 -0.0049 0
-0.36486 -1.24501 -0.0049 0
-0.364859 -1.24501 -0.0046 0
-0.364858 -1.245 -0.0046 0
-0.364857 -1.245 -0.0046 0
-0.364855 -1.245 -0.0047 0
-0.364853 -1.245 -0.0044 0
-0.364851 -1.245 -0.0044 0
-0.36485 -1.245 -0.0048 0
-0.364848 -1.245 -0.0048 0
-0.364847 -1.245 -0.0045 0
-0.364846 -1.245 -0.0045 0
-0.364844 -1.245 -0.0046 0
-0.364844 -1.245 -0.0046 0
-0.364842 -1.245 -0.0049 0
-0.364841 -1.245 -0.0049 0
-0.36484 -1.245 -0.0045 0
-0.364839 -1.245 -0.0045 0
-0.364838 -1.245 -0.0045 0
-0.363169 -1.2439 -0.0051 0
-0.364836 -1.245 -0.0051 0
-0.363168 -1.2439 -0.0048 0
-0.364835 -1.245 -0.0048 0
-0.364834 -1.245 -0.0045 0
-0.364833 -1.245 -0.0045 0
-0.364831 -1.245 -0.005 0
-0.36483 -1.245 -0.005 0
-0.364829 -1.245 -0.005 0
-0.364872 -1.24488 -0.0041 0
-0.364872 -1.24488 -0.0045 0
-0.364871 -1.24488 -0.0045 0
-0.364871 -1.24488 -0.0045 0
-0.364826 -1.245 -0.0046 0
-0.364824 -1.245 -0.0045 0
-0.364869 -1.24488 -0.0045 0
-0.364868 -1.24488 -0.0045 0
-0.364821 -1.24499 -0.0044 0
-0.364821 -1.24499 -0.0045 0
-0.364821 -1.24499 -0.0045 0
-0.399005 -1.26763 -0.0045 0
-0.364821 -1.24499 -0.0047 0
-0.363988 -1.24444 -0.0047 0
-0.36482 -1.24499 -0.0047 0
-0.36482 -1.24499 -0.0047 0
-0.364865 -1.24487 -0.0044 0
-0.364864 -1.24487 -0.0044 0
-0.364862 -1.24487 -0.0046 0
-0.364861 -1.24487 -0.0046 0
-0.364861 -1.24487 -0.0044 0
-0.364861 -1.24487 -0.0044 0
-0.364861 -1.24487 -0.0047 0
-0.364861 -1.24487 -0.0047 0
-0.364859 -1.24487 -0.0042 0
-0.364858 -1.24487 -0.0042 0
-0.364858 -1.24487 -0.0042 0
-0.364855 -1.24487 -0.0047 0
-0.364854 -1.24487 -0.0046 0
-0.364852 -1.24487 -0.0046 0
-0.364852 -1.24487 -0.0046 0
-0.364851 -1.24487 -0.0042 0
-0.36485 -1.24487 -0.0042 0
-0.364849 -1.24486 -0.0048 0
-0.364847 -1.24486 -0.0047 0
-0.364848 -1.24486 -0.0047 0
-0.364848 -1.24486 -0.0047 0
-0.364847 -1.24486 -0.0048 0
-0.364847 -1.24486 -0.0048 0
-0.364846 -1.24486 -0.0044 0
-0.364845 -1.24486 -0.0044 0
-0.364845 -1.24486 -0.0044 0
-0.364844 -1.24486 -0.0043 0
-0.364843 -1.24486 -0.0043 0
-0.364842 -1.24486 -0.0045 0
-0.364841 -1.24486 -0.0045 0
-0.364839 -1.24486 -0.0044 0
-0.364839 -1.24486 -0.0044 0
-0.364838 -1.24486 -0.0042 0
-0.364838 -1.24486 -0.0042 0
-0.364838 -1.24486 -0.0042 0
-0.364838 -1.24486 -0.0048 0
-0.364838 -1.24486 -0.0048 0
-0.364836 -1.24486 -0.0045 0
-0.364834 -1.24485 -0.0045 0
-0.364833 -1.24485 -0.005 0
-0.364832 -1.24485 -0.005 0
-0.364785 -1.24497 -0.005 0
-0.364782 -1.24497 -0.0046 0
-0.363114 -1.24386 -0.0046 0
-0.36478 -1.24497 -0.0046 0
-0.364779 -1.24497 -0.0048 0
-0.364777 -1.24497 -0.0048 0
-0.364776 -1.24497 -0.0048 0
-0.364775 -1.24496 -0.0045 0
-0.364774 -1.24496 -0.0045 0
-0.364773 -1.24496 -0.0047 0
-0.364816 -1.24485 -0.0047 0
-0.36477 -1.24496 -0.0047 0
-0.363101 -1.24386 -0.0047 0
-0.364813 -1.24484 -0.0047 0
-0.364766 -1.24496 -0.0044 0
-0.364765 -1.24496 -0.0044 0
-0.364763 -1.24496 -0.0042 0
-0.364763 -1.24496 -0.0042 0
-0.364761 -1.24496 -0.0047 0
-0.364761 -1.24496 -0.0047 0
-0.36476 -1.24496 -0.0043 0
-0.364758 -1.24496 -0.0043 0
-0.364803 -1.24484 -0.0043 0
-0.363089 -1.24385 -0.0043 0
-0.364755 -1.24496 -0.0043 0
-0.364755 -1.24496 -0.0047 0
-0.364797 -1.24484 -0.0047 0
-0.364796 -1.24484 -0.0045 0
-0.364796 -1.24483 -0.0045 0
-0.364794 -1.24483 -0.0046 0
-0.364793 -1.24483 -0.0046 0
-0.364792 -1.24483 -0.0046 0
-0.364791 -1.24483 -0.0041 0
-0.364791 -1.24483 -0.0041 0
-0.36479 -1.24483 -0.0046 0
-0.36479 -1.24483 -0.0046 0
-0.36479 -1.24483 -0.0049 0
-0.364789 -1.24483 -0.0049 0
-0.364788 -1.24483 -0.0042 0
-0.364787 -1.24483 -0.0042 0
-0.364787 -1.24483 -0.005 0
-0.364787 -1.24483 -0.005 0
-0.364787 -1.24483 -0.0046 0
-0.364787 -1.24483 -0.0046 0
-0.364787 -1.24483 -0.005 0
-0.364786 -1.24483 -0.005 0
-0.364785 -1.24483 -0.0044 0
-0.364784 -1.24483 -0.0048 0
-0.364782 -1.24483 -0.0048 0
-0.364781 -1.24483 -0.0048 0
-0.36478 -1.24483 -0.0048 0
-0.364777 -1.24483 -0.0048 0
-0.364775 -1.24483 -0.0041 0
-0.364774 -1.24483 -0.0041 0
-0.364773 -1.24482 -0.0045 0
-0.364771 -1.24482 -0.0046 0
-0.364769 -1.24482 -0.0046 0
-0.364768 -1.24482 -0.0046 0
-0.364768 -1.24482 -0.0047 0
-0.364766 -1.24482 -0.0047 0
-0.364764 -1.24482 -0.0043 0
-0.364763 -1.24482 -0.0043 0
-0.36476 -1.24482 -0.0048 0
-0.36476 -1.24482 -0.0048 0
-0.364759 -1.24482 -0.0048 0
-0.364757 -1.24482 -0.0048 0
-0.364755 -1.24482 -0.0042 0
-0.364754 -1.24482 -0.0042 0
-0.364753 -1.24482 -0.0048 0
-0.364752 -1.24482 -0.0048 0
-0.36475 -1.24482 -0.0042 0
-0.364748 -1.24482 -0.0047 0
-0.364747 -1.24482 -0.0047 0
-0.364745 -1.24481 -0.0047 0
-0.364743 -1.24481 -0.0046 0
-0.364742 -1.24481 -0.0046 0
-0.36474 -1.24481 -0.0046 0
-0.364739 -1.24481 -0.0046 0
-0.364739 -1.24481 -0.0048 0
-0.364737 -1.24481 -0.0048 0
-0.364736 -1.24481 -0.0048 0
-0.364735 -1.24481 -0.0051 0
-0.364735 -1.24481 -0.0051 0
-0.364734 -1.24481 -0.0046 0
-0.364733 -1.24481 -0.0046 0
-0.364733 -1.24481 -0.0045 0
-0.364732 -1.24481 -0.0045 0
-0.36473 -1.24481 -0.005 0
-0.364728 -1.24481 -0.005 0
-0.364726 -1.24481 -0.0047 0
-0.364723 -1.24481 -0.0047 0
-0.364723 -1.24481 -0.005 0
-0.364722 -1.24481 -0.005 0
-0.364722 -1.24481 -0.0045 0
-0.364722 -1.24481 -0.0045 0
-0.364721 -1.24481 -0.0045 0
-0.36472 -1.2448 -0.0045 0
-0.36472 -1.2448 -0.0044 0
-0.364719 -1.2448 -0.0044 0
-0.364718 -1.2448 -0.0044 0
-0.364716 -1.2448 -0.0047 0
-0.364715 -1.2448 -0.0047 0
-0.364713 -1.2448 -0.0051 0
-0.364712 -1.2448 -0.0051 0
-0.364713 -1.2448 -0.0045 0
-0.364712 -1.2448 -0.0045 0
-0.364712 -1.2448 -0.0046 0
-0.364712 -1.2448 -0.0046 0
-0.364711 -1.2448 -0.0046 0
-0.364711 -1.2448 -0.0045 0
-0.36471 -1.2448 -0.0045 0
-0.36471 -1.2448 -0.0045 0
-0.364709 -1.2448 -0.0038 0
-0.364707 -1.2448 -0.0042 0
-0.364706 -1.24479 -0.0042 0
-0.364705 -1.24479 -0.0043 0
-0.364704 -1.24479 -0.0043 0
-0.364704 -1.24479 -0.0043 0
-0.364703 -1.24479 -0.0045 0
-0.364702 -1.24479 -0.0045 0
-0.364702 -1.24479 -0.0044 0
-0.364702 -1.24479 -0.0044 0
-0.364701 -1.24479 -0.0044 0
-0.364701 -1.24479 -0.0049 0
-0.3647 -1.24479 -0.0049 0
-0.364699 -1.24478 -0.0047 0
-0.364695 -1.24478 -0.0047 0
-0.364694 -1.24478 -0.0047 0
-0.364693 -1.24478 -0.0047 0
-0.364693 -1.24478 -0.0047 0
-0.364691 -1.24478 -0.0046 0
-0.36469 -1.24478 -0.0046 0
-0.364689 -1.24478 -0.0047 0
-0.364688 -1.24478 -0.0047 0
-0.364688 -1.24478 -0.0047 0
-0.364686 -1.24478 -0.0042 0
-0.364685 -1.24478 -0.0046 0
-0.364684 -1.24478 -0.0046 0
-0.364683 -1.24478 -0.0047 0
-0.364682 -1.24478 -0.0047 0
-0.36468 -1.24478 -0.0047 0
-0.364678 -1.24478 -0.005 0
-0.364674 -1.24478 -0.005 0
-0.364672 -1.24478 -0.0045 0
-0.364671 -1.24478 -0.0045 0
-0.364669 -1.24478 -0.0045 0
-0.364668 -1.24478 -0.0045 0
-0.364667 -1.24478 -0.0045 0
-0.364664 -1.24478 -0.0045 0
-0.364663 -1.24478 -0.0047 0
-0.364661 -1.24478 -0.0047 0
-0.364659 -1.24478 -0.0047 0
-0.364657 -1.24478 -0.0047 0
-0.364655 -1.24478 -0.0047 0
-0.364655 -1.24478 -0.004 0
-0.364654 -1.24478 -0.004 0
-0.364653 -1.24478 -0.0044 0
-0.364653 -1.24478 -0.0044 0
-0.363818 -1.24422 -0.0044 0
-0.364649 -1.24478 -0.0046 0
-0.364649 -1.24477 -0.0046 0
-0.364648 -1.24477 -0.0046 0
-0.364647 -1.24477 -0.0046 0
-0.364646 -1.24477 -0.0048 0
-0.364645 -1.24477 -0.0048 0
-0.364644 -1.24477 -0.0046 0
-0.364642 -1.24477 -0.0046 0
-0.364639 -1.24477 -0.0046 0
-0.364639 -1.24477 -0.0046 0
-0.364639 -1.24477 -0.004 0
-0.364638 -1.24477 -0.004 0
-0.364637 -1.24477 -0.004 0
-0.362968 -1.24367 -0.0046 0
-0.364635 -1.24477 -0.0046 0
-0.364634 -1.24477 -0.0045 0
-0.364633 -1.24477 -0.0045 0
-0.364632 -1.24477 -0.0045 0
-0.364631 -1.24477 -0.0047 0
-0.36463 -1.24477 -0.0047 0
-0.36463 -1.24477 -0.0041 0
-0.364628 -1.24477 -0.0041 0
-0.364628 -1.24477 -0.0043 0
-0.364627 -1.24477 -0.0043 0
-0.364627 -1.24477 -0.0042 0
-0.364626 -1.24477 -0.0042 0
-0.364625 -1.24477 -0.0042 0
-0.364625 -1.24477 -0.0047 0
-0.364624 -1.24477 -0.0047 0
-0.363789 -1.24421 -0.0043 0
-0.363788 -1.24421 -0.0043 0
-0.364622 -1.24476 -0.0043 0
-0.364621 -1.24476 -0.0044 0
-0.354614 -1.23814 -0.0048 0
-0.364618 -1.24477 -0.0048 0
-0.364617 -1.24477 -0.0048 0
-0.364616 -1.24477 -0.0043 0
-0.364616 -1.24476 -0.0043 0
-0.364615 -1.24476 -0.0047 0
-0.364614 -1.24476 -0.0047 0
-0.364613 -1.24476 -0.0045 0
-0.364567 -1.24488 -0.0045 0
-0.364567 -1.24488 -0.0041 0
-0.364566 -1.24488 -0.0041 0
-0.364566 -1.24488 -0.0041 0
-0.364565 -1.24488 -0.0047 0
-0.364565 -1.24488 -0.0047 0
-0.364565 -1.24488 -0.0041 0
-0.364564 -1.24488 -0.0041 0
-0.364564 -1.24488 -0.0042 0
-0.364563 -1.24488 -0.0042 0
-0.364562 -1.24488 -0.0044 0
-0.364562 -1.24488 -0.0044 0
-0.364606 -1.24476 -0.0044 0
-0.364605 -1.24476 -0.0047 0
-0.364604 -1.24476 -0.0047 0
-0.364603 -1.24476 -0.0049 0
-0.364555 -1.24488 -0.0049 0
-0.364554 -1.24488 -0.0046 0
-0.364598 -1.24476 -0.0046 0
-0.364597 -1.24476 -0.0047 0
-0.362094 -1.2431 -0.0047 0
-0.364596 -1.24476 -0.0047 0
-0.364594 -1.24476 -0.0047 0
-0.364593 -1.24476 -0.0053 0
-0.364591 -1.24476 -0.0053 0
-0.36459 -1.24476 -0.0051 0
-0.364588 -1.24476 -0.0041 0
-0.364588 -1.24476 -0.0041 0
-0.364587 -1.24476 -0.0041 0
-0.364586 -1.24476 -0.0047 0
-0.364585 -1.24476 -0.0049 0
-0.364585 -1.24475 -0.0049 0
-0.364584 -1.24475 -0.0049 0
-0.364583 -1.24475 -0.0047 0
-0.364581 -1.24475 -0.0046 0
-0.364581 -1.24475 -0.0046 0
-0.36458 -1.24475 -0.0049 0
-0.36458 -1.24475 -0.0049 0
-0.364579 -1.24475 -0.0043 0
-0.364579 -1.24475 -0.0043 0
-0.364579 -1.24475 -0.0043 0
-0.364577 -1.24474 -0.005 0
-0.364577 -1.24474 -0.0045 0
-0.364576 -1.24474 -0.0045 0
-0.364576 -1.24474 -0.0045 0
-0.36453 -1.24486 -0.0043 0
-0.364528 -1.24486 -0.0044 0
-0.364527 -1.24486 -0.0044 0
-0.364527 -1.24486 -0.0047 0
-0.364527 -1.24486 -0.0047 0
-0.364527 -1.24486 -0.0043 0
-0.364528 -1.24486 -0.0043 0
-0.364528 -1.24486 -0.0046 0
-0.364528 -1.24486 -0.0045 0
-0.364528 -1.24486 -0.0045 0
-0.364527 -1.24486 -0.0045 0
-0.364525 -1.24485 -0.0045 0
-0.364523 -1.24485 -0.0045 0
-0.364522 -1.24485 -0.0045 0
-0.331172 -1.22277 -0.0045 0
-0.364522 -1.24485 -0.0044 0
-0.364521 -1.24485 -0.0044 0
-0.364521 -1.24485 -0.0048 0
-0.36452 -1.24485 -0.0048 0
-0.364519 -1.24485 -0.0048 0
-0.364518 -1.24485 -0.0045 0
-0.364518 -1.24485 -0.0045 0
-0.364516 -1.24485 -0.0049 0
-0.364516 -1.24485 -0.0049 0
-0.364515 -1.24485 -0.0044 0
-0.364513 -1.24485 -0.0044 0
-0.364513 -1.24485 -0.0046 0
-0.36451 -1.24485 -0.0046 0
-0.364508 -1.24485 -0.0046 0
-0.364507 -1.24485 -0.0046 0
-0.364505 -1.24485 -0.0045 0
-0.364503 -1.24485 -0.0045 0
-0.364502 -1.24485 -0.0045 0
-0.364501 -1.24484 -0.0045 0
-0.3645 -1.24484 -0.0045 0
-0.364499 -1.24484 -0.0046 0
-0.364498 -1.24484 -0.0046 0
-0.364497 -1.24484 -0.0046 0
-0.364496 -1.24484 -0.0046 0
-0.364496 -1.24484 -0.0047 0
-0.364495 -1.24484 -0.0047 0
-0.364493 -1.24484 -0.0047 0
-0.364492 -1.24484 -0.004 0
-0.364492 -1.24484 -0.004 0
-0.364491 -1.24484 -0.0048 0
-0.36449 -1.24484 -0.0048 0
-0.36449 -1.24484 -0.0048 0
-0.364489 -1.24484 -0.0043 0
-0.364489 -1.24483 -0.0043 0
-0.364488 -1.24483 -0.0044 0
-0.364486 -1.24483 -0.0044 0
-0.364484 -1.24483 -0.0044 0
-0.364483 -1.24483 -0.0044 0
-0.364482 -1.24483 -0.0048 0
-0.364481 -1.24482 -0.0048 0
-0.364479 -1.24482 -0.0048 0
-0.364478 -1.24482 -0.0046 0
-0.364477 -1.24482 -0.0041 0
-0.364476 -1.24482 -0.0041 0
-0.364475 -1.24482 -0.0045 0
-0.364475 -1.24482 -0.0045 0
-0.364474 -1.24482 -0.0045 0
-0.364474 -1.24482 -0.0045 0
-0.364474 -1.24482 -0.0044 0
-0.361972 -1.24316 -0.0044 0
-0.364474 -1.24482 -0.0049 0
-0.364471 -1.24481 -0.0049 0
-0.36447 -1.24481 -0.0044 0
-0.364469 -1.24481 -0.0044 0
-0.362802 -1.24371 -0.0048 0
-0.364467 -1.24481 -0.0048 0
-0.364467 -1.24481 -0.0047 0
-0.364466 -1.24481 -0.0047 0
-0.364466 -1.24481 -0.0039 0
-0.364465 -1.24481 -0.0039 0
-0.364464 -1.24481 -0.0045 0
-0.364463 -1.24481 -0.0045 0
-0.364506 -1.24469 -0.0046 0
-0.364502 -1.24469 -0.0046 0
-0.364501 -1.24469 -0.0048 0
-0.364501 -1.24469 -0.0048 0
-0.364499 -1.24469 -0.0048 0
-0.364453 -1.24481 -0.0048 0
-0.364449 -1.24481 -0.0044 0
-0.364448 -1.24481 -0.0044 0
-0.364447 -1.24481 -0.0047 0
-0.364444 -1.24481 -0.0047 0
-0.361942 -1.24315 -0.0046 0
-0.364442 -1.24481 -0.0046 0
-0.364442 -1.2448 -0.0045 0
-0.364442 -1.2448 -0.0045 0
-0.364442 -1.2448 -0.0045 0
-0.354437 -1.23818 -0.0046 0
-0.364441 -1.2448 -0.0046 0
-0.364486 -1.24468 -0.0047 0
-0.364485 -1.24468 -0.0047 0
-0.364439 -1.2448 -0.0047 0
-0.364438 -1.2448 -0.0044 0
-0.364437 -1.2448 -0.0044 0
-0.364436 -1.2448 -0.0044 0
-0.364435 -1.2448 -0.0044 0
-0.364435 -1.2448 -0.0047 0
-0.364433 -1.2448 -0.0047 0
-0.364431 -1.2448 -0.0042 0
-0.364431 -1.2448 -0.0042 0
-0.36443 -1.2448 -0.0043 0
-0.364429 -1.2448 -0.0043 0
-0.364427 -1.2448 -0.0045 0
-0.364426 -1.2448 -0.0045 0
-0.364425 -1.2448 -0.004 0
-0.364424 -1.2448 -0.004 0
-0.364467 -1.24468 -0.0046 0
-0.364465 -1.24468 -0.0046 0
-0.364464 -1.24468 -0.0046 0
-0.364464 -1.24468 -0.0046 0
-0.364417 -1.24479 -0.0042 0
-0.364462 -1.24467 -0.0042 0
-0.364461 -1.24467 -0.0047 0
-0.36446 -1.24467 -0.0047 0
-0.364458 -1.24467 -0.0047 0
-0.364412 -1.24479 -0.0047 0
-0.364412 -1.24479 -0.0044 0
-0.364409 -1.24479 -0.0047 0
-0.364408 -1.24479 -0.0047 0
-0.364407 -1.24478 -0.0047 0
-0.364406 -1.24478 -0.0042 0
-0.364405 -1.24478 -0.0045 0
-0.364404 -1.24478 -0.0045 0
-0.364403 -1.24478 -0.0045 0
-0.364401 -1.24478 -0.0048 0
-0.364401 -1.24478 -0.0045 0
-0.364401 -1.24478 -0.0045 0
-0.364401 -1.24478 -0.0045 0
-0.364445 -1.24466 -0.0045 0
-0.364442 -1.24466 -0.0046 0
-0.364441 -1.24466 -0.0046 0
-0.36444 -1.24466 -0.0049 0
-0.364439 -1.24466 -0.0043 0
-0.364438 -1.24466 -0.0043 0
-0.364437 -1.24466 -0.0043 0
-0.364437 -1.24466 -0.0048 0
-0.364436 -1.24466 -0.0048 0
-0.364435 -1.24465 -0.0045 0
-0.364433 -1.24465 -0.0045 0
-0.364431 -1.24465 -0.005 0
-0.36443 -1.24465 -0.005 0
-0.364428 -1.24465 -0.0046 0
-0.364381 -1.24477 -0.0046 0
-0.36438 -1.24477 -0.0046 0
-0.364378 -1.24476 -0.0044 0
-0.364377 -1.24476 -0.0043 0
-0.364377 -1.24476 -0.0043 0
-0.364376 -1.24476 -0.0043 0
-0.364373 -1.24476 -0.0044 0
-0.364371 -1.24476 -0.0051 0
-0.36437 -1.24476 -0.0051 0
-0.364368 -1.24476 -0.0051 0
-0.364368 -1.24476 -0.0049 0
-0.364367 -1.24476 -0.0047 0
-0.364367 -1.24476 -0.0047 0
-0.364366 -1.24476 -0.0047 0
-0.364366 -1.24476 -0.0042 0
-0.364365 -1.24476 -0.0041 0
-0.364365 -1.24476 -0.0041 0
-0.364365 -1.24476 -0.0041 0
-0.364365 -1.24476 -0.0043 0
-0.364364 -1.24476 -0.0046 0
-0.364364 -1.24476 -0.0046 0
-0.364363 -1.24476 -0.0046 0
-0.364361 -1.24476 -0.0051 0
-0.36436 -1.24476 -0.0046 0
-0.364358 -1.24476 -0.0046 0
-0.364402 -1.24464 -0.0044 0
-0.3644 -1.24464 -0.0044 0
-0.3644 -1.24464 -0.0042 0
-0.364399 -1.24464 -0.0042 0
-0.364397 -1.24464 -0.0047 0
-0.364397 -1.24464 -0.0047 0
-0.364396 -1.24464 -0.0041 0
-0.364395 -1.24464 -0.0041 0
-0.364394 -1.24464 -0.0048 0
-0.362725 -1.24353 -0.0048 0
-0.364392 -1.24464 -0.0048 0
-0.364391 -1.24464 -0.0048 0
-0.364388 -1.24463 -0.004 0
-0.364388 -1.24463 -0.004 0
-0.364389 -1.24463 -0.0042 0
-0.364387 -1.24463 -0.0042 0
-0.364341 -1.24475 -0.0048 0
-0.36434 -1.24475 -0.0048 0
-0.364339 -1.24475 -0.005 0
-0.364339 -1.24475 -0.005 0
-0.364339 -1.24475 -0.005 0
-0.364339 -1.24475 -0.0046 0
-0.364338 -1.24475 -0.0046 0
-0.364338 -1.24475 -0.0049 0
-0.364336 -1.24475 -0.0049 0
-0.364336 -1.24475 -0.0051 0
-0.364335 -1.24475 -0.0051 0
-0.364334 -1.24475 -0.0046 0
-0.364334 -1.24474 -0.0046 0
-0.364378 -1.24463 -0.0046 0
-0.36433 -1.24474 -0.0045 0
-0.36433 -1.24474 -0.005 0
-0.36433 -1.24474 -0.005 0
-0.364329 -1.24474 -0.005 0
-0.364329 -1.24474 -0.0046 0
-0.364328 -1.24474 -0.0046 0
-0.364327 -1.24474 -0.0049 0
-0.364326 -1.24474 -0.0049 0
-0.364325 -1.24474 -0.0049 0
-0.364369 -1.24462 -0.0048 0
-0.364368 -1.24462 -0.0045 0
-0.364367 -1.24462 -0.0045 0
-0.364366 -1.24462 -0.0045 0
-0.364364 -1.24462 -0.0048 0
-0.364361 -1.24462 -0.0043 0
-0.36436 -1.24462 -0.0043 0
-0.364359 -1.24462 -0.0043 0
-0.364359 -1.24462 -0.0044 0
-0.364359 -1.24462 -0.0044 0
-0.364358 -1.24462 -0.0048 0
-0.364357 -1.24462 -0.0048 0
-0.364356 -1.24462 -0.0048 0
-0.364355 -1.24461 -0.0046 0
-0.364354 -1.24461 -0.0046 0
-0.364353 -1.24461 -0.0046 0
-0.361851 -1.24296 -0.0046 0
-0.364352 -1.24461 -0.0046 0
-0.364352 -1.24461 -0.0044 0
-0.364351 -1.24461 -0.0044 0
-0.36435 -1.24461 -0.0048 0
-0.364346 -1.24461 -0.0048 0
-0.362676 -1.24351 -0.0044 0
-0.364343 -1.24461 -0.0044 0
-0.36434 -1.24461 -0.0046 0
-0.364339 -1.24461 -0.0046 0
-0.364337 -1.24461 -0.0044 0
-0.364337 -1.24461 -0.0044 0
-0.364336 -1.24461 -0.0046 0
-0.364334 -1.24461 -0.0046 0
-0.354283 -1.2381 -0.0046 0
-0.364288 -1.24473 -0.0046 0
-0.364286 -1.24473 -0.005 0
-0.364285 -1.24473 -0.005 0
-0.364284 -1.24473 -0.0047 0
-0.364284 -1.24473 -0.0047 0
-0.364327 -1.24461 -0.0043 0
-0.364327 -1.24461 -0.0043 0
-0.364281 -1.24473 -0.0052 0
-0.364279 -1.24473 -0.0052 0
-0.364277 -1.24472 -0.0039 0
-0.364275 -1.24472 -0.0039 0
-0.364274 -1.24472 -0.0044 0
-0.364273 -1.24472 -0.0046 0
-0.364273 -1.24472 -0.0046 0
-0.364272 -1.24472 -0.0046 0
-0.364271 -1.24472 -0.0045 0
-0.36427 -1.24472 -0.0043 0
-0.364269 -1.24472 -0.0043 0
-0.364268 -1.24472 -0.0043 0
-0.364266 -1.24472 -0.0045 0
-0.364265 -1.24472 -0.0041 0
-0.364264 -1.24472 -0.0041 0
-0.364308 -1.2446 -0.0041 0
-0.364307 -1.2446 -0.0049 0
-0.36426 -1.24472 -0.0049 0
-0.364259 -1.24472 -0.0043 0
-0.365091 -1.24527 -0.0043 0
-0.364301 -1.2446 -0.0043 0
-0.364299 -1.2446 -0.0046 0
-0.364298 -1.2446 -0.0048 0
-0.364297 -1.2446 -0.0048 0
-0.364296 -1.2446 -0.0048 0
-0.364295 -1.24459 -0.0045 0
-0.364294 -1.24459 -0.0045 0
-0.364291 -1.24459 -0.0048 0
-0.36429 -1.24459 -0.0048 0
-0.36429 -1.24459 -0.0045 0
-0.364291 -1.24459 -0.0045 0
-0.364291 -1.24459 -0.005 0
-0.364291 -1.24459 -0.005 0
-0.36429 -1.24459 -0.005 0
-0.364289 -1.24459 -0.0042 0
-0.364289 -1.24459 -0.0042 0
-0.364289 -1.24459 -0.0042 0
-0.364289 -1.24459 -0.0047 0
-0.364288 -1.24459 -0.0047 0
-0.364286 -1.24458 -0.0044 0
-0.364285 -1.24458 -0.0044 0
-0.364284 -1.24458 -0.0046 0
-0.363449 -1.24403 -0.0045 0
-0.364282 -1.24458 -0.0045 0
-0.364281 -1.24458 -0.0045 0
-0.36428 -1.24458 -0.0049 0
-0.364279 -1.24458 -0.0049 0
-0.364278 -1.24458 -0.0045 0
-0.364277 -1.24458 -0.0045 0
-0.364277 -1.24458 -0.0045 0
-0.364276 -1.24458 -0.0044 0
-0.364273 -1.24458 -0.0044 0
-0.364272 -1.24457 -0.0044 0
-0.36427 -1.24457 -0.0044 0
-0.364269 -1.24457 -0.0042 0
-0.364269 -1.24457 -0.0042 0
-0.364269 -1.24457 -0.0047 0
-0.364269 -1.24457 -0.0047 0
-0.364268 -1.24457 -0.0041 0
-0.364267 -1.24457 -0.0041 0
-0.364266 -1.24457 -0.0042 0
-0.364267 -1.24457 -0.0042 0
-0.364267 -1.24457 -0.0042 0
-0.364266 -1.24457 -0.0052 0
-0.364264 -1.24457 -0.0041 0
-0.36343 -1.24401 -0.0041 0
-0.364263 -1.24457 -0.0041 0
-0.364261 -1.24456 -0.0047 0
-0.36426 -1.24456 -0.0047 0
-0.364258 -1.24456 -0.0042 0
-0.364257 -1.24456 -0.0042 0
-0.362587 -1.24346 -0.0042 0
-0.364254 -1.24456 -0.0042 0
-0.364253 -1.24456 -0.0042 0
-0.363418 -1.24401 -0.0042 0
-0.36425 -1.24456 -0.0042 0
-0.364248 -1.24456 -0.0046 0
-0.364248 -1.24456 -0.0049 0
-0.398435 -1.26719 -0.0049 0
-0.364247 -1.24456 -0.0049 0
-0.364247 -1.24456 -0.0043 0
-0.364246 -1.24456 -0.0043 0
-0.364246 -1.24456 -0.0044 0
-0.364246 -1.24456 -0.0044 0
-0.364245 -1.24456 -0.0044 0
-0.364244 -1.24456 -0.0045 0
-0.364243 -1.24456 -0.0048 0
-0.364242 -1.24455 -0.0048 0
-0.364241 -1.24455 -0.0048 0
-0.36424 -1.24455 -0.0044 0
-0.36424 -1.24455 -0.0044 0
-0.364239 -1.24455 -0.0045 0
-0.364191 -1.24467 -0.0045 0
-0.36419 -1.24467 -0.0048 0
-0.36419 -1.24467 -0.0048 0
-0.398372 -1.26731 -0.005 0
-0.364187 -1.24467 -0.005 0
-0.364186 -1.24467 -0.0044 0
-0.364185 -1.24467 -0.0044 0
-0.364183 -1.24467 -0.0045 0
-0.364182 -1.24467 -0.0045 0
-0.364181 -1.24467 -0.005 0
-0.362513 -1.24356 -0.005 0
-0.364178 -1.24467 -0.0043 0
-0.364177 -1.24467 -0.0043 0
-0.364177 -1.24467 -0.0044 0
-0.364221 -1.24455 -0.0044 0
-0.364221 -1.24455 -0.0053 0
-0.36422 -1.24455 -0.0053 0
-0.364219 -1.24454 -0.0053 0
-0.364218 -1.24454 -0.005 0
-0.364217 -1.24454 -0.005 0
-0.364216 -1.24454 -0.0044 0
-0.364215 -1.24454 -0.0044 0
-0.364213 -1.24454 -0.0043 0
-0.364212 -1.24455 -0.0043 0
-0.364211 -1.24455 -0.0047 0
-0.36421 -1.24455 -0.0047 0
-0.36421 -1.24454 -0.0047 0
-0.364209 -1.24454 -0.004 0
-0.364207 -1.24455 -0.004 0
-0.363371 -1.24399 -0.0044 0
-0.364203 -1.24455 -0.0044 0
-0.364202 -1.24455 -0.0053 0
-0.364201 -1.24455 -0.0053 0
-0.364201 -1.24455 -0.0038 0
-0.3642 -1.24455 -0.0038 0
-0.364198 -1.24455 -0.0044 0
-0.364197 -1.24455 -0.0044 0
-0.364196 -1.24455 -0.0049 0
-0.364196 -1.24455 -0.0049 0
-0.364193 -1.24454 -0.0044 0
-0.364191 -1.24454 -0.0044 0
-0.364191 -1.24454 -0.0039 0
-0.364191 -1.24454 -0.0039 0
-0.364143 -1.24466 -0.0043 0
-0.364187 -1.24454 -0.0043 0
-0.364186 -1.24454 -0.0052 0
-0.36414 -1.24466 -0.0052 0
-0.364139 -1.24466 -0.0042 0
-0.364139 -1.24466 -0.0042 0
-0.36414 -1.24466 -0.0044 0
-0.364139 -1.24466 -0.0044 0
-0.361637 -1.243 -0.0045 0
-0.364137 -1.24465 -0.0045 0
-0.364137 -1.24465 -0.0044 0
-0.363302 -1.2441 -0.0044 0
-0.364136 -1.24465 -0.0044 0
-0.364135 -1.24465 -0.0047 0
-0.364135 -1.24465 -0.0047 0
-0.364136 -1.24465 -0.0043 0
-0.364136 -1.24465 -0.0043 0
-0.364136 -1.24465 -0.0043 0
-0.364135 -1.24465 -0.0043 0
-0.364134 -1.24465 -0.0047 0
-0.364133 -1.24465 -0.0047 0
-0.364132 -1.24464 -0.0047 0
-0.364176 -1.24453 -0.0042 0
-0.364175 -1.24453 -0.0042 0
-0.364174 -1.24452 -0.0044 0
-0.364173 -1.24452 -0.0044 0
-0.364173 -1.24452 -0.0048 0
-0.363339 -1.24397 -0.0048 0
-0.364171 -1.24452 -0.0049 0
-0.364171 -1.24452 -0.0049 0
-0.36417 -1.24452 -0.0049 0
-0.364169 -1.24452 -0.0047 0
-0.364168 -1.24452 -0.0047 0
-0.364166 -1.24452 -0.0047 0
-0.364166 -1.24452 -0.0047 0
-0.364165 -1.24452 -0.0047 0
-0.364165 -1.24452 -0.0047 0
-0.364164 -1.24452 -0.0045 0
-0.364164 -1.24452 -0.0045 0
-0.364162 -1.24452 -0.0045 0
-0.364161 -1.24452 -0.0049 0
-0.36416 -1.24452 -0.0042 0
-0.364161 -1.24452 -0.0042 0
-0.36416 -1.24452 -0.0042 0
-0.364114 -1.24464 -0.0049 0
-0.364114 -1.24464 -0.0042 0
-0.364114 -1.24464 -0.0042 0
-0.364114 -1.24464 -0.0042 0
-0.364113 -1.24464 -0.0047 0
-0.364112 -1.24464 -0.0044 0
-0.364156 -1.24452 -0.0044 0
-0.364156 -1.24452 -0.0044 0
-0.36411 -1.24464 -0.0046 0
-0.36411 -1.24464 -0.0047 0
-0.364108 -1.24464 -0.0047 0
-0.364108 -1.24464 -0.0045 0
-0.364107 -1.24464 -0.0045 0
-0.364151 -1.24452 -0.0047 0
-0.36415 -1.24452 -0.0047 0
-0.364149 -1.24452 -0.0044 0
-0.364149 -1.24452 -0.0044 0
-0.364102 -1.24464 -0.0041 0
-0.364146 -1.24452 -0.0041 0
-0.364146 -1.24452 -0.0047 0
-0.364145 -1.24452 -0.0047 0
-0.364144 -1.24452 -0.0047 0
-0.364143 -1.24452 -0.0047 0
-0.364141 -1.24452 -0.0047 0
-0.361639 -1.24287 -0.0047 0
-0.36414 -1.24452 -0.0047 0
-0.36414 -1.24452 -0.0043 0
-0.364139 -1.24452 -0.0043 0
-0.364139 -1.24452 -0.005 0
-0.364138 -1.24452 -0.005 0
-0.364137 -1.24452 -0.0039 0
-0.364136 -1.24452 -0.0039 0
-0.364134 -1.24452 -0.0045 0
-0.364134 -1.24452 -0.0045 0
-0.364133 -1.24452 -0.0051 0
-0.364133 -1.24452 -0.0051 0
-0.364132 -1.24451 -0.0051 0
-0.364131 -1.24451 -0.0041 0
-0.36413 -1.24451 -0.0049 0
-0.36413 -1.24451 -0.0049 0
-0.364129 -1.24451 -0.0049 0
-0.364128 -1.24451 -0.0048 0
-0.364082 -1.24463 -0.0048 0
-0.36408 -1.24463 -0.0044 0
-0.364079 -1.24463 -0.0044 0
-0.364077 -1.24463 -0.0044 0
-0.364076 -1.24463 -0.0047 0
-0.364075 -1.24463 -0.0043 0
-0.364074 -1.24463 -0.0043 0
-0.364073 -1.24463 -0.0043 0
-0.364071 -1.24463 -0.0045 0
-0.36407 -1.24462 -0.0045 0
-0.364069 -1.24462 -0.0044 0
-0.364068 -1.24462 -0.0044 0
-0.364067 -1.24462 -0.0045 0
-0.364066 -1.24462 -0.0045 0
-0.364065 -1.24462 -0.0048 0
-0.364064 -1.24462 -0.0048 0
-0.364063 -1.24462 -0.0048 0
-0.361561 -1.24296 -0.0042 0
-0.364061 -1.24462 -0.0042 0
-0.36406 -1.24462 -0.0046 0
-0.364059 -1.24462 -0.0046 0
-0.364058 -1.24462 -0.0048 0
-0.364057 -1.24462 -0.0048 0
-0.364056 -1.24462 -0.0046 0
-0.364055 -1.24462 -0.0046 0
-0.364055 -1.24462 -0.0046 0
-0.3641 -1.2445 -0.0049 0
-0.363265 -1.24394 -0.0041 0
-0.364098 -1.2445 -0.0041 0
-0.364096 -1.24449 -0.0041 0
-0.364095 -1.24449 -0.0049 0
-0.364094 -1.24449 -0.0049 0
-0.364092 -1.24449 -0.0045 0
-0.364091 -1.24449 -0.0045 0
-0.364045 -1.24461 -0.0045 0
-0.364044 -1.24461 -0.0048 0
-0.364089 -1.24449 -0.0047 0
-0.364088 -1.24449 -0.0047 0
-0.364087 -1.24449 -0.0047 0
-0.364087 -1.24449 -0.0044 0
-0.364087 -1.24449 -0.0044 0
-0.361584 -1.24283 -0.0046 0
-0.364084 -1.24449 -0.0046 0
-0.364082 -1.24449 -0.0047 0
-0.364081 -1.24449 -0.0047 0
-0.36408 -1.24448 -0.0044 0
-0.364079 -1.24449 -0.0044 0
-0.364078 -1.24449 -0.005 0
-0.364077 -1.24448 -0.005 0
-0.364076 -1.24448 -0.0044 0
-0.364075 -1.24448 -0.0044 0
-0.364073 -1.24448 -0.0044 0
-0.364072 -1.24448 -0.0043 0
-0.36407 -1.24448 -0.0047 0
-0.364069 -1.24448 -0.0047 0
-0.364068 -1.24448 -0.0047 0
-0.364066 -1.24448 -0.0044 0
-0.364066 -1.24448 -0.0044 0
-0.364066 -1.24448 -0.0049 0
-0.364065 -1.24448 -0.0049 0
-0.364064 -1.24448 -0.0045 0
-0.364064 -1.24448 -0.0045 0
-0.364063 -1.24448 -0.0045 0
-0.364062 -1.24448 -0.0045 0
-0.364061 -1.24448 -0.0045 0
-0.364061 -1.24448 -0.0045 0
-0.36406 -1.24448 -0.0045 0
-0.364059 -1.24448 -0.0047 0
-0.364057 -1.24448 -0.0047 0
-0.364056 -1.24448 -0.0046 0
-0.364056 -1.24448 -0.0046 0
-0.364055 -1.24448 -0.0046 0
-0.364055 -1.24448 -0.0046 0
-0.364053 -1.24448 -0.0046 0
-0.364051 -1.24448 -0.0047 0
-0.36405 -1.24448 -0.0047 0
-0.364049 -1.24448 -0.0044 0
-0.364048 -1.24448 -0.0044 0
-0.364047 -1.24448 -0.0043 0
-0.364046 -1.24448 -0.0043 0
-0.364045 -1.24448 -0.0053 0
-0.364043 -1.24448 -0.0053 0
-0.364042 -1.24448 -0.0047 0
-0.364041 -1.24448 -0.0047 0
-0.364039 -1.24448 -0.0044 0
-0.364038 -1.24448 -0.0044 0
-0.364037 -1.24447 -0.0047 0
-0.364037 -1.24447 -0.0047 0
-0.361491 -1.24294 -0.0041 0
-0.363992 -1.24459 -0.0041 0
-0.364036 -1.24447 -0.0046 0
-0.364036 -1.24447 -0.0046 0
-0.364035 -1.24447 -0.0045 0
-0.364034 -1.24447 -0.0045 0
-0.364033 -1.24447 -0.0045 0
-0.364032 -1.24447 -0.0048 0
-0.364032 -1.24447 -0.0048 0
-0.364031 -1.24447 -0.0046 0
-0.364031 -1.24447 -0.0046 0
-0.364029 -1.24447 -0.0044 0
-0.364029 -1.24447 -0.0044 0
-0.364026 -1.24447 -0.0047 0
-0.364026 -1.24447 -0.0047 0
-0.364025 -1.24447 -0.0044 0
-0.364025 -1.24447 -0.0044 0
-0.364024 -1.24447 -0.0048 0
-0.364023 -1.24447 -0.0048 0
-0.364022 -1.24447 -0.0045 0
-0.364021 -1.24447 -0.0047 0
-0.364021 -1.24447 -0.0047 0
-0.36402 -1.24447 -0.0047 0
-0.36402 -1.24447 -0.0042 0
-0.364019 -1.24447 -0.0042 0
-0.364019 -1.24446 -0.0043 0
-0.364019 -1.24446 -0.0048 0
-0.364019 -1.24446 -0.0048 0
-0.361516 -1.24281 -0.0048 0
-0.364014 -1.24446 -0.0047 0
-0.364013 -1.24446 -0.0047 0
-0.364012 -1.24446 -0.004 0
-0.364012 -1.24446 -0.004 0
-0.364011 -1.24446 -0.0048 0
-0.364009 -1.24446 -0.0048 0
-0.364008 -1.24446 -0.0044 0
-0.364007 -1.24446 -0.0044 0
-0.364007 -1.24445 -0.005 0
-0.364006 -1.24445 -0.005 0
-0.364006 -1.24445 -0.005 0
-0.364005 -1.24445 -0.0041 0
-0.364005 -1.24445 -0.0041 0
-0.364002 -1.24445 -0.0047 0
-0.364001 -1.24445 -0.0047 0
-0.363999 -1.24445 -0.0043 0
-0.363998 -1.24445 -0.0043 0
-0.363997 -1.24445 -0.0044 0
-0.363995 -1.24445 -0.0044 0
-0.363992 -1.24445 -0.0047 0
-0.36399 -1.24445 -0.0047 0
-0.363989 -1.24445 -0.0046 0
-0.363987 -1.24445 -0.0046 0
-0.363986 -1.24445 -0.0047 0
-0.363985 -1.24445 -0.0047 0
-0.363984 -1.24445 -0.0044 0
-0.363984 -1.24445 -0.0044 0
-0.363983 -1.24445 -0.0044 0
-0.363983 -1.24445 -0.0048 0
-0.363982 -1.24445 -0.0048 0
-0.363981 -1.24445 -0.0042 0
-0.363981 -1.24445 -0.0042 0
-0.36398 -1.24445 -0.0048 0
-0.36398 -1.24445 -0.0048 0
-0.36398 -1.24445 -0.0043 0
-0.363979 -1.24445 -0.0043 0
-0.363979 -1.24445 -0.0045 0
-0.363979 -1.24445 -0.0045 0
-0.363979 -1.24445 -0.0044 0
-0.363978 -1.24445 -0.0044 0
-0.363978 -1.24445 -0.0044 0
-0.363977 -1.24445 -0.0044 0
-0.363976 -1.24444 -0.0044 0
-0.363975 -1.24444 -0.0044 0
-0.363974 -1.24444 -0.0044 0
-0.363972 -1.24444 -0.0044 0
-0.36397 -1.24444 -0.0043 0
-0.363969 -1.24444 -0.0043 0
-0.363968 -1.24444 -0.0043 0
-0.363922 -1.24456 -0.0047 0
-0.363921 -1.24456 -0.0047 0
-0.36392 -1.24456 -0.0047 0
-0.365585 -1.24566 -0.0043 0
-0.363917 -1.24455 -0.0043 0
-0.363916 -1.24455 -0.0043 0
-0.363915 -1.24455 -0.0043 0
-0.363915 -1.24455 -0.0043 0
-0.363914 -1.24455 -0.0043 0
-0.363958 -1.24444 -0.0049 0
-0.363913 -1.24455 -0.0049 0
-0.363912 -1.24455 -0.0049 0
-0.363911 -1.24455 -0.0044 0
-0.363952 -1.24444 -0.005 0
-0.363955 -1.24443 -0.005 0
-0.364011 -1.2443 -0.005 0
-0.36425 -1.24368 0.009 0
-0.364324 -1.24346 0.0455 0
-0.364439 -1.24313 0.0455 0
-0.363671 -1.24232 -0.0043 0
-0.363667 -1.24229 -0.0043 0
-0.363666 -1.24225 0.031 0
-0.363622 -1.24236 0.031 0
-0.363594 -1.24252 0.031 0
-0.363457 -1.243 0.0011 0
-0.363416 -1.24314 0.0062 0
-0.36258 -1.24261 0.0062 0
-0.362578 -1.24262 0.0062 0
-0.362581 -1.24264 -0.0076 0
-0.362584 -1.24265 -0.0056 0
-0.362542 -1.24277 -0.0056 0
-0.362496 -1.24288 -0.0052 0
-0.361666 -1.24233 -0.0052 0
-0.362416 -1.2431 0.001 0
-0.36154 -1.24266 0.001 0
-0.361442 -1.24289 0.0075 0
-0.362223 -1.24356 0.0075 0
-0.36138 -1.24301 -0.0031 0
-0.361188 -1.24347 -0.0031 0
-0.362014 -1.24401 0.0024 0
-0.361963 -1.24412 0.0024 0
-0.361964 -1.24411 -0.0027 0
-0.361137 -1.24356 -0.0027 0
-0.361145 -1.24357 -0.0036 0
-0.361153 -1.24357 -0.0036 0
-0.361158 -1.24357 0.0009 0
-0.36116 -1.24358 0.0009 0
-0.361159 -1.24358 -0.0026 0
-0.361159 -1.24357 -0.0026 0
-0.361158 -1.24357 -0.0017 0
-0.361162 -1.24357 -0.0017 0
-0.361163 -1.24357 0.0013 0
-0.361164 -1.24357 0.0013 0
-0.361164 -1.24357 -0.0011 0
-0.361163 -1.24356 -0.0011 0
-0.361998 -1.24412 -0.0015 0
-0.361166 -1.24356 -0.0015 0
-0.361166 -1.24356 0.0009 0
-0.361167 -1.24357 0.0009 0
-0.361166 -1.24357 0.0009 0
-0.361997 -1.24412 -0.0014 0
-0.361163 -1.24357 -0.0014 0
-0.361167 -1.24357 -0.0041 0
-0.36117 -1.24357 -0.0041 0
-0.361169 -1.24357 0.0006 0
-0.36117 -1.24357 0.0006 0
-0.36117 -1.24357 -0.0011 0
-0.361168 -1.24357 -0.0011 0
-0.361167 -1.24356 -0.0011 0
-0.361164 -1.24356 -0.001 0
-0.361163 -1.24356 0.0011 0
-0.361162 -1.24356 0.0011 0
-0.36116 -1.24356 0.0011 0
-0.361157 -1.24356 -0.0048 0
-0.361159 -1.24356 -0.0019 0
-0.361159 -1.24356 -0.0019 0
-0.36116 -1.24356 -0.0019 0
-0.361159 -1.24356 -0.0031 0
-0.361157 -1.24356 -0.0036 0
-0.361156 -1.24356 -0.0036 0
-0.361156 -1.24356 -0.0036 0
-0.361156 -1.24356 0.0008 0
-0.361158 -1.24355 -0.0021 0
-0.361159 -1.24355 -0.0021 0
-0.361157 -1.24355 -0.0021 0
-0.361991 -1.24411 -0.0024 0
-0.361157 -1.24355 -0.0024 0
-0.361156 -1.24355 -0.001 0
-0.361155 -1.24355 -0.001 0
-0.361155 -1.24355 -0.0035 0
-0.361155 -1.24355 -0.0035 0
-0.361154 -1.24355 -0.0009 0
-0.361155 -1.24355 -0.0009 0
-0.361154 -1.24355 -0.0006 0
-0.361153 -1.24355 -0.0006 0
-0.361153 -1.24355 -0.002 0
-0.361151 -1.24354 -0.002 0
-0.36115 -1.24354 -0.0027 0
-0.361149 -1.24355 -0.0027 0
-0.361147 -1.24355 -0.0022 0
-0.36115 -1.24355 -0.0022 0
-0.361152 -1.24355 -0.0035 0
-0.361149 -1.24355 -0.0006 0
-0.361146 -1.24355 -0.0006 0
-0.361972 -1.2441 -0.0006 0
-0.361136 -1.24355 0.0005 0
-0.361135 -1.24355 0.0005 0
-0.361141 -1.24354 -0.0011 0
-0.361975 -1.2441 -0.0011 0
-0.361142 -1.24354 -0.0031 0
-0.361971 -1.24409 0.000999999 0
-0.361138 -1.24354 0.000999999 0
-0.361135 -1.24354 0.000999999 0
-0.361133 -1.24354 -0.000200001 0
-0.361965 -1.24409 -0.000200001 0
-0.361963 -1.24409 -0.0038 0
-0.361129 -1.24354 -0.0038 0
-0.361129 -1.24354 -0.000400001 0
-0.361962 -1.24409 -0.000400001 0
-0.36196 -1.24409 -0.001 0
-0.359461 -1.24243 -0.001 0
-0.361125 -1.24354 -0.0016 0
-0.361124 -1.24354 -0.0016 0
-0.361955 -1.24409 -0.0037 0
-0.361122 -1.24354 -0.0037 0
-0.361076 -1.24366 -0.0044 0
-0.36112 -1.24354 -0.0044 0
-0.361953 -1.24409 0.000899999 0
-0.361122 -1.24354 0.000899999 0
-0.361124 -1.24353 0.000899999 0
-0.361129 -1.24353 -0.000700001 0
-0.361129 -1.24353 -0.0029 0
-0.361129 -1.24353 -0.0029 0
-0.361124 -1.24353 -0.0015 0
-0.361124 -1.24353 -0.0015 0
-0.361122 -1.24353 -0.0024 0
-0.36112 -1.24353 -0.0024 0
-0.361118 -1.24353 0.000699999 0
-0.361951 -1.24408 0.000699999 0
-0.361117 -1.24353 -0.0034 0
-0.361116 -1.24353 -0.0034 0
-0.361116 -1.24353 0.0025 0
-0.361116 -1.24353 0.0025 0
-0.361115 -1.24353 -0.0023 0
-0.36111 -1.24353 -0.0023 0
-0.361109 -1.24353 -0.000800001 0
-0.36111 -1.24353 -0.000800001 0
-0.361108 -1.24353 -0.0022 0
-0.361941 -1.24408 -0.0022 0
-0.361107 -1.24353 0.000999999 0
-0.361105 -1.24353 0.000999999 0
-0.361105 -1.24353 0.000399999 0
-0.361936 -1.24408 0.000399999 0
-0.219463 -1.14952 0.000399999 0
-0.3611 -1.24353 0.0017 0
-0.361099 -1.24353 0.0017 0
-0.361098 -1.24353 0.0002 0
-0.361097 -1.24352 0.0002 0
-0.361096 -1.24352 -0.0013 0
-0.361098 -1.24352 -0.0013 0
-0.3611 -1.24352 -0.003 0
-0.359434 -1.24242 -0.003 0
-0.3611 -1.24352 -0.003 0
-0.3611 -1.24352 -0.0023 0
-0.361101 -1.24352 -0.0023 0
-0.361101 -1.24352 -0.0016 0
-0.3611 -1.24352 -0.0016 0
-0.361099 -1.24352 -0.0016 0
-0.361097 -1.24352 -0.0037 0
-0.361094 -1.24352 -0.0037 0
-0.361091 -1.24352 -0.0004 0
-0.361089 -1.24352 -0.0004 0
-0.361089 -1.24352 -0.0004 0
-0.361087 -1.24352 0.002 0
-0.361085 -1.24352 0.002 0
-0.361085 -1.24352 -0.0027 0
-0.361085 -1.24352 -0.0027 0
-0.361087 -1.24352 -0.0003 0
-0.361084 -1.24352 -0.0003 0
-0.361077 -1.24352 -0.000800001 0
-0.326078 -1.2203 -0.000800001 0
-0.361067 -1.24353 -0.000800001 0
-0.361033 -1.24358 -0.000600001 0
-0.361795 -1.24424 -0.000600001 0
-0.360876 -1.24382 -0.004 0
-0.361601 -1.24453 -0.004 0
-0.360626 -1.24418 -0.004 0
-0.360286 -1.24474 -0.0019 0
-0.360117 -1.24499 -0.0035 0
-0.359933 -1.24526 -0.0035 0
-0.350583 -1.23945 -0.0035 0
-0.359558 -1.24582 -0.0041 0
-0.35756 -1.24536 -0.0041 0
-0.358968 -1.2469 -0.0037 0
-0.358694 -1.24736 -0.0037 0
-0.358167 -1.24819 -0.0015 0
-0.357782 -1.24892 -0.0015 0
-0.357528 -1.2493 -0.0035 0
-0.357215 -1.24982 -0.0035 0
-0.356574 -1.25088 -0.0031 0
-0.355408 -1.25088 -0.0031 0
-0.355902 -1.25199 -0.0045 0
-0.355566 -1.25255 -0.0045 0
-0.354345 -1.2527 -0.0045 0
-0.353491 -1.25425 0.0011 0
-0.353115 -1.25488 -0.000100001 0
-0.351843 -1.25508 -0.000100001 0
-0.351431 -1.25575 -0.000100001 0
-0.34976 -1.25654 -9.31323e-10 0
-0.350148 -1.2578 -0.0045 0
-0.349692 -1.25851 -0.0045 0
-0.348445 -1.25857 -0.0045 0
-0.34631 -1.2582 0.000799999 0
-0.347074 -1.26063 -0.0014 0
-0.346622 -1.26131 -0.0014 0
-0.346015 -1.26237 -0.0014 0
-0.313309 -1.24317 0.000199999 0
-0.311902 -1.24357 0.0034 0
-0.310527 -1.24388 0.0034 0
-0.308414 -1.24555 9.99989e-05 0
-0.307784 -1.24658 9.99989e-05 0
-0.307146 -1.24762 -0.0035 0
-0.305865 -1.24963 -0.0035 0
-0.304411 -1.25003 -0.003 0
-0.303794 -1.25092 -0.003 0
-0.303126 -1.25194 -0.0017 0
-0.300961 -1.25338 -0.0017 0
-0.299434 -1.25389 -0.000900001 0
-0.299586 -1.25544 -0.000900001 0
-0.29737 -1.25691 0.000799999 0
-0.296648 -1.25798 0.000799999 0
-0.295027 -1.25869 0.000499999 0
-0.2934 -1.25942 0.000499999 0
-0.291802 -1.26193 0.000599999 0
-0.290952 -1.26328 0.000599999 0
-0.289211 -1.26421 -0.000500001 0
-0.287466 -1.2669 -0.0038 0
-0.285726 -1.26775 -0.0038 0
-0.284845 -1.26907 -0.0038 0
-0.283942 -1.27041 -0.0034 0
-0.282236 -1.27111 -0.0034 0
-0.281341 -1.27243 -0.0053 0
-0.280459 -1.27371 -0.0053 0
-0.279621 -1.27486 -0.0053 0
-0.277943 -1.27711 0.000299999 0
-0.27715 -1.27809 0.0031 0
-0.276345 -1.2791 0.0031 0
-0.274801 -1.28086 0.000599999 0
-0.274847 -1.28231 0.000599999 0
-0.273188 -1.28274 -0.000400002 0
-0.273236 -1.28418 -0.000400002 0
-0.271757 -1.28561 -0.001 0
-0.27258 -1.2877 -0.001 0
-0.271651 -1.28892 0.000599999 0
-0.270713 -1.29016 0.000599999 0
-0.270103 -1.29055 0.000599999 0
-0.268271 -1.29294 -0.0055 0
-0.268169 -1.2947 -0.0065 0
-0.267186 -1.29604 -0.0065 0
-0.26628 -1.29721 -0.0065 0
-0.264275 -1.29994 -0.000800001 0
-0.263262 -1.30139 -0.0067 0
-0.261363 -1.30238 -0.0067 0
-0.261153 -1.30438 -0.0067 0
-0.258965 -1.30745 -0.0029 0
-0.25791 -1.30884 -0.000900001 0
-0.256864 -1.31015 -0.000900001 0
-0.256485 -1.31252 -0.000900001 0
-0.28641 -1.33538 0.000699998 0
-0.287032 -1.33784 0.0011 0
-0.286804 -1.33977 0.0011 0
-0.284717 -1.34236 -0.0039 0
-0.282783 -1.34325 -0.0039 0
-0.282528 -1.34524 -0.0013 0
-0.281426 -1.3467 -0.0013 0
-0.279179 -1.3497 -0.0048 0
-0.278034 -1.35129 -0.0048 0
-0.277643 -1.35361 -0.0057 0
-0.27643 -1.3553 -0.0057 0
-0.274456 -1.35628 -0.0057 0
-0.208185 -1.31683 0.0018 0
-0.271944 -1.35985 0.0018 0
-0.270564 -1.36196 -0.0062 0
-0.270186 -1.36416 -0.0062 0
-0.268064 -1.36543 -0.0062 0
-0.267493 -1.36814 -0.0031 0
-0.26396 -1.37153 -0.001 0
-0.26256 -1.37366 -0.001 0
-0.261998 -1.37633 -0.001 0
-0.260635 -1.3784 -0.000800003 0
-0.259221 -1.38056 -0.000800003 0
-0.257041 -1.38194 0.0064 0
-0.255818 -1.38492 0.0064 0
-0.2549 -1.38601 -0.0021 0
-0.253968 -1.38723 -0.0021 0
-0.253924 -1.38895 0.0037 0
-0.251234 -1.39131 0.0037 0
-0.250393 -1.3927 0.0039 0
-0.249661 -1.39386 0.0039 0
-0.249031 -1.39482 -0.000400003 0
-0.247852 -1.39671 -0.000400003 0
-0.247336 -1.39754 0.0011 0
-0.247675 -1.39894 0.0011 0
-0.247237 -1.39965 0.000599997 0
-0.245987 -1.39976 0.000599997 0
-0.246468 -1.40087 0.000599997 0
-0.245782 -1.40202 -0.000500003 0
-0.24465 -1.40195 0.0018 0
-0.24439 -1.40235 0.0018 0
-0.243978 -1.40295 -0.0019 0
-0.24378 -1.40327 -0.0019 0
-0.243599 -1.40356 -0.002 0
-0.244286 -1.40435 -0.002 0
-0.243285 -1.40406 -0.002 0
-0.243995 -1.40481 0.000299997 0
-0.243866 -1.40501 0.000299997 0
-0.24375 -1.4052 -0.0032 0
-0.242792 -1.40484 -0.0032 0
-0.242693 -1.40499 -0.0032 0
-0.243458 -1.40565 -0.0044 0
-0.242525 -1.40525 -0.0044 0
-0.242378 -1.40547 -0.0034 0
-0.242314 -1.40557 -0.0034 0
-0.209098 -1.38512 0.000599997 0
-0.242203 -1.40573 0.000599997 0
-0.0908321 -1.31207 0.0014 0
-0.242967 -1.40639 0.0014 0
-0.24208 -1.40592 0.0014 0
-0.242895 -1.4065 0.000299997 0
-0.242018 -1.40601 0.000299997 0
-0.241993 -1.40605 -0.0014 0
-0.241117 -1.40556 -0.0014 0
-0.241915 -1.40615 -0.000600003 0
-0.2419 -1.40618 -0.000600003 0
-0.241034 -1.40567 -0.002 0
-0.241871 -1.40622 -0.002 0
-0.241845 -1.40625 -0.0022 0
-0.242684 -1.4068 -0.0022 0
-0.241817 -1.40629 -0.0018 0
-0.241832 -1.40627 -0.0018 0
-0.242719 -1.40673 -0.0018 0
-0.242858 -1.4065 -0.001 0
-0.242149 -1.40569 -0.000500003 0
-0.243111 -1.40604 -0.000500003 0
-0.242361 -1.40535 -0.000500003 0
-0.242387 -1.40541 0.002 0
-0.242382 -1.40541 -0.000800003 0
-0.242325 -1.40556 -0.000800003 0
-0.242275 -1.40563 -0.000800003 0
-0.242202 -1.40575 -0.000300003 0
-0.242209 -1.40573 -0.0018 0
-0.242248 -1.40565 -0.0018 0
-0.243174 -1.40605 -0.0018 0
-0.242448 -1.40531 -0.000600003 0
-0.242652 -1.40493 -0.000600003 0
-0.243874 -1.40486 -0.0024 0
-0.244147 -1.40438 -0.0024 0
-0.244396 -1.40398 0.000599997 0
-0.243807 -1.40303 0.000599997 0
-0.244942 -1.40309 0.0032 0
-0.244396 -1.40207 0.0032 0
-0.24559 -1.40198 0.0032 0
-0.245913 -1.40146 0.0026 0
-0.246618 -1.40033 0.0069 0
-0.247021 -1.39963 0.0069 0
-0.248226 -1.39959 0.0069 0
-0.248603 -1.39898 0.000299998 0
-0.249026 -1.39824 0.000299998 0
-0.24942 -1.3976 -0.001 0
-0.249824 -1.39695 -0.001 0
-0.250233 -1.39628 -0.001 0
-0.250697 -1.39547 -2.32831e-09 0
-0.251124 -1.39478 -2.32831e-09 0
-0.251597 -1.39397 -0.000200002 0
-0.252046 -1.39325 -0.000200002 0
-0.287362 -1.41409 -0.000200002 0
-0.287861 -1.41322 0.0011 0
-0.288326 -1.41246 0.0011 0
-0.288797 -1.41169 -0.0021 0
-0.289268 -1.41092 -0.0021 0
-0.290211 -1.40944 -0.0032 0
-0.290722 -1.40862 -0.0032 0
-0.291234 -1.40779 -0.0018 0
-0.291755 -1.40695 -0.0018 0
-0.292289 -1.40608 -0.0018 0
-0.29278 -1.40534 -0.0029 0
-0.29335 -1.40443 -0.0029 0
-0.293906 -1.40353 0.0035 0
-0.294481 -1.40259 0.0035 0
-0.295013 -1.40176 0.0035 0
-0.295598 -1.40081 0.0033 0
-0.296155 -1.39996 0.0033 0
-0.297447 -1.39784 9.9998e-05 0
-0.332099 -1.41786 9.9998e-05 0
-0.332744 -1.41682 0.0013 0
-0.33344 -1.41564 0.0013 0
-0.334107 -1.41456 -0.0035 0
-0.333733 -1.41135 -0.0035 0
-0.336118 -1.41129 0.002 0
-0.33682 -1.41014 0.002 0
-0.337535 -1.40898 0.0035 0
-0.339858 -1.40713 0.0035 0
-0.340556 -1.40603 0.0041 0
-0.343018 -1.40585 0.0041 0
-0.344657 -1.40511 0.0038 0
-0.345493 -1.40378 0.0038 0
-0.346297 -1.40249 0.0038 0
-0.347157 -1.40104 -0.000600003 0
-0.347973 -1.39972 -0.000600003 0
-0.348796 -1.39838 0.0021 0
