ply
format ascii 1.0
element vertex 1727
property float x
property float y
property float z
property float intensity
end_header
0.352728 0.716046 -0.0078 0
0.352728 0.716044 -0.0078 0
0.352729 0.716043 -0.0071 0
0.352729 0.716042 -0.0071 0
0.352728 0.716042 -0.0073 0
0.352728 0.716041 -0.0073 0
0.352728 0.71604 -0.0073 0
0.352728 0.716039 -0.0083 0
0.352728 0.716038 -0.0083 0
0.352728 0.716038 -0.0083 0
0.352728 0.716037 -0.0082 0
0.352729 0.716034 -0.008 0
0.352729 0.716034 -0.008 0
0.352729 0.716033 -0.0076 0
0.352729 0.716032 -0.0076 0
0.352729 0.716031 -0.0076 0
0.352728 0.71603 -0.0076 0
0.352727 0.71603 -0.0079 0
0.352725 0.716029 -0.0079 0
0.352725 0.716028 -0.0079 0
0.352725 0.716028 -0.0083 0
0.352725 0.716027 -0.0083 0
0.352725 0.716027 -0.0078 0
0.352724 0.716027 -0.0078 0
0.352724 0.716026 -0.0078 0
0.352724 0.716025 -0.0077 0
0.352724 0.716023 -0.0077 0
0.352723 0.716022 -0.0073 0
0.352724 0.716021 -0.0073 0
0.352724 0.716021 -0.0077 0
0.352723 0.71602 -0.0077 0
0.352752 0.71502 -0.0075 0
0.352723 0.716018 -0.0075 0
0.352723 0.716017 -0.0075 0
0.352722 0.716016 -0.0079 0
0.352721 0.716015 -0.0079 0
0.352721 0.716014 -0.0075 0
0.352719 0.716013 -0.0075 0
0.352719 0.716013 -0.0074 0
0.352718 0.716013 -0.0074 0
0.352717 0.716012 -0.0078 0
0.352777 0.714013 -0.0078 0
0.352717 0.716011 -0.0078 0
0.352717 0.716011 -0.0079 0
0.352717 0.716009 -0.0079 0
0.352716 0.716007 -0.0077 0
0.352715 0.716008 -0.0077 0
0.352715 0.716008 -0.0079 0
0.352714 0.716007 -0.0079 0
0.352713 0.716007 -0.0074 0
0.352713 0.716005 -0.0074 0
0.352713 0.716005 -0.0076 0
0.352714 0.716004 -0.0076 0
0.352713 0.716003 -0.0081 0
0.352712 0.716002 -0.0081 0
0.352835 0.715978 -0.0077 0
0.352834 0.715978 -0.0077 0
0.352922 0.712979 -0.0078 0
0.352711 0.715999 -0.0078 0
0.35271 0.715998 -0.0078 0
0.352834 0.715973 -0.0078 0
0.352834 0.715971 -0.0074 0
0.352834 0.715971 -0.0074 0
0.352835 0.715969 -0.0074 0
0.352835 0.715967 -0.008 0
0.352835 0.715966 -0.0076 0
0.352835 0.715964 -0.0076 0
0.352836 0.715963 -0.0076 0
0.352836 0.715962 -0.0079 0
0.352837 0.715961 -0.0079 0
0.352837 0.715959 -0.0077 0
0.352838 0.715959 -0.0077 0
0.352838 0.715956 -0.0078 0
0.352838 0.715955 -0.0078 0
0.352838 0.715954 -0.0076 0
0.352838 0.715953 -0.0076 0
0.35284 0.715951 -0.0077 0
0.35284 0.71595 -0.0077 0
0.352841 0.715949 -0.008 0
0.352841 0.715948 -0.008 0
0.352841 0.715946 -0.0083 0
0.352841 0.715944 -0.0083 0
0.352841 0.715943 -0.0079 0
0.352841 0.715941 -0.0079 0
0.352842 0.71594 -0.0077 0
0.352842 0.71594 -0.0077 0
0.352842 0.715939 -0.0078 0
0.352719 0.715959 -0.0078 0
0.352719 0.715957 -0.0078 0
0.352719 0.715956 -0.0078 0
0.352719 0.715955 -0.0081 0
0.352719 0.715952 -0.0081 0
0.352719 0.715951 -0.0079 0
0.352719 0.71595 -0.0079 0
0.352719 0.715949 -0.0079 0
0.352719 0.715946 -0.0077 0
0.352718 0.715945 -0.0074 0
0.352718 0.715944 -0.0074 0
0.352719 0.715942 -0.0077 0
0.352719 0.715941 -0.0077 0
0.35272 0.715941 -0.0077 0
0.35272 0.715939 -0.0077 0
0.35272 0.715939 -0.0077 0
0.35272 0.715939 -0.0076 0
0.352721 0.715938 -0.0076 0
0.35272 0.715936 -0.0076 0
0.35272 0.715936 -0.0075 0
0.352843 0.715911 -0.0075 0
0.352719 0.715934 -0.008 0
0.352719 0.715934 -0.008 0
0.352719 0.715934 -0.0079 0
0.352719 0.715934 -0.0079 0
0.352719 0.715933 -0.008 0
0.352843 0.715909 -0.008 0
0.352843 0.715909 -0.008 0
0.352843 0.715909 -0.0079 0
0.352719 0.715933 -0.0079 0
0.352719 0.715933 -0.0079 0
0.352718 0.715933 -0.0079 0
0.352718 0.715933 -0.008 0
0.352842 0.715909 -0.008 0
0.352842 0.715909 -0.0076 0
0.352842 0.715908 -0.0076 0
0.352842 0.715908 -0.0076 0
0.352844 0.715906 -0.0079 0
0.352874 0.714906 -0.0079 0
0.352845 0.715905 -0.0075 0
0.352845 0.715904 -0.0075 0
0.352845 0.715902 -0.0076 0
0.352845 0.7159 -0.0081 0
0.352845 0.715899 -0.0081 0
0.352724 0.715922 -0.0072 0
0.352725 0.715921 -0.0072 0
0.352725 0.71592 -0.0072 0
0.352724 0.715919 -0.0077 0
0.352723 0.715917 -0.0081 0
0.352723 0.715916 -0.0081 0
0.352722 0.715915 -0.0079 0
0.352845 0.71589 -0.0079 0
0.352843 0.715888 -0.008 0
0.352872 0.714888 -0.008 0
0.352842 0.715887 -0.008 0
0.352842 0.715884 -0.008 0
0.352842 0.715883 -0.0079 0
0.352842 0.715881 -0.0079 0
0.352841 0.715879 -0.0076 0
0.352841 0.715877 -0.0076 0
0.35284 0.715873 -0.0077 0
0.352839 0.715871 -0.0077 0
0.352838 0.715869 -0.0076 0
0.352837 0.715866 -0.0076 0
0.352837 0.715865 -0.0075 0
0.352837 0.715863 -0.0075 0
0.352836 0.715862 -0.0074 0
0.352836 0.71586 -0.0074 0
0.352835 0.715859 -0.0074 0
0.352711 0.715881 -0.0075 0
0.352709 0.715878 -0.0075 0
0.352709 0.715876 -0.0077 0
0.352709 0.715873 -0.0077 0
0.352709 0.715871 -0.0078 0
0.352708 0.71587 -0.0078 0
0.352832 0.715843 -0.0079 0
0.352833 0.715842 -0.0079 0
0.352833 0.71584 -0.0076 0
0.352833 0.715839 -0.0076 0
0.352833 0.715838 -0.007 0
0.352833 0.715836 -0.007 0
0.352834 0.715835 -0.0078 0
0.352834 0.715834 -0.0078 0
0.352834 0.715834 -0.0079 0
0.352834 0.715834 -0.0079 0
0.35271 0.715856 -0.0075 0
0.35271 0.715855 -0.0077 0
0.352711 0.715854 -0.0077 0
0.352711 0.715853 -0.0077 0
0.352711 0.715851 -0.008 0
0.352835 0.715827 -0.0077 0
0.352834 0.715826 -0.0077 0
0.352834 0.715825 -0.0077 0
0.352833 0.715824 -0.0079 0
0.352833 0.715823 -0.0079 0
0.352833 0.715821 -0.0079 0
0.352832 0.71582 -0.0079 0
0.352833 0.71582 -0.0079 0
0.352833 0.715819 -0.0077 0
0.352833 0.715817 -0.0077 0
0.352833 0.715816 -0.0077 0
0.352833 0.715815 -0.0076 0
0.352833 0.715815 -0.0076 0
0.352832 0.715814 -0.0076 0
0.352832 0.715813 -0.0079 0
0.352832 0.715813 -0.0079 0
0.352831 0.715811 -0.0079 0
0.352832 0.71581 -0.0079 0
0.352832 0.715806 -0.0076 0
0.352832 0.715805 -0.0076 0
0.352831 0.715805 -0.008 0
0.352831 0.715805 -0.008 0
0.352831 0.715804 -0.0072 0
0.352831 0.715803 -0.0072 0
0.35283 0.715802 -0.0072 0
0.352829 0.715802 -0.0075 0
0.352829 0.715801 -0.0075 0
0.352829 0.715801 -0.0076 0
0.352829 0.7158 -0.0076 0
0.352828 0.715798 -0.008 0
0.352827 0.715797 -0.008 0
0.352827 0.715797 -0.008 0
0.352826 0.715796 -0.0078 0
0.352825 0.715796 -0.0078 0
0.352823 0.715794 -0.0078 0
0.352822 0.715793 -0.0078 0
0.352822 0.715793 -0.0076 0
0.352821 0.715792 -0.0076 0
0.35282 0.71579 -0.0075 0
0.35282 0.715789 -0.0075 0
0.352818 0.715789 -0.008 0
0.352817 0.715788 -0.008 0
0.352816 0.715787 -0.0078 0
0.352816 0.715786 -0.0078 0
0.352816 0.715785 -0.0078 0
0.352815 0.715784 -0.0078 0
0.352815 0.715783 -0.0077 0
0.352689 0.715805 -0.0074 0
0.352689 0.715803 -0.0074 0
0.352688 0.715801 -0.0074 0
0.353015 0.704806 -0.008 0
0.352687 0.7158 -0.008 0
0.352687 0.715799 -0.008 0
0.352686 0.715798 -0.0081 0
0.352686 0.715797 -0.0081 0
0.352685 0.715796 -0.0075 0
0.352685 0.715795 -0.0075 0
0.352685 0.715794 -0.008 0
0.352685 0.715793 -0.008 0
0.352685 0.715793 -0.0084 0
0.352685 0.715792 -0.0084 0
0.352685 0.715791 -0.0077 0
0.352685 0.715789 -0.0077 0
0.352686 0.715787 -0.0077 0
0.352687 0.715786 -0.0078 0
0.352688 0.715786 -0.0078 0
0.35269 0.715787 -0.0086 0
0.352691 0.715787 -0.0086 0
0.352691 0.715786 -0.0075 0
0.352691 0.715786 -0.0075 0
0.352691 0.715786 -0.0075 0
0.352691 0.715785 -0.0075 0
0.352814 0.715759 -0.0073 0
0.352814 0.715758 -0.0073 0
0.352813 0.715757 -0.0073 0
0.352814 0.715756 -0.0082 0
0.352814 0.715756 -0.0082 0
0.352814 0.715755 -0.0079 0
0.352814 0.715754 -0.0079 0
0.35269 0.715777 -0.0074 0
0.352689 0.715776 -0.0074 0
0.352689 0.715777 -0.0078 0
0.352688 0.715776 -0.0078 0
0.352689 0.715776 -0.0078 0
0.35269 0.715776 -0.0076 0
0.35269 0.715774 -0.0076 0
0.35269 0.715773 -0.0082 0
0.352814 0.715748 -0.0077 0
0.352814 0.715746 -0.0077 0
0.35269 0.715768 -0.0077 0
0.352691 0.715768 -0.0075 0
0.352691 0.715767 -0.0075 0
0.352691 0.715766 -0.0081 0
0.352691 0.715763 -0.0081 0
0.352692 0.715761 -0.0077 0
0.352693 0.71576 -0.0077 0
0.352694 0.715758 -0.0077 0
0.352694 0.715757 -0.0077 0
0.352817 0.715733 -0.0077 0
0.352694 0.715756 -0.0083 0
0.352788 0.716732 -0.0083 0
0.352694 0.715755 -0.0083 0
0.352818 0.715731 -0.0082 0
0.352818 0.71573 -0.0082 0
0.352819 0.715728 -0.008 0
0.352819 0.715727 -0.0076 0
0.352878 0.713727 -0.0076 0
0.352818 0.715726 -0.0076 0
0.352819 0.715725 -0.0076 0
0.352818 0.715724 -0.0076 0
0.352694 0.715746 -0.0076 0
0.352818 0.715722 -0.0078 0
0.352818 0.715721 -0.0079 0
0.352695 0.715744 -0.0079 0
0.352695 0.715743 -0.0079 0
0.352694 0.715742 -0.0075 0
0.352694 0.715738 -0.0081 0
0.352818 0.715712 -0.0081 0
0.352819 0.715712 -0.0073 0
0.352819 0.715711 -0.0073 0
0.35282 0.71571 -0.0073 0
0.35282 0.715709 -0.0085 0
0.35282 0.715707 -0.0085 0
0.35282 0.715706 -0.0079 0
0.35282 0.715703 -0.0079 0
0.352819 0.715702 -0.0077 0
0.352819 0.715701 -0.0077 0
0.352819 0.715701 -0.0081 0
0.352818 0.715701 -0.0081 0
0.352693 0.715724 -0.0081 0
0.352693 0.715723 -0.0076 0
0.352692 0.715721 -0.0076 0
0.352691 0.71572 -0.0077 0
0.352691 0.715719 -0.0077 0
0.352691 0.715719 -0.0081 0
0.352691 0.715718 -0.0081 0
0.352692 0.715718 -0.0081 0
0.352692 0.715718 -0.0077 0
0.352692 0.715717 -0.0079 0
0.352691 0.715716 -0.0079 0
0.352692 0.715714 -0.0079 0
0.352692 0.715713 -0.0075 0
0.352692 0.715712 -0.0075 0
0.352692 0.71571 -0.0079 0
0.352691 0.715709 -0.008 0
0.352691 0.715707 -0.008 0
0.35269 0.715706 -0.0078 0
0.352691 0.715705 -0.0078 0
0.352691 0.715704 -0.0077 0
0.352691 0.715701 -0.0077 0
0.352691 0.7157 -0.0074 0
0.352691 0.715699 -0.0074 0
0.352691 0.715698 -0.0078 0
0.352691 0.715696 -0.0078 0
0.352691 0.715695 -0.0078 0
0.352691 0.715693 -0.0078 0
0.352692 0.715692 -0.0074 0
0.352692 0.715692 -0.0074 0
0.352692 0.715691 -0.0075 0
0.352692 0.71569 -0.0075 0
0.352692 0.715688 -0.0078 0
0.352692 0.715688 -0.0078 0
0.352692 0.715688 -0.0075 0
0.352692 0.715687 -0.0075 0
0.352691 0.715687 -0.008 0
0.352691 0.715687 -0.008 0
0.352691 0.715686 -0.0074 0
0.35269 0.715686 -0.0074 0
0.35269 0.715686 -0.0074 0
0.35269 0.715686 -0.0074 0
0.352691 0.715685 -0.0079 0
0.352691 0.715685 -0.0079 0
0.352691 0.715684 -0.0079 0
0.352691 0.715683 -0.0078 0
0.352692 0.715682 -0.0078 0
0.352692 0.715681 -0.0074 0
0.352692 0.715678 -0.0074 0
0.352692 0.715676 -0.0076 0
0.352693 0.715675 -0.0076 0
0.352693 0.715674 -0.0076 0
0.352693 0.715673 -0.0075 0
0.352693 0.715672 -0.0075 0
0.352693 0.715672 -0.0075 0
0.352693 0.715671 -0.0079 0
0.352783 0.71267 -0.0079 0
0.352695 0.715667 -0.0079 0
0.352695 0.715667 -0.0079 0
0.352695 0.715666 -0.0078 0
0.352695 0.715665 -0.0078 0
0.352695 0.715665 -0.0078 0
0.352695 0.715664 -0.0081 0
0.352695 0.715663 -0.0081 0
0.352696 0.715662 -0.0075 0
0.352696 0.71566 -0.0081 0
0.352696 0.71566 -0.0081 0
0.352696 0.71566 -0.0081 0
0.352696 0.715659 -0.0082 0
0.352696 0.715659 -0.0082 0
0.352696 0.715658 -0.0082 0
0.352695 0.715657 -0.0078 0
0.352695 0.715656 -0.0078 0
0.352695 0.715654 -0.0076 0
0.352695 0.715653 -0.0076 0
0.352695 0.715653 -0.0079 0
0.352695 0.715653 -0.0079 0
0.352695 0.715652 -0.0075 0
0.352695 0.715651 -0.0075 0
0.352694 0.715651 -0.0082 0
0.352694 0.715651 -0.0082 0
0.352694 0.71565 -0.0082 0
0.352695 0.715649 -0.0076 0
0.352695 0.715649 -0.0076 0
0.352695 0.715648 -0.0078 0
0.352695 0.715648 -0.0078 0
0.352694 0.715647 -0.0078 0
0.352694 0.715646 -0.0079 0
0.352695 0.715646 -0.0079 0
0.352695 0.715645 -0.0077 0
0.352696 0.715644 -0.0077 0
0.352697 0.715644 -0.0077 0
0.352697 0.715643 -0.0073 0
0.352697 0.715642 -0.0077 0
0.352698 0.715642 -0.0077 0
0.352698 0.715641 -0.0077 0
0.352788 0.712642 -0.0076 0
0.3527 0.71564 -0.0076 0
0.3527 0.715639 -0.0076 0
0.352701 0.715638 -0.0076 0
0.352701 0.715638 -0.0076 0
0.352701 0.715638 -0.0077 0
0.352701 0.715636 -0.0077 0
0.352701 0.715635 -0.0074 0
0.352702 0.715633 -0.0074 0
0.352702 0.715632 -0.0072 0
0.352701 0.715632 -0.0072 0
0.352701 0.715632 -0.0075 0
0.352701 0.715632 -0.0075 0
0.352701 0.715632 -0.0075 0
0.352702 0.71563 -0.0078 0
0.352702 0.715628 -0.0075 0
0.352702 0.715627 -0.0075 0
0.352702 0.715625 -0.0075 0
0.352732 0.714625 -0.0078 0
0.352703 0.715624 -0.0078 0
0.352704 0.715623 -0.0076 0
0.352704 0.715623 -0.0076 0
0.352704 0.715622 -0.0078 0
0.352705 0.715622 -0.0078 0
0.352705 0.715622 -0.0077 0
0.352705 0.715621 -0.0077 0
0.352704 0.71562 -0.0077 0
0.352704 0.715619 -0.0075 0
0.352702 0.715619 -0.0082 0
0.352701 0.715617 -0.0082 0
0.352701 0.715616 -0.0082 0
0.352701 0.715615 -0.0076 0
0.352701 0.715615 -0.0076 0
0.352701 0.715615 -0.0081 0
0.35279 0.712616 -0.0081 0
0.352701 0.715614 -0.0081 0
0.352702 0.715613 -0.0078 0
0.352702 0.715611 -0.0078 0
0.352702 0.71561 -0.0078 0
0.352701 0.715608 -0.0079 0
0.3527 0.715606 -0.0076 0
0.352699 0.715605 -0.0076 0
0.352698 0.715603 -0.008 0
0.352697 0.715602 -0.008 0
0.352697 0.715601 -0.0077 0
0.352696 0.7156 -0.0077 0
0.352696 0.715599 -0.0078 0
0.352695 0.715598 -0.0078 0
0.352695 0.715597 -0.0081 0
0.352694 0.715596 -0.0081 0
0.352694 0.715595 -0.0077 0
0.352693 0.715594 -0.0077 0
0.352692 0.715593 -0.0077 0
0.352751 0.713593 -0.0083 0
0.352691 0.715592 -0.0083 0
0.352751 0.713592 -0.008 0
0.352691 0.71559 -0.008 0
0.352692 0.715589 -0.0077 0
0.352692 0.715588 -0.0077 0
0.352692 0.715585 -0.0082 0
0.352691 0.715584 -0.0082 0
0.352691 0.715583 -0.0082 0
0.352814 0.715558 -0.0073 0
0.352814 0.715557 -0.0077 0
0.352814 0.715557 -0.0077 0
0.352814 0.715557 -0.0077 0
0.35269 0.715581 -0.0078 0
0.35269 0.715579 -0.0077 0
0.352814 0.715554 -0.0077 0
0.352814 0.715553 -0.0077 0
0.352692 0.715573 -0.0076 0
0.352694 0.715572 -0.0077 0
0.352694 0.715572 -0.0077 0
0.351476 0.756553 -0.0077 0
0.352695 0.715572 -0.0079 0
0.352726 0.714572 -0.0079 0
0.352695 0.715571 -0.0079 0
0.352694 0.715571 -0.0079 0
0.352818 0.715547 -0.0076 0
0.352817 0.715546 -0.0076 0
0.352816 0.715545 -0.0078 0
0.352817 0.715544 -0.0078 0
0.352817 0.715543 -0.0076 0
0.352818 0.715543 -0.0076 0
0.352818 0.715542 -0.0079 0
0.352819 0.715542 -0.0079 0
0.352818 0.71554 -0.0074 0
0.352818 0.715539 -0.0074 0
0.352818 0.715539 -0.0074 0
0.352817 0.715536 -0.0079 0
0.352817 0.715534 -0.0078 0
0.352816 0.715533 -0.0078 0
0.352816 0.715533 -0.0078 0
0.352815 0.715532 -0.0074 0
0.352815 0.715531 -0.0074 0
0.352815 0.71553 -0.008 0
0.352815 0.715528 -0.0079 0
0.352816 0.715528 -0.0079 0
0.352817 0.715528 -0.0079 0
0.352817 0.715527 -0.008 0
0.352818 0.715526 -0.008 0
0.352817 0.715525 -0.0076 0
0.352817 0.715524 -0.0076 0
0.352817 0.715523 -0.0076 0
0.352817 0.715522 -0.0075 0
0.352817 0.715522 -0.0075 0
0.352817 0.715521 -0.0077 0
0.352817 0.71552 -0.0077 0
0.352816 0.715518 -0.0076 0
0.352816 0.715518 -0.0076 0
0.352816 0.715517 -0.0074 0
0.352817 0.715516 -0.0074 0
0.352817 0.715517 -0.0074 0
0.352816 0.715516 -0.008 0
0.352817 0.715516 -0.008 0
0.352817 0.715513 -0.0077 0
0.352816 0.715512 -0.0077 0
0.352816 0.71551 -0.0082 0
0.352816 0.715509 -0.0082 0
0.352693 0.715531 -0.0082 0
0.352692 0.715528 -0.0078 0
0.352752 0.713528 -0.0078 0
0.352693 0.715525 -0.0078 0
0.352693 0.715523 -0.008 0
0.352692 0.715522 -0.008 0
0.352692 0.715521 -0.008 0
0.352692 0.71552 -0.0077 0
0.352692 0.715518 -0.0077 0
0.352691 0.715517 -0.0079 0
0.352815 0.715492 -0.0079 0
0.352691 0.715514 -0.0079 0
0.35275 0.713514 -0.0079 0
0.352814 0.715488 -0.0079 0
0.35269 0.71551 -0.0076 0
0.35269 0.715508 -0.0076 0
0.352689 0.715507 -0.0074 0
0.35269 0.715507 -0.0074 0
0.352689 0.715504 -0.0079 0
0.352689 0.715504 -0.0079 0
0.352689 0.715503 -0.0075 0
0.352688 0.715502 -0.0075 0
0.352812 0.715478 -0.0075 0
0.352747 0.713501 -0.0075 0
0.352688 0.715499 -0.0075 0
0.352688 0.715498 -0.0079 0
0.352812 0.715471 -0.0079 0
0.352812 0.715469 -0.0077 0
0.352813 0.715468 -0.0077 0
0.352813 0.715467 -0.0078 0
0.352814 0.715465 -0.0078 0
0.352814 0.715464 -0.0078 0
0.352814 0.715463 -0.0073 0
0.352814 0.715462 -0.0073 0
0.352815 0.715461 -0.0078 0
0.352815 0.715461 -0.0078 0
0.352815 0.715461 -0.0081 0
0.352815 0.71546 -0.0081 0
0.352814 0.715459 -0.0074 0
0.352814 0.715458 -0.0074 0
0.352813 0.715458 -0.0082 0
0.352812 0.715459 -0.0082 0
0.352812 0.71546 -0.0078 0
0.352811 0.71546 -0.0078 0
0.35281 0.71546 -0.0082 0
0.35281 0.715459 -0.0082 0
0.352809 0.715458 -0.0076 0
0.35281 0.715456 -0.008 0
0.35281 0.715455 -0.008 0
0.35281 0.715454 -0.008 0
0.35281 0.715452 -0.008 0
0.352809 0.715449 -0.008 0
0.352809 0.715447 -0.0073 0
0.35281 0.715445 -0.0073 0
0.35281 0.715444 -0.0077 0
0.352809 0.715441 -0.0078 0
0.352809 0.71544 -0.0078 0
0.352809 0.715439 -0.0078 0
0.35281 0.715437 -0.0079 0
0.352809 0.715435 -0.0079 0
0.352809 0.715434 -0.0075 0
0.352808 0.715433 -0.0075 0
0.352807 0.715431 -0.008 0
0.352806 0.715431 -0.008 0
0.352806 0.715429 -0.008 0
0.352806 0.715428 -0.008 0
0.352806 0.715426 -0.0074 0
0.352805 0.715425 -0.0074 0
0.352804 0.715424 -0.008 0
0.352804 0.715422 -0.008 0
0.352804 0.715421 -0.0074 0
0.352804 0.715418 -0.0079 0
0.352804 0.715416 -0.0079 0
0.352804 0.715415 -0.0079 0
0.352803 0.715412 -0.0078 0
0.352803 0.715412 -0.0078 0
0.352802 0.71541 -0.0078 0
0.352801 0.71541 -0.0078 0
0.352801 0.715409 -0.008 0
0.3528 0.715408 -0.008 0
0.3528 0.715407 -0.008 0
0.3528 0.715406 -0.0083 0
0.3528 0.715405 -0.0083 0
0.352799 0.715405 -0.0078 0
0.352799 0.715404 -0.0078 0
0.352798 0.715404 -0.0077 0
0.352797 0.715403 -0.0077 0
0.352797 0.715401 -0.0082 0
0.352796 0.715399 -0.0082 0
0.352796 0.715397 -0.0079 0
0.352796 0.715393 -0.0079 0
0.352796 0.715393 -0.0082 0
0.352797 0.715392 -0.0082 0
0.352797 0.715392 -0.0077 0
0.352797 0.715391 -0.0077 0
0.352798 0.715391 -0.0077 0
0.352799 0.715389 -0.0077 0
0.352799 0.715389 -0.0076 0
0.352799 0.715387 -0.0076 0
0.352799 0.715386 -0.0076 0
0.352798 0.715384 -0.0079 0
0.352799 0.715382 -0.0079 0
0.352798 0.71538 -0.0083 0
0.352798 0.71538 -0.0083 0
0.352798 0.71538 -0.0077 0
0.352799 0.715379 -0.0077 0
0.3528 0.715379 -0.0078 0
0.3528 0.715378 -0.0078 0
0.3528 0.715377 -0.0078 0
0.3528 0.715376 -0.0077 0
0.3528 0.715376 -0.0077 0
0.3528 0.715376 -0.0077 0
0.3528 0.715375 -0.007 0
0.3528 0.715373 -0.0074 0
0.3528 0.715371 -0.0074 0
0.352801 0.71537 -0.0075 0
0.352801 0.715369 -0.0075 0
0.352802 0.715368 -0.0075 0
0.352802 0.715366 -0.0077 0
0.352803 0.715365 -0.0077 0
0.352804 0.715364 -0.0076 0
0.352804 0.715363 -0.0076 0
0.352805 0.715363 -0.0076 0
0.352804 0.715362 -0.0081 0
0.352805 0.715361 -0.0081 0
0.352805 0.715359 -0.0079 0
0.352804 0.715356 -0.0079 0
0.352804 0.715355 -0.0079 0
0.352803 0.715354 -0.0079 0
0.352803 0.715353 -0.0079 0
0.352803 0.715352 -0.0078 0
0.352801 0.715352 -0.0078 0
0.352801 0.71535 -0.0079 0
0.352801 0.715349 -0.0079 0
0.352802 0.715348 -0.0079 0
0.352802 0.715346 -0.0074 0
0.352802 0.715345 -0.0078 0
0.352802 0.715344 -0.0078 0
0.352801 0.715343 -0.0079 0
0.352801 0.715342 -0.0079 0
0.3528 0.715341 -0.0079 0
0.3528 0.715338 -0.0082 0
0.352798 0.715335 -0.0082 0
0.352797 0.715333 -0.0077 0
0.352796 0.715332 -0.0077 0
0.352796 0.715331 -0.0077 0
0.352795 0.71533 -0.0077 0
0.352794 0.715329 -0.0077 0
0.352793 0.715327 -0.0077 0
0.352792 0.715325 -0.0079 0
0.352791 0.715323 -0.0079 0
0.35279 0.715322 -0.0079 0
0.352789 0.71532 -0.0079 0
0.352788 0.715319 -0.0079 0
0.352788 0.715318 -0.0072 0
0.352787 0.715318 -0.0072 0
0.352787 0.715317 -0.0076 0
0.352787 0.715316 -0.0076 0
0.352816 0.714316 -0.0076 0
0.352786 0.715313 -0.0078 0
0.352787 0.715312 -0.0078 0
0.352786 0.715312 -0.0078 0
0.352786 0.715311 -0.0078 0
0.352786 0.715309 -0.008 0
0.352786 0.715308 -0.008 0
0.352786 0.715307 -0.0078 0
0.352785 0.715305 -0.0078 0
0.352784 0.715303 -0.0078 0
0.352784 0.715302 -0.0078 0
0.352784 0.715302 -0.0072 0
0.352784 0.715301 -0.0072 0
0.352783 0.7153 -0.0072 0
0.352842 0.7133 -0.0078 0
0.352782 0.715298 -0.0078 0
0.352782 0.715297 -0.0077 0
0.352782 0.715296 -0.0077 0
0.352781 0.715295 -0.0077 0
0.352782 0.715294 -0.0079 0
0.352782 0.715294 -0.0079 0
0.352782 0.715293 -0.0073 0
0.352782 0.715291 -0.0073 0
0.352782 0.71529 -0.0075 0
0.352782 0.71529 -0.0075 0
0.352782 0.715289 -0.0074 0
0.352781 0.715288 -0.0074 0
0.352781 0.715288 -0.0074 0
0.35278 0.715288 -0.0079 0
0.35278 0.715287 -0.0079 0
0.35281 0.714286 -0.0075 0
0.35281 0.714285 -0.0075 0
0.352781 0.715284 -0.0075 0
0.35278 0.715283 -0.0076 0
0.353134 0.703288 -0.008 0
0.352778 0.715281 -0.008 0
0.352778 0.71528 -0.008 0
0.352778 0.715279 -0.0075 0
0.352778 0.715279 -0.0075 0
0.352778 0.715278 -0.0079 0
0.352777 0.715277 -0.0079 0
0.352776 0.715276 -0.0077 0
0.352652 0.7153 -0.0077 0
0.352652 0.7153 -0.0073 0
0.352651 0.715299 -0.0073 0
0.352651 0.715298 -0.0073 0
0.352652 0.715297 -0.0079 0
0.352651 0.715297 -0.0079 0
0.352652 0.715297 -0.0073 0
0.352652 0.715296 -0.0073 0
0.352652 0.715295 -0.0074 0
0.352652 0.715295 -0.0074 0
0.352651 0.715294 -0.0076 0
0.352651 0.715293 -0.0076 0
0.352775 0.715269 -0.0076 0
0.352776 0.715268 -0.0079 0
0.352775 0.715267 -0.0079 0
0.352774 0.715266 -0.0081 0
0.352649 0.715287 -0.0081 0
0.352649 0.715286 -0.0078 0
0.352773 0.715261 -0.0078 0
0.352773 0.71526 -0.0079 0
0.352862 0.71226 -0.0079 0
0.352773 0.715258 -0.0079 0
0.352771 0.715257 -0.0079 0
0.35277 0.715256 -0.0085 0
0.352769 0.715254 -0.0085 0
0.352769 0.715254 -0.0083 0
0.352769 0.715252 -0.0073 0
0.352769 0.715251 -0.0073 0
0.352769 0.71525 -0.0073 0
0.352769 0.715249 -0.0079 0
0.352769 0.715248 -0.0081 0
0.35277 0.715247 -0.0081 0
0.35277 0.715246 -0.0081 0
0.352771 0.715245 -0.0079 0
0.352771 0.715242 -0.0078 0
0.35277 0.715242 -0.0078 0
0.352771 0.71524 -0.0081 0
0.352772 0.71524 -0.0081 0
0.352773 0.715239 -0.0075 0
0.352774 0.715238 -0.0075 0
0.352774 0.715237 -0.0075 0
0.352775 0.715235 -0.0082 0
0.352776 0.715234 -0.0077 0
0.352776 0.715233 -0.0077 0
0.352776 0.715233 -0.0077 0
0.352652 0.715255 -0.0075 0
0.352652 0.715254 -0.0076 0
0.352652 0.715253 -0.0076 0
0.352653 0.715252 -0.0079 0
0.352653 0.715252 -0.0079 0
0.352653 0.715252 -0.0075 0
0.352653 0.715252 -0.0075 0
0.352654 0.715253 -0.0078 0
0.352654 0.715252 -0.0077 0
0.352654 0.715252 -0.0077 0
0.352654 0.715251 -0.0077 0
0.352654 0.715248 -0.0077 0
0.352653 0.715247 -0.0077 0
0.352654 0.715246 -0.0077 0
0.353843 0.675263 -0.0077 0
0.352654 0.715245 -0.0076 0
0.352654 0.715244 -0.0076 0
0.352655 0.715244 -0.008 0
0.352655 0.715242 -0.008 0
0.352655 0.715241 -0.008 0
0.352654 0.71524 -0.0077 0
0.352655 0.71524 -0.0077 0
0.352654 0.715239 -0.0081 0
0.352655 0.715237 -0.0081 0
0.352655 0.715236 -0.0076 0
0.352654 0.715235 -0.0076 0
0.352654 0.715234 -0.0078 0
0.352652 0.715232 -0.0078 0
0.352651 0.715231 -0.0078 0
0.352651 0.715229 -0.0078 0
0.35265 0.715228 -0.0077 0
0.352649 0.715226 -0.0077 0
0.352649 0.715225 -0.0077 0
0.352649 0.715223 -0.0077 0
0.352649 0.715222 -0.0077 0
0.35265 0.715221 -0.0078 0
0.35265 0.715219 -0.0078 0
0.352651 0.715217 -0.0078 0
0.352652 0.715216 -0.0078 0
0.352653 0.715215 -0.0079 0
0.352653 0.715214 -0.0079 0
0.352652 0.715213 -0.0079 0
0.352652 0.715211 -0.0072 0
0.352652 0.715211 -0.0072 0
0.352652 0.71521 -0.008 0
0.352652 0.715209 -0.008 0
0.352651 0.715209 -0.008 0
0.352651 0.715208 -0.0075 0
0.352651 0.715208 -0.0075 0
0.352652 0.715207 -0.0076 0
0.352654 0.715203 -0.0076 0
0.352654 0.715201 -0.0076 0
0.352654 0.715199 -0.0076 0
0.352655 0.715197 -0.008 0
0.352656 0.715195 -0.008 0
0.352656 0.715194 -0.008 0
0.352656 0.715191 -0.0078 0
0.352656 0.715191 -0.0073 0
0.352656 0.715189 -0.0073 0
0.352657 0.715188 -0.0077 0
0.352657 0.715187 -0.0077 0
0.352658 0.715187 -0.0077 0
0.352658 0.715186 -0.0077 0
0.352659 0.715186 -0.0076 0
0.352748 0.712186 -0.0076 0
0.352659 0.715185 -0.0081 0
0.352659 0.715182 -0.0081 0
0.352658 0.715181 -0.0076 0
0.352659 0.71518 -0.0076 0
0.352718 0.713181 -0.008 0
0.352658 0.715178 -0.008 0
0.352658 0.715178 -0.0079 0
0.352658 0.715177 -0.0079 0
0.352658 0.715176 -0.0071 0
0.352659 0.715175 -0.0071 0
0.352658 0.715174 -0.0077 0
0.352658 0.715173 -0.0077 0
0.352781 0.715147 -0.0078 0
0.35278 0.715144 -0.0078 0
0.352779 0.715143 -0.008 0
0.352779 0.715142 -0.008 0
0.352779 0.715141 -0.008 0
0.352655 0.715163 -0.008 0
0.352655 0.715159 -0.0076 0
0.352654 0.715159 -0.0076 0
0.352653 0.715158 -0.0079 0
0.352652 0.715155 -0.0079 0
0.352741 0.712155 -0.0078 0
0.352652 0.715153 -0.0078 0
0.352653 0.715152 -0.0077 0
0.352653 0.715151 -0.0077 0
0.352654 0.715151 -0.0077 0
0.353011 0.703156 -0.0078 0
0.352654 0.71515 -0.0078 0
0.352778 0.715126 -0.0079 0
0.352778 0.715125 -0.0079 0
0.352654 0.715148 -0.0079 0
0.352654 0.715146 -0.0076 0
0.352654 0.715145 -0.0076 0
0.352653 0.715145 -0.0076 0
0.352653 0.715144 -0.0076 0
0.352653 0.715143 -0.0079 0
0.352653 0.715142 -0.0079 0
0.352652 0.71514 -0.0074 0
0.352651 0.715139 -0.0074 0
0.352651 0.715138 -0.0075 0
0.35265 0.715138 -0.0075 0
0.35265 0.715136 -0.0077 0
0.35265 0.715135 -0.0077 0
0.35265 0.715134 -0.0072 0
0.352649 0.715133 -0.0072 0
0.352773 0.715107 -0.0078 0
0.352772 0.715105 -0.0078 0
0.352773 0.715104 -0.0078 0
0.352773 0.715103 -0.0078 0
0.35265 0.715124 -0.0074 0
0.352774 0.7151 -0.0074 0
0.352774 0.715099 -0.0079 0
0.352774 0.715098 -0.0079 0
0.352775 0.715096 -0.0079 0
0.352651 0.715118 -0.0079 0
0.352651 0.715117 -0.0076 0
0.352651 0.715115 -0.0079 0
0.35265 0.715113 -0.0079 0
0.352651 0.715112 -0.0079 0
0.35265 0.71511 -0.0074 0
0.352651 0.715109 -0.0077 0
0.352651 0.715107 -0.0077 0
0.352651 0.715107 -0.0077 0
0.352651 0.715105 -0.008 0
0.35265 0.715105 -0.0077 0
0.352651 0.715104 -0.0077 0
0.352653 0.715103 -0.0077 0
0.352776 0.715079 -0.0077 0
0.352776 0.715076 -0.0078 0
0.352776 0.715075 -0.0078 0
0.352776 0.715073 -0.0081 0
0.352776 0.715072 -0.0075 0
0.352776 0.715071 -0.0075 0
0.352775 0.71507 -0.0075 0
0.352776 0.715069 -0.008 0
0.352776 0.715068 -0.008 0
0.352776 0.715067 -0.0077 0
0.352778 0.715064 -0.0077 0
0.352777 0.715062 -0.0082 0
0.352777 0.715061 -0.0082 0
0.352777 0.715058 -0.0078 0
0.352653 0.71508 -0.0078 0
0.352652 0.715079 -0.0078 0
0.352652 0.715077 -0.0076 0
0.352652 0.715076 -0.0075 0
0.352652 0.715075 -0.0075 0
0.352652 0.715075 -0.0075 0
0.352651 0.715072 -0.0076 0
0.352651 0.71507 -0.0083 0
0.35265 0.715068 -0.0083 0
0.35265 0.715067 -0.0083 0
0.352649 0.715067 -0.0081 0
0.352649 0.715066 -0.0079 0
0.352649 0.715065 -0.0079 0
0.352649 0.715065 -0.0079 0
0.352649 0.715065 -0.0074 0
0.352651 0.715063 -0.0073 0
0.352651 0.715062 -0.0073 0
0.352651 0.715062 -0.0073 0
0.352651 0.715062 -0.0075 0
0.352651 0.715061 -0.0078 0
0.352651 0.715061 -0.0078 0
0.352651 0.71506 -0.0078 0
0.35265 0.715059 -0.0083 0
0.352649 0.715058 -0.0078 0
0.352648 0.715056 -0.0078 0
0.352769 0.715032 -0.0076 0
0.352769 0.715031 -0.0076 0
0.352769 0.71503 -0.0074 0
0.352769 0.715029 -0.0074 0
0.352768 0.715028 -0.0079 0
0.352768 0.715027 -0.0079 0
0.352767 0.715026 -0.0073 0
0.352767 0.715026 -0.0073 0
0.352768 0.715024 -0.008 0
0.352827 0.713023 -0.008 0
0.352768 0.715021 -0.008 0
0.352768 0.71502 -0.008 0
0.352768 0.715017 -0.0072 0
0.352769 0.715017 -0.0072 0
0.352769 0.715017 -0.0074 0
0.352769 0.715016 -0.0074 0
0.352645 0.715038 -0.008 0
0.352645 0.715037 -0.008 0
0.352645 0.715036 -0.0082 0
0.352645 0.715035 -0.0082 0
0.352645 0.715035 -0.0082 0
0.352645 0.715035 -0.0078 0
0.352645 0.715034 -0.0078 0
0.352645 0.715033 -0.0081 0
0.352645 0.715032 -0.0081 0
0.352645 0.715031 -0.0083 0
0.352646 0.71503 -0.0083 0
0.352646 0.715029 -0.0078 0
0.352646 0.715028 -0.0078 0
0.35277 0.715003 -0.0078 0
0.352648 0.715024 -0.0077 0
0.352648 0.715023 -0.0082 0
0.352647 0.715023 -0.0082 0
0.352647 0.715022 -0.0082 0
0.352648 0.715022 -0.0078 0
0.352648 0.715021 -0.0078 0
0.352648 0.71502 -0.0081 0
0.352648 0.715019 -0.0081 0
0.352648 0.715018 -0.0081 0
0.352771 0.714992 -0.008 0
0.352771 0.714992 -0.0077 0
0.352771 0.714991 -0.0077 0
0.35277 0.714989 -0.0077 0
0.35277 0.714988 -0.008 0
0.352768 0.714985 -0.0075 0
0.352768 0.714984 -0.0075 0
0.352768 0.714983 -0.0075 0
0.352769 0.714983 -0.0076 0
0.352769 0.714982 -0.0076 0
0.352768 0.714981 -0.008 0
0.352768 0.71498 -0.008 0
0.352768 0.714979 -0.008 0
0.352768 0.714978 -0.0078 0
0.352768 0.714977 -0.0078 0
0.352768 0.714976 -0.0078 0
0.352856 0.711977 -0.0078 0
0.352767 0.714975 -0.0078 0
0.352767 0.714975 -0.0076 0
0.352767 0.714974 -0.0076 0
0.352767 0.714972 -0.008 0
0.352765 0.714969 -0.008 0
0.352823 0.712968 -0.0076 0
0.352763 0.714966 -0.0076 0
0.352763 0.714964 -0.0078 0
0.352762 0.714963 -0.0078 0
0.352762 0.714961 -0.0076 0
0.352761 0.714961 -0.0076 0
0.352761 0.71496 -0.0078 0
0.35276 0.714958 -0.0078 0
0.352993 0.702987 -0.0078 0
0.352636 0.71498 -0.0078 0
0.352636 0.714979 -0.0082 0
0.352636 0.714978 -0.0082 0
0.352635 0.714977 -0.0079 0
0.352635 0.714976 -0.0079 0
0.352758 0.714952 -0.0075 0
0.352758 0.714951 -0.0075 0
0.352634 0.714974 -0.0084 0
0.352634 0.714972 -0.0084 0
0.352633 0.71497 -0.0071 0
0.352633 0.714968 -0.0071 0
0.352632 0.714967 -0.0076 0
0.352633 0.714966 -0.0078 0
0.352633 0.714965 -0.0078 0
0.352633 0.714964 -0.0078 0
0.352634 0.714962 -0.0077 0
0.352634 0.714961 -0.0075 0
0.352633 0.71496 -0.0075 0
0.352633 0.714959 -0.0075 0
0.352634 0.714957 -0.0077 0
0.352634 0.714956 -0.0073 0
0.352633 0.714954 -0.0073 0
0.352756 0.71493 -0.0073 0
0.352756 0.714929 -0.0081 0
0.352632 0.714951 -0.0081 0
0.352631 0.71495 -0.0075 0
0.3526 0.715948 -0.0075 0
0.352753 0.714923 -0.0075 0
0.352753 0.714922 -0.0078 0
0.352753 0.71492 -0.008 0
0.352753 0.714919 -0.008 0
0.352753 0.714917 -0.008 0
0.352753 0.714916 -0.0077 0
0.352753 0.714915 -0.0077 0
0.352754 0.714911 -0.008 0
0.352755 0.71491 -0.008 0
0.352755 0.71491 -0.0077 0
0.352756 0.71491 -0.0077 0
0.352756 0.71491 -0.0082 0
0.352756 0.71491 -0.0082 0
0.352756 0.714909 -0.0082 0
0.352757 0.714908 -0.0074 0
0.352757 0.714908 -0.0074 0
0.352757 0.714907 -0.0074 0
0.352757 0.714907 -0.0079 0
0.352757 0.714906 -0.0079 0
0.352758 0.714902 -0.0076 0
0.352759 0.714901 -0.0076 0
0.35276 0.7149 -0.0078 0
0.352789 0.713899 -0.0077 0
0.352759 0.714898 -0.0077 0
0.352759 0.714897 -0.0077 0
0.352758 0.714896 -0.0081 0
0.352758 0.714895 -0.0081 0
0.352757 0.714894 -0.0077 0
0.352757 0.714893 -0.0077 0
0.352757 0.714893 -0.0077 0
0.352757 0.714892 -0.0076 0
0.352758 0.714888 -0.0076 0
0.352758 0.714886 -0.0076 0
0.352758 0.714884 -0.0076 0
0.352758 0.714882 -0.0074 0
0.352759 0.714882 -0.0074 0
0.35276 0.714882 -0.0079 0
0.352761 0.714881 -0.0079 0
0.35276 0.71488 -0.0073 0
0.352759 0.71488 -0.0073 0
0.352759 0.714879 -0.0074 0
0.35276 0.71488 -0.0074 0
0.35276 0.714879 -0.0074 0
0.352761 0.714877 -0.0084 0
0.352761 0.714876 -0.0073 0
0.352791 0.713875 -0.0073 0
0.352761 0.714873 -0.0073 0
0.352761 0.714872 -0.0079 0
0.352761 0.714871 -0.0079 0
0.352761 0.714868 -0.0074 0
0.352761 0.714867 -0.0074 0
0.35282 0.712866 -0.0074 0
0.35276 0.714863 -0.0074 0
0.35276 0.714863 -0.0074 0
0.35279 0.713861 -0.0074 0
0.352761 0.714859 -0.0074 0
0.352761 0.714857 -0.0078 0
0.352761 0.714856 -0.0081 0
0.351548 0.755838 -0.0081 0
0.35276 0.714856 -0.0081 0
0.352759 0.714857 -0.0075 0
0.352759 0.714856 -0.0075 0
0.352759 0.714855 -0.0076 0
0.352759 0.714855 -0.0076 0
0.352759 0.714855 -0.0076 0
0.35276 0.714852 -0.0077 0
0.352759 0.714851 -0.008 0
0.352759 0.71485 -0.008 0
0.352759 0.714849 -0.008 0
0.352758 0.714849 -0.0076 0
0.352759 0.714848 -0.0076 0
0.352758 0.714847 -0.0077 0
0.352634 0.714869 -0.0077 0
0.352634 0.714867 -0.008 0
0.352634 0.714867 -0.008 0
0.351415 0.755847 -0.0082 0
0.352634 0.714863 -0.0082 0
0.352634 0.714862 -0.0076 0
0.352634 0.714861 -0.0076 0
0.352633 0.714859 -0.0077 0
0.352633 0.714858 -0.0077 0
0.352633 0.714857 -0.0082 0
0.352693 0.712857 -0.0082 0
0.352631 0.714855 -0.0075 0
0.352631 0.714854 -0.0075 0
0.352631 0.714854 -0.0076 0
0.352754 0.714829 -0.0076 0
0.352755 0.714828 -0.0085 0
0.352755 0.714827 -0.0085 0
0.352755 0.714826 -0.0085 0
0.352755 0.714825 -0.0082 0
0.352755 0.714824 -0.0082 0
0.352754 0.714823 -0.0076 0
0.352753 0.714822 -0.0076 0
0.352752 0.714821 -0.0075 0
0.352751 0.71482 -0.0075 0
0.352751 0.71482 -0.0079 0
0.352751 0.714819 -0.0079 0
0.352751 0.714818 -0.0079 0
0.35275 0.714817 -0.0072 0
0.352749 0.714816 -0.0072 0
0.352776 0.713815 -0.0076 0
0.352746 0.714813 -0.0076 0
0.352746 0.714812 -0.0085 0
0.352745 0.714812 -0.0085 0
0.352744 0.714811 -0.007 0
0.352743 0.714811 -0.007 0
0.352743 0.714809 -0.0076 0
0.352743 0.714808 -0.0076 0
0.352743 0.714807 -0.0081 0
0.352743 0.714806 -0.0081 0
0.352742 0.714803 -0.0076 0
0.352742 0.714801 -0.0076 0
0.352742 0.714801 -0.0071 0
0.352741 0.714801 -0.0071 0
0.352617 0.714822 -0.0075 0
0.352741 0.714797 -0.0075 0
0.352741 0.714796 -0.0084 0
0.352617 0.714818 -0.0084 0
0.352618 0.714817 -0.0074 0
0.352619 0.714816 -0.0074 0
0.352619 0.714817 -0.0076 0
0.352619 0.714816 -0.0076 0
0.352708 0.711816 -0.0077 0
0.352619 0.714814 -0.0077 0
0.352619 0.714813 -0.0076 0
0.352649 0.713813 -0.0076 0
0.352621 0.714811 -0.0076 0
0.35262 0.71481 -0.0079 0
0.352622 0.71481 -0.0079 0
0.352623 0.714811 -0.0075 0
0.352623 0.71481 -0.0075 0
0.352623 0.714809 -0.0075 0
0.352623 0.714808 -0.0075 0
0.352624 0.714808 -0.0079 0
0.352625 0.714806 -0.0079 0
0.352625 0.714804 -0.0079 0
0.352749 0.714779 -0.0074 0
0.352749 0.714779 -0.0074 0
0.352749 0.714777 -0.0076 0
0.35275 0.714775 -0.0076 0
0.35275 0.714774 -0.008 0
0.35278 0.713774 -0.008 0
0.352751 0.714772 -0.0081 0
0.352751 0.714772 -0.0081 0
0.35275 0.714771 -0.0081 0
0.35275 0.71477 -0.0079 0
0.35275 0.714769 -0.0079 0
0.352749 0.714768 -0.0079 0
0.352749 0.714767 -0.0079 0
0.352748 0.714766 -0.0079 0
0.352748 0.714767 -0.0079 0
0.352748 0.714766 -0.0077 0
0.352747 0.714766 -0.0077 0
0.352746 0.714765 -0.0077 0
0.352745 0.714764 -0.0081 0
0.352745 0.714763 -0.0074 0
0.352745 0.714763 -0.0074 0
0.352744 0.714763 -0.0074 0
0.352619 0.714786 -0.0081 0
0.352619 0.714786 -0.0074 0
0.352619 0.714786 -0.0074 0
0.35262 0.714786 -0.0074 0
0.352619 0.714785 -0.0079 0
0.352619 0.714784 -0.0076 0
0.352742 0.71476 -0.0076 0
0.352742 0.71476 -0.0076 0
0.352617 0.714783 -0.0078 0
0.352617 0.714783 -0.0079 0
0.352617 0.714782 -0.0079 0
0.352617 0.714781 -0.0077 0
0.352617 0.71478 -0.0077 0
0.352741 0.714755 -0.0079 0
0.35274 0.714755 -0.0079 0
0.35274 0.714754 -0.0076 0
0.352739 0.714753 -0.0076 0
0.352614 0.714776 -0.0073 0
0.352736 0.714752 -0.0073 0
0.352735 0.714752 -0.0079 0
0.352734 0.714752 -0.0079 0
0.352734 0.714751 -0.0079 0
0.352734 0.71475 -0.0079 0
0.352733 0.714748 -0.0079 0
0.352822 0.711748 -0.0079 0
0.352733 0.714746 -0.0079 0
0.352734 0.714746 -0.0075 0
0.352736 0.714744 -0.0075 0
0.352736 0.714743 -0.0082 0
0.352737 0.714741 -0.0082 0
0.352737 0.714741 -0.0071 0
0.352736 0.71474 -0.0071 0
0.352736 0.714738 -0.0077 0
0.352735 0.714738 -0.0077 0
0.352735 0.714737 -0.0083 0
0.352735 0.714737 -0.0083 0
0.352735 0.714736 -0.0083 0
0.352735 0.714734 -0.0073 0
0.352735 0.714733 -0.0081 0
0.352735 0.714733 -0.0081 0
0.352735 0.714732 -0.0081 0
0.352735 0.714732 -0.008 0
0.35261 0.714754 -0.008 0
0.35261 0.714753 -0.0076 0
0.35261 0.714751 -0.0076 0
0.352609 0.714749 -0.0076 0
0.35261 0.714748 -0.0079 0
0.35261 0.714746 -0.0075 0
0.352609 0.714746 -0.0075 0
0.352609 0.714744 -0.0075 0
0.352609 0.714743 -0.0077 0
0.352609 0.714741 -0.0077 0
0.352609 0.71474 -0.0076 0
0.352609 0.714738 -0.0076 0
0.352609 0.714737 -0.0077 0
0.352609 0.714736 -0.0077 0
0.352608 0.714735 -0.008 0
0.352608 0.714734 -0.008 0
0.352609 0.714733 -0.008 0
0.352698 0.711733 -0.0074 0
0.352608 0.714731 -0.0074 0
0.352608 0.71473 -0.0078 0
0.352608 0.714729 -0.0078 0
0.352608 0.714728 -0.008 0
0.352608 0.714727 -0.008 0
0.352608 0.714726 -0.0078 0
0.352608 0.714724 -0.0078 0
0.352609 0.714723 -0.0078 0
0.352733 0.7147 -0.0081 0
0.352763 0.713698 -0.0073 0
0.352734 0.714697 -0.0073 0
0.352734 0.714695 -0.0073 0
0.352734 0.714694 -0.0081 0
0.352733 0.714692 -0.0081 0
0.352733 0.714691 -0.0077 0
0.352732 0.714689 -0.0077 0
0.352608 0.714712 -0.0077 0
0.352608 0.714711 -0.008 0
0.352732 0.714687 -0.0079 0
0.352733 0.714685 -0.0079 0
0.352733 0.714685 -0.0079 0
0.352733 0.714684 -0.0076 0
0.352733 0.714684 -0.0076 0
0.352822 0.711684 -0.0078 0
0.352734 0.71468 -0.0078 0
0.352734 0.714678 -0.0079 0
0.352733 0.714677 -0.0079 0
0.352733 0.714676 -0.0076 0
0.352732 0.714675 -0.0076 0
0.352732 0.714675 -0.0082 0
0.352732 0.714673 -0.0082 0
0.352732 0.714672 -0.0076 0
0.352733 0.71467 -0.0076 0
0.352733 0.714668 -0.0076 0
0.352732 0.714667 -0.0075 0
0.352731 0.714665 -0.0079 0
0.352731 0.714664 -0.0079 0
0.35273 0.714664 -0.0079 0
0.352729 0.714662 -0.0076 0
0.352729 0.714662 -0.0076 0
0.352729 0.714662 -0.0081 0
0.352729 0.714661 -0.0081 0
0.352729 0.71466 -0.0077 0
0.352729 0.714659 -0.0077 0
0.352728 0.714659 -0.0077 0
0.352728 0.714659 -0.0077 0
0.352727 0.714658 -0.0077 0
0.352727 0.714657 -0.0077 0
0.352726 0.714657 -0.0077 0
0.352725 0.714656 -0.0079 0
0.352724 0.714655 -0.0079 0
0.352724 0.714654 -0.0078 0
0.352724 0.714653 -0.0078 0
0.352724 0.714653 -0.0078 0
0.352723 0.714652 -0.0078 0
0.352723 0.71465 -0.0078 0
0.352722 0.714649 -0.0079 0
0.352722 0.714648 -0.0079 0
0.352721 0.714647 -0.0076 0
0.352721 0.714646 -0.0076 0
0.35272 0.714645 -0.0075 0
0.35272 0.714644 -0.0075 0
0.35272 0.714643 -0.0085 0
0.35272 0.714641 -0.0085 0
0.352719 0.71464 -0.0079 0
0.352719 0.714639 -0.0079 0
0.352719 0.714637 -0.0076 0
0.352719 0.714636 -0.0076 0
0.352719 0.714635 -0.0079 0
0.352719 0.714634 -0.0079 0
0.352685 0.711659 -0.0073 0
0.352596 0.714657 -0.0073 0
0.352719 0.714633 -0.0078 0
0.35272 0.714633 -0.0078 0
0.35272 0.714631 -0.0077 0
0.35272 0.71463 -0.0077 0
0.352719 0.714629 -0.0077 0
0.352719 0.714628 -0.008 0
0.35272 0.714628 -0.008 0
0.35272 0.714627 -0.0078 0
0.35272 0.714626 -0.0078 0
0.35272 0.714625 -0.0076 0
0.352719 0.714624 -0.0076 0
0.352719 0.714622 -0.0079 0
0.352719 0.714621 -0.0079 0
0.352718 0.714621 -0.0076 0
0.352719 0.71462 -0.0076 0
0.352718 0.714619 -0.008 0
0.352718 0.714618 -0.008 0
0.352718 0.714618 -0.0077 0
0.352717 0.714617 -0.0079 0
0.352717 0.714616 -0.0079 0
0.352718 0.714616 -0.0079 0
0.352717 0.714615 -0.0074 0
0.352717 0.714615 -0.0074 0
0.352718 0.714614 -0.0075 0
0.352719 0.714613 -0.008 0
0.352719 0.714612 -0.008 0
0.352807 0.711612 -0.008 0
0.352719 0.714607 -0.0079 0
0.352719 0.714606 -0.0079 0
0.352719 0.714605 -0.0072 0
0.352719 0.714605 -0.0072 0
0.352719 0.714604 -0.008 0
0.35272 0.714601 -0.008 0
0.35272 0.7146 -0.0076 0
0.35272 0.714599 -0.0076 0
0.35272 0.714598 -0.0082 0
0.35272 0.714598 -0.0082 0
0.35272 0.714597 -0.0082 0
0.35272 0.714596 -0.0073 0
0.35272 0.714595 -0.0073 0
0.352719 0.714593 -0.0079 0
0.352719 0.714591 -0.0079 0
0.352719 0.71459 -0.0075 0
0.352718 0.714588 -0.0075 0
0.352719 0.714587 -0.0076 0
0.352719 0.714585 -0.0076 0
0.352717 0.714583 -0.0079 0
0.352716 0.714581 -0.0079 0
0.352715 0.714581 -0.0078 0
0.352714 0.714579 -0.0078 0
0.352714 0.714578 -0.0079 0
0.352713 0.714577 -0.0079 0
0.352713 0.714576 -0.0076 0
0.352712 0.714575 -0.0076 0
0.352712 0.714575 -0.0076 0
0.352712 0.714575 -0.008 0
0.352712 0.714574 -0.008 0
0.352712 0.714572 -0.0074 0
0.352712 0.714572 -0.0074 0
0.352712 0.714571 -0.008 0
0.352712 0.714571 -0.008 0
0.352712 0.714571 -0.0075 0
0.352711 0.714571 -0.0075 0
0.352711 0.714571 -0.0077 0
0.352711 0.714571 -0.0077 0
0.352711 0.714571 -0.0076 0
0.352711 0.71457 -0.0076 0
0.352712 0.714569 -0.0076 0
0.352712 0.714568 -0.0076 0
0.352713 0.714566 -0.0076 0
0.352714 0.714565 -0.0076 0
0.352714 0.714563 -0.0076 0
0.352714 0.714561 -0.0076 0
0.352714 0.714559 -0.0075 0
0.352713 0.714558 -0.0075 0
0.352713 0.714557 -0.0075 0
0.352589 0.714579 -0.0079 0
0.352588 0.714578 -0.0079 0
0.352588 0.714577 -0.0079 0
0.352528 0.716574 -0.0075 0
0.352588 0.714574 -0.0075 0
0.352588 0.714573 -0.0075 0
0.352587 0.714573 -0.0075 0
0.352587 0.714572 -0.0075 0
0.352586 0.714571 -0.0075 0
0.352709 0.714547 -0.0081 0
0.352586 0.714571 -0.0081 0
0.352586 0.71457 -0.0081 0
0.352585 0.714569 -0.0076 0
0.352705 0.714543 -0.0082 0
0.352713 0.714542 -0.0082 0
0.352857 0.714518 -0.0082 0
0.353504 0.714398 0.0058 0
0.353729 0.714345 0.0423 0
0.354072 0.714267 0.0423 0
0.354353 0.71319 -0.0075 0
0.354385 0.713166 -0.0075 0
0.354416 0.713145 0.0278 0
0.354296 0.713167 0.0278 0
0.35415 0.713226 0.0278 0
0.353665 0.713364 -0.0021 0
0.353527 0.713401 0.003 0
0.353539 0.712411 0.003 0
0.353525 0.712417 0.003 0
0.35351 0.712431 -0.0108 0
0.353507 0.712436 -0.0088 0
0.353383 0.712463 -0.0088 0
0.35326 0.712486 -0.0084 0
0.353296 0.711487 -0.0084 0
0.353031 0.712533 -0.0022 0
0.352948 0.711553 -0.0022 0
0.352698 0.711594 0.0043 0
0.352541 0.71261 0.0043 0
0.352564 0.711604 -0.0063 0
0.352071 0.711684 -0.0063 0
0.352044 0.712672 -0.000799997 0
0.351928 0.712684 -0.000799997 0
0.351938 0.71268 -0.0059 0
0.351968 0.711687 -0.0059 0
0.351967 0.711697 -0.0068 0
0.351969 0.711706 -0.0068 0
0.351969 0.711711 -0.0023 0
0.351967 0.711715 -0.0023 0
0.351966 0.711715 -0.0058 0
0.351967 0.711714 -0.0058 0
0.351969 0.711712 -0.0049 0
0.351972 0.711715 -0.0049 0
0.351973 0.711715 -0.0019 0
0.351975 0.711715 -0.0019 0
0.351978 0.711713 -0.0043 0
0.351978 0.711712 -0.0043 0
0.351948 0.712712 -0.0047 0
0.35198 0.711714 -0.0047 0
0.351979 0.711714 -0.0023 0
0.351978 0.711716 -0.0023 0
0.351976 0.711716 -0.0023 0
0.351942 0.712716 -0.0046 0
0.35197 0.711717 -0.0046 0
0.351972 0.71172 -0.0073 0
0.351974 0.711723 -0.0073 0
0.351973 0.711722 -0.0026 0
0.351975 0.711722 -0.0026 0
0.351977 0.71172 -0.0043 0
0.351979 0.711717 -0.0043 0
0.35198 0.711716 -0.0043 0
0.35198 0.711712 -0.0042 0
0.351979 0.711711 -0.0021 0
0.351978 0.71171 -0.0021 0
0.351977 0.711709 -0.0021 0
0.351977 0.711706 -0.008 0
0.351977 0.711707 -0.0051 0
0.351977 0.711708 -0.0051 0
0.351978 0.711708 -0.0051 0
0.351978 0.711707 -0.0063 0
0.351978 0.711705 -0.0068 0
0.351979 0.711703 -0.0068 0
0.35198 0.711702 -0.0068 0
0.351981 0.711702 -0.0024 0
0.351983 0.711702 -0.0053 0
0.351984 0.711703 -0.0053 0
0.351983 0.711702 -0.0053 0
0.351954 0.712701 -0.0056 0
0.351985 0.7117 -0.0056 0
0.351986 0.711698 -0.0042 0
0.351986 0.711698 -0.0042 0
0.351987 0.711697 -0.0067 0
0.351987 0.711697 -0.0067 0
0.351986 0.711697 -0.0041 0
0.351988 0.711696 -0.0041 0
0.351987 0.711695 -0.0038 0
0.351987 0.711694 -0.0038 0
0.351987 0.711694 -0.0052 0
0.351988 0.711691 -0.0052 0
0.351988 0.711691 -0.0059 0
0.351987 0.71169 -0.0059 0
0.351985 0.711689 -0.0054 0
0.351986 0.711692 -0.0054 0
0.351987 0.711693 -0.0067 0
0.351985 0.711691 -0.0038 0
0.351983 0.711689 -0.0038 0
0.351947 0.712683 -0.0038 0
0.351978 0.711681 -0.0027 0
0.351978 0.711679 -0.0027 0
0.351985 0.711682 -0.0043 0
0.351955 0.712682 -0.0043 0
0.351986 0.711682 -0.0063 0
0.351955 0.712677 -0.0022 0
0.351987 0.711677 -0.0022 0
0.351986 0.711675 -0.0022 0
0.351984 0.711673 -0.0034 0
0.351951 0.712672 -0.0034 0
0.351952 0.712669 -0.007 0
0.351983 0.711669 -0.007 0
0.351983 0.711669 -0.0036 0
0.351952 0.712668 -0.0036 0
0.351951 0.712667 -0.0042 0
0.352044 0.709668 -0.0042 0
0.351982 0.711665 -0.0048 0
0.351981 0.711664 -0.0048 0
0.351948 0.712663 -0.0069 0
0.351978 0.711663 -0.0069 0
0.351854 0.711686 -0.0076 0
0.351978 0.711661 -0.0076 0
0.351948 0.71266 -0.0023 0
0.351981 0.711662 -0.0023 0
0.351983 0.711662 -0.0023 0
0.351991 0.711663 -0.0039 0
0.351992 0.711663 -0.0061 0
0.351993 0.711662 -0.0061 0
0.351989 0.711659 -0.0047 0
0.351988 0.711659 -0.0047 0
0.351988 0.711657 -0.0056 0
0.351986 0.711656 -0.0056 0
0.351984 0.711655 -0.0025 0
0.351954 0.712654 -0.0025 0
0.351987 0.711653 -0.0066 0
0.351984 0.711653 -0.0066 0
0.351983 0.711654 -0.000699998 0
0.351983 0.711653 -0.000699998 0
0.351983 0.711652 -0.0055 0
0.351981 0.711647 -0.0055 0
0.351981 0.711647 -0.004 0
0.351981 0.711647 -0.004 0
0.351981 0.711645 -0.0054 0
0.35195 0.712644 -0.0054 0
0.35198 0.711645 -0.0022 0
0.351979 0.711644 -0.0022 0
0.351979 0.711643 -0.0028 0
0.351946 0.712641 -0.0028 0
0.35721 0.541721 -0.0028 0
0.351976 0.71164 -0.0015 0
0.351975 0.711638 -0.0015 0
0.351976 0.711636 -0.003 0
0.351977 0.711635 -0.003 0
0.351977 0.711634 -0.0045 0
0.35198 0.711635 -0.0045 0
0.35198 0.711636 -0.0062 0
0.352043 0.709637 -0.0062 0
0.351982 0.711635 -0.0062 0
0.351984 0.711634 -0.0055 0
0.351985 0.711635 -0.0055 0
0.351985 0.711635 -0.0048 0
0.351985 0.711634 -0.0048 0
0.351984 0.711633 -0.0048 0
0.351983 0.711631 -0.0069 0
0.351981 0.711629 -0.0069 0
0.351978 0.711626 -0.0036 0
0.351977 0.711625 -0.0036 0
0.351979 0.711624 -0.0036 0
0.351977 0.711624 -0.0012 0
0.351977 0.711621 -0.0012 0
0.351977 0.711621 -0.0059 0
0.351976 0.711621 -0.0059 0
0.351979 0.711622 -0.0035 0
0.351977 0.711619 -0.0035 0
0.351969 0.711616 -0.004 0
0.353255 0.669633 -0.004 0
0.351955 0.711613 -0.004 0
0.351894 0.71161 -0.0038 0
0.351738 0.712605 -0.0038 0
0.351613 0.7116 -0.0072 0
0.351391 0.712592 -0.0072 0
0.351168 0.711582 -0.0072 0
0.350519 0.711585 -0.0051 0
0.350217 0.711572 -0.0067 0
0.349891 0.711559 -0.0067 0
0.349897 0.700553 -0.0067 0
0.349215 0.711537 -0.0073 0
0.348555 0.709595 -0.0073 0
0.347985 0.711606 -0.0069 0
0.34745 0.711615 -0.0069 0
0.346464 0.711606 -0.0047 0
0.345648 0.711659 -0.0047 0
0.345191 0.711644 -0.0067 0
0.344583 0.711653 -0.0067 0
0.34334 0.71167 -0.0063 0
0.34273 0.710676 -0.0063 0
0.342042 0.711684 -0.0077 0
0.341388 0.711694 -0.0077 0
0.340622 0.710732 -0.0077 0
0.338849 0.710828 -0.0021 0
0.338122 0.710836 -0.0033 0
0.337278 0.709862 -0.0033 0
0.336495 0.709863 -0.0033 0
0.334943 0.708859 -0.0032 0
0.334078 0.709852 -0.0077 0
0.333227 0.709844 -0.0077 0
0.332523 0.708814 -0.0077 0
0.331708 0.706806 -0.0024 0
0.330048 0.708735 -0.0046 0
0.32923 0.70871 -0.0046 0
0.328009 0.708754 -0.0046 0
0.327091 0.670836 -0.003 0
0.326011 0.669851 0.000200002 0
0.325022 0.668846 0.000200002 0
0.322488 0.667931 -0.0031 0
0.32128 0.66794 -0.0031 0
0.320061 0.667944 -0.0067 0
0.317673 0.667919 -0.0067 0
0.316573 0.66689 -0.0062 0
0.31549 0.666835 -0.0062 0
0.31427 0.666806 -0.0049 0
0.311906 0.665725 -0.0049 0
0.310663 0.664699 -0.0041 0
0.309425 0.665645 -0.0041 0
0.307009 0.664536 -0.0024 0
0.305722 0.664485 -0.0024 0
0.304261 0.663484 -0.0027 0
0.302788 0.662483 -0.0027 0
0.299806 0.662452 -0.0026 0
0.298212 0.662441 -0.0026 0
0.296507 0.66145 -0.0037 0
0.293304 0.661383 -0.007 0
0.291662 0.660354 -0.007 0
0.290078 0.6603 -0.007 0
0.288457 0.660242 -0.0066 0
0.28697 0.659157 -0.0066 0
0.285374 0.659095 -0.0085 0
0.283824 0.659017 -0.0085 0
0.282402 0.658914 -0.0085 0
0.279608 0.658672 -0.0029 0
0.278356 0.658516 -9.99989e-05 0
0.277075 0.658362 -9.99989e-05 0
0.274758 0.657983 -0.0026 0
0.273559 0.658781 -0.0026 0
0.272314 0.6576 -0.0036 0
0.27112 0.658398 -0.0036 0
0.269118 0.657898 -0.0042 0
0.26778 0.659698 -0.0042 0
0.266256 0.65955 -0.0026 0
0.264703 0.659409 -0.0026 0
0.264049 0.659097 -0.0026 0
0.261058 0.658797 -0.0087 0
0.259502 0.659642 -0.0097 0
0.257852 0.659508 -0.0097 0
0.256376 0.659358 -0.0097 0
0.252997 0.659093 -0.004 0
0.251231 0.658997 -0.0099 0
0.249394 0.657902 -0.0099 0
0.247579 0.65878 -0.0099 0
0.243815 0.65854 -0.0061 0
0.242085 0.658373 -0.0041 0
0.240417 0.658176 -0.0041 0
0.238206 0.659101 -0.0041 0
0.234551 0.696583 -0.0025 0
0.232792 0.698406 -0.0021 0
0.231031 0.699229 -0.0021 0
0.227722 0.698825 -0.0071 0
0.225947 0.697651 -0.0071 0
0.224128 0.69848 -0.0045 0
0.222307 0.698312 -0.0045 0
0.218573 0.697985 -0.008 0
0.216613 0.697853 -0.008 0
0.214436 0.698743 -0.0089 0
0.212365 0.6986 -0.0089 0
0.210491 0.697439 -0.0089 0
0.209078 0.620332 -0.0014 0
0.206132 0.697187 -0.0014 0
0.203606 0.69713 -0.0094 0
0.201538 0.697968 -0.0094 0
0.199344 0.696832 -0.0094 0
0.196738 0.697776 -0.0063 0
0.191993 0.696562 -0.0042 0
0.189451 0.696491 -0.0042 0
0.186884 0.697422 -0.0042 0
0.184402 0.697357 -0.004 0
0.181828 0.69729 -0.004 0
0.179505 0.696166 0.0032 0
0.176323 0.696701 0.0032 0
0.174913 0.696495 -0.0053 0
0.173389 0.696344 -0.0053 0
0.171901 0.697215 0.0005 0
0.168478 0.696173 0.0005 0
0.166857 0.696189 0.0007 0
0.165481 0.69618 0.0007 0
0.164338 0.696148 -0.0036 0
0.162108 0.696143 -0.0036 0
0.16113 0.696143 -0.0021 0
0.160115 0.697171 -0.0021 0
0.159289 0.697169 -0.0026 0
0.158534 0.696166 -0.0026 0
0.157839 0.697163 -0.0026 0
0.156501 0.697186 -0.0037 0
0.15597 0.696182 -0.0014 0
0.155486 0.696177 -0.0014 0
0.154761 0.696143 -0.0051 0
0.154388 0.69614 -0.0051 0
0.154048 0.696139 -0.0052 0
0.153739 0.697138 -0.0052 0
0.153454 0.696137 -0.0052 0
0.153192 0.697135 -0.0029 0
0.152952 0.697133 -0.0029 0
0.152734 0.697131 -0.0064 0
0.152534 0.696127 -0.0064 0
0.152355 0.696123 -0.0064 0
0.152198 0.697119 -0.0076 0
0.152044 0.696117 -0.0076 0
0.151778 0.69611 -0.0066 0
0.151663 0.696106 -0.0066 0
0.151531 0.657101 -0.0026 0
0.151465 0.696097 -0.0026 0
0.151267 0.518096 -0.0018 0
