ply
format ascii 1.0
element vertex 1725
property float x
property float y
property float z
property float intensity
end_header
0.280007 0.7098 -0.0055 0
0.280006 0.709798 -0.0057 0
0.280006 0.709796 -0.0057 0
0.280005 0.709794 -0.0057 0
0.280004 0.709792 -0.0058 0
0.280003 0.70979 -0.0058 0
0.280002 0.70979 -0.0059 0
0.280002 0.709789 -0.0059 0
0.280002 0.709787 -0.0059 0
0.280002 0.709785 -0.0055 0
0.280001 0.709784 -0.0066 0
0.280001 0.709783 -0.0066 0
0.28 0.709782 -0.0066 0
0.28 0.709781 -0.0052 0
0.279999 0.70978 -0.0052 0
0.280122 0.709752 -0.0056 0
0.280123 0.709752 -0.0056 0
0.280123 0.709751 -0.0056 0
0.280123 0.70975 -0.0058 0
0.280124 0.709749 -0.0058 0
0.280124 0.709747 -0.0055 0
0.280124 0.709746 -0.0055 0
0.280123 0.709745 -0.0055 0
0.280123 0.709745 -0.006 0
0.280122 0.709744 -0.006 0
0.280122 0.709743 -0.0059 0
0.280121 0.709742 -0.0059 0
0.280121 0.709741 -0.0056 0
0.280121 0.70974 -0.0056 0
0.279999 0.709766 -0.006 0
0.279999 0.709766 -0.006 0
0.279998 0.709765 -0.006 0
0.279997 0.709763 -0.0054 0
0.279996 0.709763 -0.0054 0
0.279995 0.709762 -0.0054 0
0.279995 0.709761 -0.0054 0
0.279994 0.709759 -0.0054 0
0.279994 0.709758 -0.0058 0
0.279994 0.709757 -0.0058 0
0.279995 0.709756 -0.0059 0
0.279995 0.709756 -0.0059 0
0.280119 0.709729 -0.0058 0
0.280119 0.709729 -0.0058 0
0.28012 0.709728 -0.0058 0
0.28012 0.709726 -0.0057 0
0.28012 0.709725 -0.0057 0
0.279997 0.709748 -0.0052 0
0.279997 0.709747 -0.0052 0
0.279996 0.709745 -0.0056 0
0.280119 0.709717 -0.0056 0
0.280118 0.709716 -0.0061 0
0.280118 0.709714 -0.0061 0
0.280117 0.709712 -0.0061 0
0.280117 0.709711 -0.0062 0
0.280117 0.709709 -0.0062 0
0.280117 0.709708 -0.0056 0
0.280117 0.709706 -0.0056 0
0.280117 0.709702 -0.0055 0
0.280116 0.709701 -0.0055 0
0.280116 0.709699 -0.0064 0
0.280115 0.709698 -0.0064 0
0.280114 0.709697 -0.0064 0
0.280114 0.709696 -0.0054 0
0.280114 0.709695 -0.0054 0
0.280113 0.709692 -0.0061 0
0.279989 0.709717 -0.0061 0
0.279988 0.709716 -0.0056 0
0.280111 0.709689 -0.0056 0
0.279987 0.709714 -0.006 0
0.279986 0.709712 -0.006 0
0.279986 0.709711 -0.006 0
0.279985 0.709711 -0.0058 0
0.279985 0.70971 -0.0058 0
0.279984 0.709708 -0.0055 0
0.279984 0.709707 -0.0055 0
0.279984 0.709705 -0.006 0
0.279984 0.709704 -0.006 0
0.279984 0.709703 -0.0055 0
0.279983 0.709702 -0.0055 0
0.279983 0.709699 -0.0056 0
0.279984 0.709698 -0.0056 0
0.279984 0.709696 -0.0056 0
0.279983 0.709695 -0.0059 0
0.279982 0.709694 -0.0059 0
0.279981 0.709693 -0.0058 0
0.280103 0.709665 -0.0057 0
0.280009 0.70669 -0.0057 0
0.27998 0.709689 -0.0057 0
0.279979 0.709688 -0.0057 0
0.279978 0.709687 -0.0057 0
0.279978 0.709685 -0.0055 0
0.279977 0.709684 -0.0055 0
0.279977 0.709683 -0.0055 0
0.279978 0.709681 -0.0062 0
0.279978 0.70968 -0.006 0
0.279978 0.709679 -0.006 0
0.279977 0.709678 -0.006 0
0.279977 0.709677 -0.0051 0
0.279977 0.709675 -0.0051 0
0.279977 0.709674 -0.0062 0
0.279977 0.709674 -0.0062 0
0.279977 0.709673 -0.0059 0
0.279977 0.709673 -0.0059 0
0.279977 0.709673 -0.0059 0
0.279977 0.709673 -0.005 0
0.279976 0.709672 -0.005 0
0.279976 0.709672 -0.0059 0
0.279976 0.709671 -0.0059 0
0.279976 0.70967 -0.0056 0
0.279977 0.709669 -0.0056 0
0.279978 0.709669 -0.0055 0
0.279978 0.709668 -0.0055 0
0.279978 0.709668 -0.0054 0
0.279978 0.709668 -0.0054 0
0.279978 0.709668 -0.0059 0
0.279978 0.709668 -0.0059 0
0.279977 0.709668 -0.0056 0
0.279976 0.709666 -0.0056 0
0.279976 0.709666 -0.0059 0
0.279985 0.708665 -0.0059 0
0.279975 0.709663 -0.0059 0
0.279975 0.709661 -0.0059 0
0.279974 0.70966 -0.0057 0
0.279974 0.709658 -0.0057 0
0.279973 0.709658 -0.0057 0
0.279973 0.709658 -0.0055 0
0.279972 0.709656 -0.0055 0
0.279972 0.709656 -0.0055 0
0.279972 0.709656 -0.0055 0
0.279972 0.709655 -0.0055 0
0.279971 0.709654 -0.0055 0
0.279971 0.709653 -0.0056 0
0.279972 0.709651 -0.0056 0
0.279972 0.70965 -0.0057 0
0.279972 0.709648 -0.0057 0
0.279971 0.709647 -0.0057 0
0.279971 0.709646 -0.0061 0
0.279971 0.709644 -0.0061 0
0.27997 0.709643 -0.0055 0
0.27997 0.709642 -0.0055 0
0.27997 0.70964 -0.0059 0
0.27997 0.709639 -0.0059 0
0.27997 0.709638 -0.0053 0
0.27997 0.709638 -0.0053 0
0.27997 0.709637 -0.0053 0
0.27998 0.708635 -0.0056 0
0.27997 0.709634 -0.0056 0
0.27997 0.709634 -0.006 0
0.27997 0.709633 -0.006 0
0.280094 0.709606 -0.0055 0
0.280093 0.709605 -0.0055 0
0.280093 0.709603 -0.0054 0
0.280093 0.709603 -0.0054 0
0.280092 0.709602 -0.0054 0
0.280093 0.7096 -0.0058 0
0.280093 0.7096 -0.0058 0
0.280093 0.709597 -0.0055 0
0.280093 0.709597 -0.0055 0
0.280093 0.709596 -0.0058 0
0.280094 0.709595 -0.0058 0
0.280093 0.709595 -0.0058 0
0.280092 0.709594 -0.0059 0
0.280111 0.707593 -0.0059 0
0.280091 0.709591 -0.0055 0
0.280091 0.70959 -0.006 0
0.280091 0.70959 -0.006 0
0.28009 0.709589 -0.006 0
0.28009 0.709588 -0.0053 0
0.28009 0.709587 -0.0053 0
0.280089 0.709585 -0.0058 0
0.280087 0.709584 -0.0058 0
0.280087 0.709583 -0.0057 0
0.280088 0.709582 -0.0057 0
0.280088 0.709581 -0.0057 0
0.280088 0.70958 -0.0057 0
0.280088 0.709579 -0.0057 0
0.280087 0.709579 -0.006 0
0.280087 0.709578 -0.006 0
0.279964 0.709602 -0.0053 0
0.279963 0.709602 -0.0053 0
0.279963 0.709601 -0.0053 0
0.279973 0.7086 -0.0059 0
0.279964 0.7096 -0.0059 0
0.279964 0.709598 -0.0046 0
0.279974 0.708598 -0.0046 0
0.279965 0.709597 -0.0046 0
0.279966 0.709596 -0.0064 0
0.279967 0.709595 -0.0064 0
0.279967 0.709593 -0.0059 0
0.279967 0.709592 -0.0059 0
0.279967 0.709592 -0.0058 0
0.279967 0.70959 -0.0058 0
0.279967 0.70959 -0.0057 0
0.279967 0.709587 -0.0057 0
0.279967 0.709587 -0.005 0
0.279967 0.709586 -0.005 0
0.279967 0.709585 -0.0052 0
0.279966 0.709585 -0.0052 0
0.279967 0.709583 -0.0052 0
0.279967 0.709583 -0.0062 0
0.279967 0.709582 -0.0062 0
0.279967 0.709581 -0.0062 0
0.279967 0.70958 -0.0061 0
0.279967 0.709578 -0.0059 0
0.279967 0.709578 -0.0059 0
0.279967 0.709577 -0.0055 0
0.279967 0.709575 -0.0055 0
0.279967 0.709575 -0.0055 0
0.279966 0.709574 -0.0055 0
0.279965 0.709573 -0.0058 0
0.279964 0.709573 -0.0058 0
0.279964 0.709572 -0.0058 0
0.279963 0.709571 -0.0062 0
0.279963 0.709571 -0.0062 0
0.279963 0.709571 -0.0057 0
0.279963 0.70957 -0.0057 0
0.279962 0.709569 -0.0057 0
0.279962 0.709569 -0.0056 0
0.279962 0.709566 -0.0056 0
0.279962 0.709565 -0.0052 0
0.279962 0.709565 -0.0052 0
0.279962 0.709564 -0.0056 0
0.279961 0.709563 -0.0056 0
0.279971 0.708563 -0.0054 0
0.279961 0.709562 -0.0054 0
0.279961 0.709561 -0.0054 0
0.27996 0.70956 -0.0058 0
0.279959 0.709559 -0.0058 0
0.279959 0.709558 -0.0054 0
0.279957 0.709557 -0.0054 0
0.279956 0.709557 -0.0053 0
0.279956 0.709557 -0.0053 0
0.279955 0.709556 -0.0057 0
0.279975 0.707556 -0.0057 0
0.279955 0.709555 -0.0057 0
0.279955 0.709554 -0.0058 0
0.279954 0.709553 -0.0058 0
0.279954 0.709551 -0.0056 0
0.279953 0.709551 -0.0056 0
0.279953 0.709551 -0.0058 0
0.279952 0.709551 -0.0058 0
0.279951 0.709551 -0.0053 0
0.279951 0.709549 -0.0053 0
0.279951 0.709549 -0.0055 0
0.279951 0.709548 -0.0055 0
0.279951 0.709547 -0.006 0
0.27995 0.709546 -0.006 0
0.280072 0.70952 -0.0056 0
0.280072 0.709519 -0.0056 0
0.2801 0.706519 -0.0057 0
0.279948 0.709543 -0.0057 0
0.279948 0.709541 -0.0057 0
0.280071 0.709514 -0.0057 0
0.280071 0.709513 -0.0053 0
0.280071 0.709512 -0.0053 0
0.280072 0.709511 -0.0053 0
0.280072 0.709509 -0.0059 0
0.280072 0.709507 -0.0055 0
0.280072 0.709506 -0.0055 0
0.280073 0.709504 -0.0055 0
0.280073 0.709503 -0.0058 0
0.280074 0.709502 -0.0058 0
0.280074 0.709501 -0.0056 0
0.280075 0.7095 -0.0056 0
0.280075 0.709498 -0.0057 0
0.280075 0.709496 -0.0057 0
0.280075 0.709496 -0.0055 0
0.280075 0.709495 -0.0055 0
0.280077 0.709492 -0.0056 0
0.280077 0.709491 -0.0056 0
0.280077 0.709491 -0.0059 0
0.280078 0.709489 -0.0059 0
0.280078 0.709487 -0.0062 0
0.280077 0.709486 -0.0062 0
0.280077 0.709484 -0.0058 0
0.280078 0.709482 -0.0058 0
0.280078 0.709481 -0.0056 0
0.280078 0.709481 -0.0056 0
0.280079 0.70948 -0.0057 0
0.279956 0.709503 -0.0057 0
0.279956 0.709501 -0.0057 0
0.279956 0.7095 -0.0057 0
0.279956 0.709499 -0.006 0
0.279956 0.709496 -0.006 0
0.279956 0.709495 -0.0058 0
0.279956 0.709494 -0.0058 0
0.279956 0.709493 -0.0058 0
0.279955 0.70949 -0.0056 0
0.279955 0.709489 -0.0053 0
0.279955 0.709487 -0.0053 0
0.279955 0.709486 -0.0056 0
0.279956 0.709485 -0.0056 0
0.279956 0.709484 -0.0056 0
0.279956 0.709483 -0.0056 0
0.279957 0.709483 -0.0056 0
0.279957 0.709483 -0.0055 0
0.279957 0.709482 -0.0055 0
0.279957 0.70948 -0.0055 0
0.279956 0.70948 -0.0054 0
0.280078 0.709453 -0.0054 0
0.279955 0.709478 -0.0059 0
0.279955 0.709477 -0.0059 0
0.279956 0.709477 -0.0058 0
0.279956 0.709478 -0.0058 0
0.279956 0.709477 -0.0059 0
0.280079 0.709451 -0.0059 0
0.280079 0.70945 -0.0059 0
0.280079 0.70945 -0.0058 0
0.279956 0.709476 -0.0058 0
0.279955 0.709477 -0.0058 0
0.279955 0.709477 -0.0058 0
0.279955 0.709477 -0.0059 0
0.280077 0.70945 -0.0059 0
0.280078 0.70945 -0.0055 0
0.280078 0.709449 -0.0055 0
0.280078 0.709449 -0.0055 0
0.28008 0.709447 -0.0058 0
0.28009 0.708446 -0.0058 0
0.28008 0.709446 -0.0054 0
0.280081 0.709445 -0.0054 0
0.280081 0.709443 -0.0055 0
0.280081 0.709441 -0.006 0
0.280081 0.70944 -0.006 0
0.27996 0.709466 -0.0051 0
0.279961 0.709465 -0.0051 0
0.279961 0.709464 -0.0051 0
0.27996 0.709462 -0.0056 0
0.279959 0.709461 -0.006 0
0.279959 0.70946 -0.006 0
0.279958 0.709459 -0.0058 0
0.28008 0.709432 -0.0058 0
0.280079 0.70943 -0.0059 0
0.280088 0.708429 -0.0059 0
0.280078 0.709428 -0.0059 0
0.280077 0.709426 -0.0059 0
0.280077 0.709424 -0.0058 0
0.280077 0.709422 -0.0058 0
0.280077 0.70942 -0.0055 0
0.280076 0.709418 -0.0055 0
0.280075 0.709414 -0.0056 0
0.280074 0.709413 -0.0056 0
0.280073 0.709411 -0.0055 0
0.280072 0.709408 -0.0055 0
0.280072 0.709406 -0.0054 0
0.280072 0.709404 -0.0054 0
0.280071 0.709403 -0.0053 0
0.280071 0.709402 -0.0053 0
0.28007 0.7094 -0.0053 0
0.279946 0.709425 -0.0054 0
0.279945 0.709422 -0.0054 0
0.279945 0.70942 -0.0056 0
0.279944 0.709417 -0.0056 0
0.279944 0.709415 -0.0057 0
0.279943 0.709413 -0.0057 0
0.280067 0.709384 -0.0058 0
0.280067 0.709383 -0.0058 0
0.280067 0.709382 -0.0055 0
0.280067 0.70938 -0.0055 0
0.280067 0.709379 -0.0049 0
0.280068 0.709378 -0.0049 0
0.280068 0.709377 -0.0057 0
0.280068 0.709376 -0.0057 0
0.280068 0.709375 -0.0058 0
0.280068 0.709375 -0.0058 0
0.279945 0.7094 -0.0054 0
0.279945 0.709399 -0.0056 0
0.279946 0.709398 -0.0056 0
0.279946 0.709397 -0.0056 0
0.279946 0.709395 -0.0059 0
0.280069 0.709368 -0.0056 0
0.280069 0.709368 -0.0056 0
0.280068 0.709367 -0.0056 0
0.280067 0.709366 -0.0058 0
0.280067 0.709364 -0.0058 0
0.280067 0.709363 -0.0058 0
0.280066 0.709361 -0.0058 0
0.280067 0.709361 -0.0058 0
0.280067 0.70936 -0.0056 0
0.280067 0.709359 -0.0056 0
0.280067 0.709357 -0.0056 0
0.280067 0.709356 -0.0055 0
0.280067 0.709356 -0.0055 0
0.280066 0.709355 -0.0055 0
0.280066 0.709355 -0.0058 0
0.280066 0.709354 -0.0058 0
0.280065 0.709353 -0.0058 0
0.280066 0.709351 -0.0058 0
0.280066 0.709348 -0.0055 0
0.280066 0.709347 -0.0055 0
0.280065 0.709347 -0.0059 0
0.280065 0.709346 -0.0059 0
0.280064 0.709346 -0.0051 0
0.280064 0.709345 -0.0051 0
0.280064 0.709344 -0.0051 0
0.280063 0.709344 -0.0054 0
0.280062 0.709343 -0.0054 0
0.280063 0.709342 -0.0055 0
0.280062 0.709341 -0.0055 0
0.280062 0.70934 -0.0059 0
0.280061 0.709339 -0.0059 0
0.28006 0.709338 -0.0059 0
0.280059 0.709338 -0.0057 0
0.280058 0.709337 -0.0057 0
0.280057 0.709336 -0.0057 0
0.280056 0.709335 -0.0057 0
0.280055 0.709334 -0.0055 0
0.280055 0.709333 -0.0055 0
0.280054 0.709332 -0.0054 0
0.280053 0.709331 -0.0054 0
0.280051 0.709331 -0.0059 0
0.28005 0.70933 -0.0059 0
0.28005 0.709329 -0.0057 0
0.280049 0.709328 -0.0057 0
0.280049 0.709326 -0.0057 0
0.280049 0.709326 -0.0057 0
0.280049 0.709325 -0.0056 0
0.279923 0.709349 -0.0053 0
0.279923 0.709348 -0.0053 0
0.279922 0.709346 -0.0053 0
0.28003 0.698346 -0.0059 0
0.279921 0.709344 -0.0059 0
0.279921 0.709344 -0.0059 0
0.27992 0.709343 -0.006 0
0.279919 0.709342 -0.006 0
0.279919 0.709341 -0.0054 0
0.279919 0.70934 -0.0054 0
0.279919 0.709338 -0.0059 0
0.279919 0.709338 -0.0059 0
0.279919 0.709337 -0.0063 0
0.279919 0.709337 -0.0063 0
0.279918 0.709336 -0.0056 0
0.279919 0.709333 -0.0056 0
0.27992 0.709332 -0.0056 0
0.27992 0.70933 -0.0057 0
0.279921 0.70933 -0.0057 0
0.279923 0.709331 -0.0065 0
0.279924 0.709331 -0.0065 0
0.279924 0.70933 -0.0054 0
0.279924 0.70933 -0.0054 0
0.279924 0.70933 -0.0054 0
0.279924 0.709329 -0.0054 0
0.280047 0.709301 -0.0052 0
0.280047 0.7093 -0.0052 0
0.280046 0.709299 -0.0052 0
0.280046 0.709298 -0.0061 0
0.280047 0.709298 -0.0061 0
0.280047 0.709297 -0.0058 0
0.280047 0.709296 -0.0058 0
0.279923 0.709321 -0.0053 0
0.279922 0.709321 -0.0053 0
0.279922 0.709321 -0.0057 0
0.279921 0.709321 -0.0057 0
0.279922 0.709321 -0.0057 0
0.279923 0.70932 -0.0055 0
0.279923 0.709319 -0.0055 0
0.279923 0.709318 -0.0061 0
0.280047 0.709289 -0.0056 0
0.280047 0.709288 -0.0056 0
0.279923 0.709313 -0.0056 0
0.279924 0.709312 -0.0054 0
0.279924 0.709311 -0.0054 0
0.279924 0.70931 -0.006 0
0.279924 0.709307 -0.006 0
0.279925 0.709306 -0.0056 0
0.279926 0.709304 -0.0056 0
0.279926 0.709302 -0.0056 0
0.279927 0.709301 -0.0056 0
0.28005 0.709275 -0.0056 0
0.279927 0.709301 -0.0062 0
0.28004 0.710274 -0.0062 0
0.279927 0.709299 -0.0062 0
0.28005 0.709273 -0.0061 0
0.280051 0.709271 -0.0061 0
0.280051 0.709269 -0.0059 0
0.280051 0.709269 -0.0055 0
0.28007 0.707268 -0.0055 0
0.28005 0.709267 -0.0055 0
0.280051 0.709267 -0.0055 0
0.28005 0.709265 -0.0055 0
0.279927 0.709291 -0.0055 0
0.28005 0.709264 -0.0057 0
0.28005 0.709263 -0.0058 0
0.279927 0.709288 -0.0058 0
0.279927 0.709287 -0.0058 0
0.279927 0.709286 -0.0054 0
0.279927 0.709282 -0.006 0
0.28005 0.709254 -0.006 0
0.280051 0.709253 -0.0052 0
0.280051 0.709252 -0.0052 0
0.280052 0.709252 -0.0052 0
0.280052 0.709251 -0.0064 0
0.280052 0.709249 -0.0064 0
0.280052 0.709248 -0.0058 0
0.280051 0.709244 -0.0058 0
0.280051 0.709243 -0.0056 0
0.280051 0.709243 -0.0056 0
0.28005 0.709243 -0.006 0
0.28005 0.709243 -0.006 0
0.279926 0.709268 -0.006 0
0.279925 0.709267 -0.0055 0
0.279924 0.709265 -0.0055 0
0.279923 0.709264 -0.0056 0
0.279923 0.709263 -0.0056 0
0.279923 0.709263 -0.006 0
0.279923 0.709262 -0.006 0
0.279924 0.709262 -0.006 0
0.279924 0.709262 -0.0056 0
0.279924 0.709261 -0.0058 0
0.279923 0.709261 -0.0058 0
0.279924 0.709259 -0.0058 0
0.279924 0.709257 -0.0054 0
0.279924 0.709256 -0.0054 0
0.279924 0.709255 -0.0058 0
0.279923 0.709253 -0.0059 0
0.279923 0.709252 -0.0059 0
0.279922 0.70925 -0.0057 0
0.279923 0.709249 -0.0057 0
0.279922 0.709248 -0.0056 0
0.279922 0.709245 -0.0056 0
0.279923 0.709244 -0.0053 0
0.279923 0.709243 -0.0053 0
0.279923 0.709242 -0.0057 0
0.279923 0.70924 -0.0057 0
0.279923 0.709239 -0.0057 0
0.279923 0.709238 -0.0057 0
0.279923 0.709237 -0.0053 0
0.279923 0.709236 -0.0053 0
0.279923 0.709235 -0.0054 0
0.279923 0.709234 -0.0054 0
0.279923 0.709233 -0.0057 0
0.279923 0.709232 -0.0057 0
0.279923 0.709232 -0.0054 0
0.279923 0.709232 -0.0054 0
0.279923 0.709231 -0.0059 0
0.279923 0.709231 -0.0059 0
0.279922 0.70923 -0.0053 0
0.279922 0.70923 -0.0053 0
0.279922 0.70923 -0.0053 0
0.279922 0.70923 -0.0053 0
0.279922 0.70923 -0.0058 0
0.279923 0.709229 -0.0058 0
0.279923 0.709228 -0.0058 0
0.279923 0.709227 -0.0057 0
0.279923 0.709226 -0.0057 0
0.279923 0.709225 -0.0053 0
0.279923 0.709222 -0.0053 0
0.279923 0.70922 -0.0055 0
0.279924 0.709219 -0.0055 0
0.279924 0.709218 -0.0055 0
0.279924 0.709217 -0.0054 0
0.279924 0.709217 -0.0054 0
0.279924 0.709216 -0.0054 0
0.279924 0.709215 -0.0058 0
0.279954 0.706213 -0.0058 0
0.279926 0.709212 -0.0058 0
0.279926 0.709211 -0.0058 0
0.279926 0.70921 -0.0057 0
0.279926 0.709209 -0.0057 0
0.279926 0.709209 -0.0057 0
0.279926 0.709208 -0.006 0
0.279926 0.709207 -0.006 0
0.279927 0.709206 -0.0054 0
0.279927 0.709205 -0.006 0
0.279927 0.709204 -0.006 0
0.279927 0.709204 -0.006 0
0.279927 0.709203 -0.0061 0
0.279927 0.709203 -0.0061 0
0.279927 0.709202 -0.0061 0
0.279926 0.709202 -0.0057 0
0.279926 0.7092 -0.0057 0
0.279926 0.709199 -0.0055 0
0.279926 0.709198 -0.0055 0
0.279926 0.709197 -0.0058 0
0.279926 0.709197 -0.0058 0
0.279925 0.709196 -0.0054 0
0.279925 0.709195 -0.0054 0
0.279925 0.709195 -0.0061 0
0.279925 0.709195 -0.0061 0
0.279925 0.709194 -0.0061 0
0.279925 0.709193 -0.0055 0
0.279925 0.709193 -0.0055 0
0.279925 0.709192 -0.0057 0
0.279925 0.709192 -0.0057 0
0.279925 0.709191 -0.0057 0
0.279925 0.709191 -0.0058 0
0.279925 0.70919 -0.0058 0
0.279926 0.70919 -0.0056 0
0.279927 0.709189 -0.0056 0
0.279927 0.709188 -0.0056 0
0.279928 0.709187 -0.0052 0
0.279928 0.709187 -0.0056 0
0.279929 0.709186 -0.0056 0
0.279929 0.709186 -0.0056 0
0.279959 0.706185 -0.0055 0
0.27993 0.709184 -0.0055 0
0.27993 0.709183 -0.0055 0
0.279931 0.709183 -0.0055 0
0.279931 0.709182 -0.0055 0
0.279931 0.709182 -0.0056 0
0.279932 0.70918 -0.0056 0
0.279932 0.709179 -0.0053 0
0.279932 0.709177 -0.0053 0
0.279932 0.709177 -0.0051 0
0.279932 0.709176 -0.0051 0
0.279932 0.709177 -0.0054 0
0.279932 0.709177 -0.0054 0
0.279932 0.709176 -0.0054 0
0.279932 0.709174 -0.0057 0
0.279932 0.709172 -0.0054 0
0.279932 0.709171 -0.0054 0
0.279932 0.709169 -0.0054 0
0.279943 0.708168 -0.0057 0
0.279933 0.709168 -0.0057 0
0.279934 0.709167 -0.0055 0
0.279934 0.709167 -0.0055 0
0.279935 0.709167 -0.0057 0
0.279935 0.709166 -0.0057 0
0.279935 0.709166 -0.0056 0
0.279935 0.709165 -0.0056 0
0.279934 0.709164 -0.0056 0
0.279934 0.709163 -0.0054 0
0.279932 0.709163 -0.0061 0
0.279932 0.709162 -0.0061 0
0.279931 0.70916 -0.0061 0
0.279931 0.709159 -0.0055 0
0.279931 0.709159 -0.0055 0
0.279931 0.709159 -0.006 0
0.27996 0.706159 -0.006 0
0.279931 0.709158 -0.006 0
0.279932 0.709157 -0.0057 0
0.279932 0.709155 -0.0057 0
0.279931 0.709154 -0.0057 0
0.27993 0.709152 -0.0058 0
0.27993 0.70915 -0.0055 0
0.279929 0.709149 -0.0055 0
0.279928 0.709148 -0.0059 0
0.279927 0.709146 -0.0059 0
0.279927 0.709145 -0.0056 0
0.279926 0.709145 -0.0056 0
0.279925 0.709143 -0.0057 0
0.279925 0.709142 -0.0057 0
0.279925 0.709141 -0.006 0
0.279924 0.70914 -0.006 0
0.279923 0.709139 -0.0056 0
0.279923 0.709139 -0.0056 0
0.279921 0.709137 -0.0056 0
0.27994 0.707137 -0.0062 0
0.27992 0.709136 -0.0062 0
0.27994 0.707136 -0.0059 0
0.279921 0.709135 -0.0059 0
0.279921 0.709134 -0.0056 0
0.279921 0.709132 -0.0056 0
0.279921 0.70913 -0.0061 0
0.279921 0.709129 -0.0061 0
0.279921 0.709127 -0.0061 0
0.280043 0.7091 -0.0052 0
0.280043 0.709099 -0.0056 0
0.280043 0.709099 -0.0056 0
0.280043 0.709099 -0.0056 0
0.27992 0.709125 -0.0057 0
0.279919 0.709123 -0.0056 0
0.280042 0.709096 -0.0056 0
0.280043 0.709095 -0.0056 0
0.279922 0.709118 -0.0055 0
0.279923 0.709117 -0.0056 0
0.279923 0.709117 -0.0056 0
0.27952 0.750114 -0.0056 0
0.279925 0.709116 -0.0058 0
0.279935 0.708116 -0.0058 0
0.279924 0.709115 -0.0058 0
0.279924 0.709115 -0.0058 0
0.280046 0.709089 -0.0055 0
0.280046 0.709088 -0.0055 0
0.280045 0.709086 -0.0057 0
0.280045 0.709086 -0.0057 0
0.280045 0.709085 -0.0055 0
0.280046 0.709085 -0.0055 0
0.280047 0.709084 -0.0058 0
0.280047 0.709083 -0.0058 0
0.280047 0.709082 -0.0053 0
0.280046 0.709081 -0.0053 0
0.280046 0.70908 -0.0053 0
0.280046 0.709078 -0.0058 0
0.280046 0.709076 -0.0057 0
0.280045 0.709075 -0.0057 0
0.280045 0.709075 -0.0057 0
0.280044 0.709074 -0.0053 0
0.280044 0.709073 -0.0053 0
0.280044 0.709072 -0.0059 0
0.280043 0.70907 -0.0058 0
0.280044 0.70907 -0.0058 0
0.280045 0.70907 -0.0058 0
0.280045 0.709069 -0.0059 0
0.280046 0.709068 -0.0059 0
0.280045 0.709067 -0.0055 0
0.280046 0.709066 -0.0055 0
0.280046 0.709065 -0.0055 0
0.280045 0.709064 -0.0054 0
0.280045 0.709064 -0.0054 0
0.280045 0.709063 -0.0056 0
0.280045 0.709062 -0.0056 0
0.280044 0.70906 -0.0055 0
0.280044 0.70906 -0.0055 0
0.280044 0.709059 -0.0053 0
0.280045 0.709058 -0.0053 0
0.280045 0.709058 -0.0053 0
0.280044 0.709058 -0.0059 0
0.280045 0.709058 -0.0059 0
0.280045 0.709055 -0.0056 0
0.280044 0.709053 -0.0056 0
0.280044 0.709052 -0.0061 0
0.280044 0.709051 -0.0061 0
0.279921 0.709076 -0.0061 0
0.27992 0.709072 -0.0057 0
0.279941 0.707071 -0.0057 0
0.279921 0.709069 -0.0057 0
0.279921 0.709067 -0.0059 0
0.27992 0.709066 -0.0059 0
0.27992 0.709065 -0.0059 0
0.27992 0.709064 -0.0056 0
0.27992 0.709063 -0.0056 0
0.279919 0.709062 -0.0058 0
0.280042 0.709033 -0.0058 0
0.279919 0.709058 -0.0058 0
0.279938 0.707057 -0.0058 0
0.280042 0.70903 -0.0058 0
0.279918 0.709055 -0.0055 0
0.279918 0.709053 -0.0055 0
0.279917 0.709051 -0.0053 0
0.279917 0.709051 -0.0053 0
0.279917 0.709049 -0.0058 0
0.279917 0.709048 -0.0058 0
0.279917 0.709048 -0.0054 0
0.279916 0.709046 -0.0054 0
0.280039 0.70902 -0.0054 0
0.279935 0.707045 -0.0054 0
0.279916 0.709043 -0.0054 0
0.279916 0.709042 -0.0058 0
0.280039 0.709013 -0.0058 0
0.280039 0.709011 -0.0056 0
0.28004 0.70901 -0.0056 0
0.28004 0.709009 -0.0057 0
0.280041 0.709007 -0.0057 0
0.280041 0.709006 -0.0057 0
0.280041 0.709005 -0.0052 0
0.280041 0.709004 -0.0052 0
0.280041 0.709003 -0.0057 0
0.280042 0.709003 -0.0057 0
0.280042 0.709002 -0.006 0
0.280042 0.709002 -0.006 0
0.280041 0.709001 -0.0053 0
0.280041 0.709 -0.0053 0
0.28004 0.709 -0.0061 0
0.280039 0.709001 -0.0061 0
0.280039 0.709001 -0.0057 0
0.280038 0.709002 -0.0057 0
0.280037 0.709001 -0.0061 0
0.280037 0.709001 -0.0061 0
0.280036 0.709 -0.0055 0
0.280036 0.708998 -0.0059 0
0.280036 0.708997 -0.0059 0
0.280037 0.708996 -0.0059 0
0.280036 0.708994 -0.0059 0
0.280036 0.708991 -0.0059 0
0.280036 0.708989 -0.0052 0
0.280036 0.708987 -0.0052 0
0.280036 0.708986 -0.0056 0
0.280036 0.708983 -0.0057 0
0.280035 0.708982 -0.0057 0
0.280036 0.708981 -0.0057 0
0.280036 0.708979 -0.0058 0
0.280036 0.708977 -0.0058 0
0.280035 0.708976 -0.0054 0
0.280035 0.708975 -0.0054 0
0.280033 0.708973 -0.0059 0
0.280033 0.708973 -0.0059 0
0.280033 0.708972 -0.0059 0
0.280032 0.70897 -0.0059 0
0.280032 0.708968 -0.0053 0
0.280031 0.708967 -0.0053 0
0.28003 0.708966 -0.0059 0
0.28003 0.708964 -0.0059 0
0.28003 0.708963 -0.0053 0
0.28003 0.70896 -0.0058 0
0.28003 0.708959 -0.0058 0
0.28003 0.708957 -0.0058 0
0.280029 0.708955 -0.0057 0
0.280029 0.708954 -0.0057 0
0.280028 0.708953 -0.0057 0
0.280027 0.708952 -0.0057 0
0.280027 0.708951 -0.0059 0
0.280026 0.70895 -0.0059 0
0.280025 0.708949 -0.0059 0
0.280025 0.708948 -0.0062 0
0.280025 0.708948 -0.0062 0
0.280025 0.708947 -0.0057 0
0.280024 0.708946 -0.0057 0
0.280024 0.708946 -0.0056 0
0.280023 0.708945 -0.0056 0
0.280023 0.708943 -0.0061 0
0.280022 0.708941 -0.0061 0
0.280022 0.708939 -0.0058 0
0.280021 0.708936 -0.0058 0
0.280022 0.708935 -0.0061 0
0.280022 0.708934 -0.0061 0
0.280023 0.708934 -0.0056 0
0.280023 0.708933 -0.0056 0
0.280023 0.708933 -0.0056 0
0.280024 0.708931 -0.0056 0
0.280024 0.708931 -0.0055 0
0.280024 0.70893 -0.0055 0
0.280024 0.708928 -0.0055 0
0.280024 0.708927 -0.0058 0
0.280024 0.708925 -0.0058 0
0.280023 0.708923 -0.0062 0
0.280023 0.708922 -0.0062 0
0.280024 0.708922 -0.0056 0
0.280024 0.708921 -0.0056 0
0.280025 0.708921 -0.0057 0
0.280025 0.70892 -0.0057 0
0.280026 0.708919 -0.0057 0
0.280026 0.708919 -0.0056 0
0.280026 0.708918 -0.0056 0
0.280025 0.708918 -0.0056 0
0.280025 0.708917 -0.0049 0
0.280025 0.708915 -0.0053 0
0.280025 0.708913 -0.0053 0
0.280026 0.708912 -0.0054 0
0.280026 0.708911 -0.0054 0
0.280027 0.70891 -0.0054 0
0.280027 0.708909 -0.0056 0
0.280028 0.708907 -0.0056 0
0.280029 0.708906 -0.0055 0
0.280029 0.708906 -0.0055 0
0.28003 0.708905 -0.0055 0
0.280029 0.708904 -0.006 0
0.28003 0.708903 -0.006 0
0.28003 0.708902 -0.0058 0
0.280029 0.708898 -0.0058 0
0.280028 0.708897 -0.0058 0
0.280028 0.708896 -0.0058 0
0.280028 0.708896 -0.0058 0
0.280027 0.708894 -0.0057 0
0.280026 0.708894 -0.0057 0
0.280026 0.708893 -0.0058 0
0.280026 0.708891 -0.0058 0
0.280027 0.70889 -0.0058 0
0.280026 0.708888 -0.0053 0
0.280026 0.708887 -0.0057 0
0.280026 0.708886 -0.0057 0
0.280026 0.708885 -0.0058 0
0.280025 0.708884 -0.0058 0
0.280025 0.708883 -0.0058 0
0.280024 0.70888 -0.0061 0
0.280023 0.708877 -0.0061 0
0.280022 0.708875 -0.0056 0
0.280021 0.708874 -0.0056 0
0.28002 0.708873 -0.0056 0
0.280019 0.708872 -0.0056 0
0.280018 0.708871 -0.0056 0
0.280017 0.708869 -0.0056 0
0.280016 0.708867 -0.0058 0
0.280015 0.708866 -0.0058 0
0.280014 0.708864 -0.0058 0
0.280013 0.708863 -0.0058 0
0.280012 0.708861 -0.0058 0
0.280012 0.708861 -0.0051 0
0.280011 0.70886 -0.0051 0
0.280011 0.70886 -0.0055 0
0.280011 0.708859 -0.0055 0
0.280021 0.707858 -0.0055 0
0.28001 0.708856 -0.0057 0
0.280011 0.708855 -0.0057 0
0.28001 0.708854 -0.0057 0
0.28001 0.708853 -0.0057 0
0.28001 0.708852 -0.0059 0
0.28001 0.70885 -0.0059 0
0.28001 0.708849 -0.0057 0
0.280009 0.708848 -0.0057 0
0.280008 0.708845 -0.0057 0
0.280008 0.708845 -0.0057 0
0.280008 0.708845 -0.0051 0
0.280007 0.708844 -0.0051 0
0.280007 0.708843 -0.0051 0
0.280026 0.706842 -0.0057 0
0.280005 0.708841 -0.0057 0
0.280006 0.70884 -0.0056 0
0.280006 0.708839 -0.0056 0
0.280005 0.708838 -0.0056 0
0.280005 0.708837 -0.0058 0
0.280005 0.708836 -0.0058 0
0.280005 0.708836 -0.0052 0
0.280005 0.708833 -0.0052 0
0.280005 0.708833 -0.0054 0
0.280005 0.708833 -0.0054 0
0.280005 0.708832 -0.0053 0
0.280005 0.708831 -0.0053 0
0.280004 0.708831 -0.0053 0
0.280004 0.708831 -0.0058 0
0.280004 0.708829 -0.0058 0
0.280014 0.707828 -0.0054 0
0.280014 0.707827 -0.0054 0
0.280004 0.708826 -0.0054 0
0.280004 0.708826 -0.0055 0
0.280119 0.696826 -0.0059 0
0.280002 0.708824 -0.0059 0
0.280001 0.708823 -0.0059 0
0.280001 0.708822 -0.0054 0
0.280001 0.708822 -0.0054 0
0.280001 0.708821 -0.0058 0
0.28 0.70882 -0.0058 0
0.279999 0.708819 -0.0056 0
0.279876 0.708845 -0.0056 0
0.279875 0.708845 -0.0052 0
0.279875 0.708844 -0.0052 0
0.279875 0.708844 -0.0052 0
0.279875 0.708843 -0.0058 0
0.279875 0.708842 -0.0058 0
0.279875 0.708842 -0.0052 0
0.279876 0.708841 -0.0052 0
0.279876 0.708841 -0.0053 0
0.279875 0.70884 -0.0053 0
0.279875 0.708839 -0.0055 0
0.279875 0.708839 -0.0055 0
0.279999 0.708811 -0.0055 0
0.279999 0.70881 -0.0058 0
0.279998 0.70881 -0.0058 0
0.279997 0.708809 -0.006 0
0.279873 0.708833 -0.006 0
0.279873 0.708831 -0.0057 0
0.279996 0.708804 -0.0057 0
0.279996 0.708802 -0.0058 0
0.280025 0.705801 -0.0058 0
0.279995 0.708801 -0.0058 0
0.279994 0.7088 -0.0058 0
0.279993 0.708799 -0.0064 0
0.279992 0.708797 -0.0064 0
0.279992 0.708796 -0.0062 0
0.279991 0.708795 -0.0052 0
0.279991 0.708794 -0.0052 0
0.279991 0.708793 -0.0052 0
0.279992 0.708792 -0.0058 0
0.279992 0.708791 -0.006 0
0.279993 0.70879 -0.006 0
0.279993 0.708789 -0.006 0
0.279993 0.708788 -0.0058 0
0.279993 0.708785 -0.0057 0
0.279993 0.708785 -0.0057 0
0.279994 0.708783 -0.006 0
0.279994 0.708783 -0.006 0
0.279995 0.708782 -0.0054 0
0.279996 0.708781 -0.0054 0
0.279997 0.70878 -0.0054 0
0.279997 0.708778 -0.0061 0
0.279998 0.708777 -0.0056 0
0.279998 0.708776 -0.0056 0
0.279998 0.708776 -0.0056 0
0.279875 0.7088 -0.0054 0
0.279875 0.708799 -0.0055 0
0.279875 0.708798 -0.0055 0
0.279876 0.708797 -0.0058 0
0.279876 0.708797 -0.0058 0
0.279876 0.708797 -0.0054 0
0.279876 0.708797 -0.0054 0
0.279876 0.708798 -0.0057 0
0.279877 0.708798 -0.0056 0
0.279877 0.708797 -0.0056 0
0.279877 0.708797 -0.0056 0
0.279877 0.708794 -0.0056 0
0.279876 0.708792 -0.0056 0
0.279876 0.708791 -0.0056 0
0.28027 0.668793 -0.0056 0
0.279877 0.70879 -0.0055 0
0.279877 0.70879 -0.0055 0
0.279877 0.708789 -0.0059 0
0.279877 0.708788 -0.0059 0
0.279877 0.708786 -0.0059 0
0.279877 0.708785 -0.0056 0
0.279877 0.708785 -0.0056 0
0.279877 0.708784 -0.006 0
0.279877 0.708783 -0.006 0
0.279877 0.708782 -0.0055 0
0.279877 0.70878 -0.0055 0
0.279877 0.70878 -0.0057 0
0.279875 0.708777 -0.0057 0
0.279874 0.708776 -0.0057 0
0.279873 0.708774 -0.0057 0
0.279872 0.708773 -0.0056 0
0.279871 0.708771 -0.0056 0
0.279871 0.70877 -0.0056 0
0.279872 0.708769 -0.0056 0
0.279872 0.708768 -0.0056 0
0.279872 0.708766 -0.0057 0
0.279872 0.708764 -0.0057 0
0.279873 0.708763 -0.0057 0
0.279874 0.708761 -0.0057 0
0.279875 0.70876 -0.0058 0
0.279875 0.708759 -0.0058 0
0.279875 0.708758 -0.0058 0
0.279874 0.708757 -0.0051 0
0.279874 0.708756 -0.0051 0
0.279873 0.708755 -0.0059 0
0.279874 0.708754 -0.0059 0
0.279873 0.708754 -0.0059 0
0.279873 0.708753 -0.0054 0
0.279873 0.708753 -0.0054 0
0.279874 0.708752 -0.0055 0
0.279875 0.708748 -0.0055 0
0.279876 0.708746 -0.0055 0
0.279876 0.708744 -0.0055 0
0.279877 0.708742 -0.0059 0
0.279878 0.70874 -0.0059 0
0.279878 0.708739 -0.0059 0
0.279878 0.708737 -0.0057 0
0.279878 0.708736 -0.0052 0
0.279878 0.708734 -0.0052 0
0.279878 0.708733 -0.0056 0
0.279879 0.708732 -0.0056 0
0.279879 0.708732 -0.0056 0
0.27988 0.708731 -0.0056 0
0.27988 0.708731 -0.0055 0
0.27991 0.70573 -0.0055 0
0.279881 0.70873 -0.006 0
0.27988 0.708727 -0.006 0
0.27988 0.708726 -0.0055 0
0.27988 0.708726 -0.0055 0
0.279899 0.706725 -0.0059 0
0.279879 0.708723 -0.0059 0
0.279879 0.708723 -0.0058 0
0.27988 0.708722 -0.0058 0
0.27988 0.708721 -0.005 0
0.27988 0.70872 -0.005 0
0.27988 0.708719 -0.0056 0
0.279879 0.708718 -0.0056 0
0.280002 0.70869 -0.0057 0
0.280001 0.708686 -0.0057 0
0.28 0.708686 -0.0059 0
0.28 0.708685 -0.0059 0
0.28 0.708683 -0.0059 0
0.279877 0.708708 -0.0059 0
0.279876 0.708704 -0.0055 0
0.279875 0.708704 -0.0055 0
0.279874 0.708703 -0.0058 0
0.279873 0.7087 -0.0058 0
0.279902 0.705699 -0.0057 0
0.279873 0.708698 -0.0057 0
0.279873 0.708697 -0.0056 0
0.279874 0.708696 -0.0056 0
0.279874 0.708697 -0.0056 0
0.279993 0.696697 -0.0057 0
0.279875 0.708695 -0.0057 0
0.279998 0.708668 -0.0058 0
0.279998 0.708668 -0.0058 0
0.279875 0.708693 -0.0058 0
0.279874 0.708692 -0.0055 0
0.279874 0.708691 -0.0055 0
0.279874 0.70869 -0.0055 0
0.279874 0.708689 -0.0055 0
0.279874 0.708688 -0.0058 0
0.279873 0.708687 -0.0058 0
0.279872 0.708685 -0.0053 0
0.279872 0.708684 -0.0053 0
0.279872 0.708684 -0.0054 0
0.279871 0.708683 -0.0054 0
0.27987 0.708681 -0.0056 0
0.27987 0.70868 -0.0056 0
0.27987 0.708679 -0.0051 0
0.27987 0.708678 -0.0051 0
0.279993 0.70865 -0.0057 0
0.279992 0.708648 -0.0057 0
0.279993 0.708646 -0.0057 0
0.279993 0.708646 -0.0057 0
0.27987 0.70867 -0.0053 0
0.279994 0.708643 -0.0053 0
0.279994 0.708642 -0.0058 0
0.279994 0.70864 -0.0058 0
0.279994 0.708638 -0.0058 0
0.279871 0.708663 -0.0058 0
0.279871 0.708662 -0.0055 0
0.279871 0.70866 -0.0058 0
0.27987 0.708658 -0.0058 0
0.279871 0.708657 -0.0058 0
0.27987 0.708656 -0.0053 0
0.279871 0.708654 -0.0056 0
0.279871 0.708653 -0.0056 0
0.279871 0.708652 -0.0056 0
0.279871 0.70865 -0.0059 0
0.27987 0.70865 -0.0056 0
0.279871 0.70865 -0.0056 0
0.279873 0.708648 -0.0056 0
0.279995 0.708621 -0.0056 0
0.279995 0.708618 -0.0057 0
0.279995 0.708617 -0.0057 0
0.279995 0.708616 -0.006 0
0.279995 0.708615 -0.0054 0
0.279995 0.708613 -0.0054 0
0.279994 0.708613 -0.0054 0
0.279995 0.708612 -0.0059 0
0.279995 0.708611 -0.0059 0
0.279995 0.70861 -0.0056 0
0.279997 0.708607 -0.0056 0
0.279996 0.708605 -0.0061 0
0.279996 0.708603 -0.0061 0
0.279996 0.708601 -0.0057 0
0.279872 0.708625 -0.0057 0
0.279872 0.708624 -0.0057 0
0.279872 0.708622 -0.0055 0
0.279871 0.708621 -0.0054 0
0.279871 0.708621 -0.0054 0
0.279871 0.70862 -0.0054 0
0.27987 0.708617 -0.0055 0
0.27987 0.708615 -0.0062 0
0.279869 0.708613 -0.0062 0
0.279869 0.708612 -0.0062 0
0.279869 0.708612 -0.006 0
0.279868 0.708611 -0.0058 0
0.279868 0.708611 -0.0058 0
0.279868 0.70861 -0.0058 0
0.279869 0.70861 -0.0053 0
0.27987 0.708608 -0.0052 0
0.27987 0.708607 -0.0052 0
0.27987 0.708607 -0.0052 0
0.27987 0.708607 -0.0054 0
0.27987 0.708606 -0.0057 0
0.27987 0.708606 -0.0057 0
0.27987 0.708606 -0.0057 0
0.279869 0.708604 -0.0062 0
0.279868 0.708603 -0.0057 0
0.279867 0.708602 -0.0057 0
0.279988 0.708575 -0.0055 0
0.279987 0.708574 -0.0055 0
0.279987 0.708573 -0.0053 0
0.279987 0.708571 -0.0053 0
0.279987 0.708571 -0.0058 0
0.279986 0.70857 -0.0058 0
0.279986 0.708569 -0.0052 0
0.279986 0.708569 -0.0052 0
0.279986 0.708567 -0.0059 0
0.280005 0.706565 -0.0059 0
0.279986 0.708564 -0.0059 0
0.279986 0.708563 -0.0059 0
0.279986 0.70856 -0.0051 0
0.279987 0.70856 -0.0051 0
0.279987 0.70856 -0.0053 0
0.279987 0.708558 -0.0053 0
0.279863 0.708583 -0.0059 0
0.279864 0.708582 -0.0059 0
0.279864 0.708581 -0.0061 0
0.279864 0.708581 -0.0061 0
0.279864 0.708581 -0.0061 0
0.279864 0.70858 -0.0057 0
0.279864 0.70858 -0.0057 0
0.279864 0.708579 -0.006 0
0.279864 0.708578 -0.006 0
0.279864 0.708577 -0.0062 0
0.279864 0.708576 -0.0062 0
0.279864 0.708575 -0.0057 0
0.279865 0.708574 -0.0057 0
0.279988 0.708546 -0.0057 0
0.279866 0.708569 -0.0056 0
0.279866 0.708568 -0.0061 0
0.279865 0.708568 -0.0061 0
0.279866 0.708568 -0.0061 0
0.279866 0.708567 -0.0057 0
0.279866 0.708566 -0.0057 0
0.279866 0.708565 -0.006 0
0.279866 0.708564 -0.006 0
0.279866 0.708563 -0.006 0
0.279988 0.708535 -0.0059 0
0.279988 0.708535 -0.0056 0
0.279988 0.708534 -0.0056 0
0.279988 0.708532 -0.0056 0
0.279987 0.708531 -0.0059 0
0.279986 0.708528 -0.0054 0
0.279985 0.708527 -0.0054 0
0.279985 0.708526 -0.0054 0
0.279986 0.708526 -0.0055 0
0.279986 0.708525 -0.0055 0
0.279986 0.708524 -0.0059 0
0.279986 0.708523 -0.0059 0
0.279985 0.708522 -0.0059 0
0.279985 0.708521 -0.0057 0
0.279985 0.70852 -0.0057 0
0.279985 0.708519 -0.0057 0
0.280014 0.705519 -0.0057 0
0.279985 0.708518 -0.0057 0
0.279985 0.708518 -0.0055 0
0.279984 0.708517 -0.0055 0
0.279984 0.708515 -0.0059 0
0.279982 0.708512 -0.0059 0
0.280001 0.706511 -0.0055 0
0.27998 0.708509 -0.0055 0
0.27998 0.708507 -0.0057 0
0.279979 0.708506 -0.0057 0
0.279979 0.708504 -0.0055 0
0.279978 0.708504 -0.0055 0
0.279978 0.708503 -0.0057 0
0.279977 0.708502 -0.0057 0
0.279972 0.696527 -0.0057 0
0.279853 0.708526 -0.0057 0
0.279853 0.708524 -0.0061 0
0.279853 0.708523 -0.0061 0
0.279853 0.708522 -0.0058 0
0.279852 0.708522 -0.0058 0
0.279975 0.708495 -0.0054 0
0.279975 0.708494 -0.0054 0
0.279851 0.708519 -0.0063 0
0.279851 0.708518 -0.0063 0
0.27985 0.708515 -0.005 0
0.27985 0.708514 -0.005 0
0.27985 0.708513 -0.0055 0
0.27985 0.708511 -0.0057 0
0.27985 0.708511 -0.0057 0
0.27985 0.70851 -0.0057 0
0.279851 0.708508 -0.0056 0
0.279851 0.708507 -0.0054 0
0.27985 0.708505 -0.0054 0
0.27985 0.708504 -0.0054 0
0.279851 0.708502 -0.0056 0
0.279851 0.708501 -0.0052 0
0.27985 0.7085 -0.0052 0
0.279973 0.708473 -0.0052 0
0.279972 0.708472 -0.006 0
0.279849 0.708497 -0.006 0
0.279848 0.708495 -0.0054 0
0.279837 0.709494 -0.0054 0
0.279969 0.708467 -0.0054 0
0.279969 0.708465 -0.0057 0
0.279969 0.708463 -0.0059 0
0.279969 0.708462 -0.0059 0
0.279969 0.708461 -0.0059 0
0.279969 0.70846 -0.0056 0
0.279969 0.708458 -0.0056 0
0.27997 0.708454 -0.0059 0
0.279971 0.708454 -0.0059 0
0.279971 0.708453 -0.0056 0
0.279972 0.708453 -0.0056 0
0.279972 0.708453 -0.0061 0
0.279972 0.708453 -0.0061 0
0.279972 0.708452 -0.0061 0
0.279973 0.708451 -0.0053 0
0.279973 0.708451 -0.0053 0
0.279973 0.70845 -0.0053 0
0.279973 0.70845 -0.0058 0
0.279973 0.708449 -0.0058 0
0.279974 0.708446 -0.0055 0
0.279975 0.708444 -0.0055 0
0.279975 0.708443 -0.0057 0
0.279985 0.707442 -0.0056 0
0.279975 0.708441 -0.0056 0
0.279974 0.70844 -0.0056 0
0.279974 0.708439 -0.006 0
0.279974 0.708438 -0.006 0
0.279973 0.708437 -0.0056 0
0.279973 0.708436 -0.0056 0
0.279973 0.708436 -0.0056 0
0.279973 0.708435 -0.0055 0
0.279973 0.708431 -0.0055 0
0.279973 0.708429 -0.0055 0
0.279974 0.708427 -0.0055 0
0.279974 0.708425 -0.0053 0
0.279975 0.708425 -0.0053 0
0.279975 0.708425 -0.0058 0
0.279976 0.708425 -0.0058 0
0.279975 0.708423 -0.0052 0
0.279975 0.708423 -0.0052 0
0.279975 0.708422 -0.0053 0
0.279975 0.708423 -0.0053 0
0.279975 0.708422 -0.0053 0
0.279976 0.70842 -0.0063 0
0.279976 0.708419 -0.0052 0
0.279986 0.707417 -0.0052 0
0.279977 0.708417 -0.0052 0
0.279976 0.708415 -0.0058 0
0.279976 0.708414 -0.0058 0
0.279976 0.708411 -0.0053 0
0.279976 0.70841 -0.0053 0
0.279995 0.706408 -0.0053 0
0.279975 0.708407 -0.0053 0
0.279975 0.708406 -0.0053 0
0.279985 0.707404 -0.0053 0
0.279976 0.708402 -0.0053 0
0.279976 0.7084 -0.0057 0
0.279976 0.708399 -0.006 0
0.279578 0.749397 -0.006 0
0.279975 0.708399 -0.006 0
0.279974 0.7084 -0.0054 0
0.279974 0.708399 -0.0054 0
0.279974 0.708399 -0.0055 0
0.279974 0.708398 -0.0055 0
0.279974 0.708398 -0.0055 0
0.279975 0.708396 -0.0056 0
0.279974 0.708395 -0.0059 0
0.279974 0.708393 -0.0059 0
0.279974 0.708393 -0.0059 0
0.279973 0.708392 -0.0055 0
0.279973 0.708391 -0.0055 0
0.279973 0.70839 -0.0056 0
0.279849 0.708414 -0.0056 0
0.279849 0.708413 -0.0059 0
0.279849 0.708413 -0.0059 0
0.279446 0.749408 -0.0061 0
0.279849 0.708409 -0.0061 0
0.279849 0.708408 -0.0055 0
0.279849 0.708406 -0.0055 0
0.279848 0.708404 -0.0056 0
0.279848 0.708404 -0.0056 0
0.279848 0.708403 -0.0061 0
0.279868 0.706402 -0.0061 0
0.279846 0.7084 -0.0054 0
0.279846 0.7084 -0.0054 0
0.279845 0.708399 -0.0055 0
0.279969 0.708372 -0.0055 0
0.279969 0.708371 -0.0064 0
0.27997 0.70837 -0.0064 0
0.27997 0.708369 -0.0064 0
0.27997 0.708368 -0.0061 0
0.279969 0.708367 -0.0061 0
0.279968 0.708366 -0.0055 0
0.279967 0.708365 -0.0055 0
0.279967 0.708364 -0.0054 0
0.279965 0.708364 -0.0054 0
0.279965 0.708363 -0.0058 0
0.279965 0.708362 -0.0058 0
0.279965 0.708361 -0.0058 0
0.279964 0.70836 -0.0051 0
0.279963 0.708359 -0.0051 0
0.279971 0.707358 -0.0055 0
0.27996 0.708356 -0.0055 0
0.27996 0.708355 -0.0064 0
0.279959 0.708355 -0.0064 0
0.279958 0.708355 -0.0049 0
0.279957 0.708354 -0.0049 0
0.279957 0.708352 -0.0055 0
0.279957 0.708352 -0.0055 0
0.279957 0.70835 -0.006 0
0.279957 0.70835 -0.006 0
0.279956 0.708346 -0.0055 0
0.279956 0.708345 -0.0055 0
0.279956 0.708344 -0.005 0
0.279955 0.708344 -0.005 0
0.279831 0.708368 -0.0054 0
0.279954 0.708341 -0.0054 0
0.279955 0.70834 -0.0063 0
0.279831 0.708364 -0.0063 0
0.279833 0.708363 -0.0053 0
0.279833 0.708362 -0.0053 0
0.279833 0.708363 -0.0055 0
0.279833 0.708362 -0.0055 0
0.279862 0.705361 -0.0056 0
0.279833 0.70836 -0.0056 0
0.279833 0.708359 -0.0055 0
0.279844 0.707358 -0.0055 0
0.279835 0.708357 -0.0055 0
0.279834 0.708356 -0.0058 0
0.279836 0.708356 -0.0058 0
0.279837 0.708357 -0.0054 0
0.279837 0.708356 -0.0054 0
0.279837 0.708355 -0.0054 0
0.279837 0.708354 -0.0054 0
0.279838 0.708354 -0.0058 0
0.279839 0.708352 -0.0058 0
0.279839 0.70835 -0.0058 0
0.279962 0.708323 -0.0053 0
0.279962 0.708322 -0.0053 0
0.279962 0.70832 -0.0055 0
0.279963 0.708318 -0.0055 0
0.279963 0.708318 -0.0059 0
0.279974 0.707317 -0.0059 0
0.279964 0.708316 -0.006 0
0.279964 0.708315 -0.006 0
0.279963 0.708314 -0.006 0
0.279963 0.708313 -0.0058 0
0.279963 0.708312 -0.0058 0
0.279962 0.708311 -0.0058 0
0.279962 0.708311 -0.0058 0
0.279961 0.70831 -0.0058 0
0.279961 0.70831 -0.0058 0
0.279961 0.70831 -0.0056 0
0.27996 0.708309 -0.0056 0
0.279959 0.708308 -0.0056 0
0.279959 0.708307 -0.006 0
0.279958 0.708307 -0.0053 0
0.279958 0.708307 -0.0053 0
0.279957 0.708307 -0.0053 0
0.279833 0.708332 -0.006 0
0.279833 0.708332 -0.0053 0
0.279833 0.708332 -0.0053 0
0.279833 0.708332 -0.0053 0
0.279833 0.708331 -0.0058 0
0.279833 0.70833 -0.0055 0
0.279955 0.708303 -0.0055 0
0.279955 0.708303 -0.0055 0
0.279831 0.708329 -0.0057 0
0.279831 0.708329 -0.0058 0
0.27983 0.708328 -0.0058 0
0.27983 0.708327 -0.0056 0
0.27983 0.708326 -0.0056 0
0.279954 0.708299 -0.0058 0
0.279953 0.708298 -0.0058 0
0.279952 0.708297 -0.0055 0
0.279951 0.708297 -0.0055 0
0.279827 0.708322 -0.0052 0
0.279949 0.708296 -0.0052 0
0.279948 0.708296 -0.0058 0
0.279947 0.708295 -0.0058 0
0.279947 0.708295 -0.0058 0
0.279947 0.708293 -0.0058 0
0.279946 0.708292 -0.0058 0
0.279975 0.705291 -0.0058 0
0.279946 0.70829 -0.0058 0
0.279947 0.70829 -0.0054 0
0.279949 0.708288 -0.0054 0
0.279949 0.708287 -0.0061 0
0.279949 0.708285 -0.0061 0
0.279949 0.708285 -0.005 0
0.279949 0.708284 -0.005 0
0.279948 0.708282 -0.0056 0
0.279948 0.708281 -0.0056 0
0.279948 0.708281 -0.0062 0
0.279948 0.708281 -0.0062 0
0.279947 0.708279 -0.0062 0
0.279948 0.708278 -0.0052 0
0.279948 0.708277 -0.006 0
0.279948 0.708277 -0.006 0
0.279948 0.708276 -0.006 0
0.279947 0.708276 -0.0059 0
0.279823 0.708301 -0.0059 0
0.279823 0.708299 -0.0055 0
0.279823 0.708297 -0.0055 0
0.279822 0.708296 -0.0055 0
0.279822 0.708294 -0.0058 0
0.279822 0.708292 -0.0054 0
0.279822 0.708292 -0.0054 0
0.279822 0.70829 -0.0054 0
0.279822 0.708289 -0.0056 0
0.279822 0.708287 -0.0056 0
0.279821 0.708286 -0.0055 0
0.279822 0.708284 -0.0055 0
0.279821 0.708283 -0.0056 0
0.279821 0.708282 -0.0056 0
0.279821 0.708281 -0.0059 0
0.279821 0.70828 -0.0059 0
0.279821 0.708279 -0.0059 0
0.27985 0.705278 -0.0053 0
0.27982 0.708277 -0.0053 0
0.279821 0.708276 -0.0057 0
0.27982 0.708275 -0.0057 0
0.27982 0.708274 -0.0059 0
0.27982 0.708273 -0.0059 0
0.27982 0.708272 -0.0057 0
0.279821 0.708271 -0.0057 0
0.279821 0.708269 -0.0057 0
0.279944 0.708243 -0.006 0
0.279955 0.707242 -0.0052 0
0.279945 0.708241 -0.0052 0
0.279945 0.708239 -0.0052 0
0.279945 0.708237 -0.006 0
0.279945 0.708236 -0.006 0
0.279944 0.708235 -0.0056 0
0.279944 0.708233 -0.0056 0
0.27982 0.708258 -0.0056 0
0.27982 0.708257 -0.0059 0
0.279944 0.708231 -0.0058 0
0.279945 0.708229 -0.0058 0
0.279945 0.708228 -0.0058 0
0.279945 0.708228 -0.0055 0
0.279945 0.708227 -0.0055 0
0.279974 0.705226 -0.0057 0
0.279945 0.708223 -0.0057 0
0.279945 0.708222 -0.0058 0
0.279945 0.70822 -0.0058 0
0.279944 0.708219 -0.0055 0
0.279944 0.708219 -0.0055 0
0.279943 0.708218 -0.0061 0
0.279944 0.708217 -0.0061 0
0.279944 0.708216 -0.0055 0
0.279944 0.708214 -0.0055 0
0.279944 0.708212 -0.0055 0
0.279943 0.708211 -0.0054 0
0.279943 0.708209 -0.0058 0
0.279942 0.708208 -0.0058 0
0.279941 0.708207 -0.0058 0
0.27994 0.708206 -0.0055 0
0.27994 0.708206 -0.0055 0
0.27994 0.708205 -0.006 0
0.27994 0.708204 -0.006 0
0.27994 0.708204 -0.0056 0
0.27994 0.708203 -0.0056 0
0.279939 0.708203 -0.0056 0
0.279939 0.708202 -0.0056 0
0.279938 0.708201 -0.0056 0
0.279938 0.708201 -0.0056 0
0.279937 0.708201 -0.0056 0
0.279936 0.7082 -0.0058 0
0.279935 0.708199 -0.0058 0
0.279935 0.708198 -0.0057 0
0.279935 0.708197 -0.0057 0
0.279935 0.708197 -0.0057 0
0.279934 0.708196 -0.0057 0
0.279934 0.708194 -0.0057 0
0.279933 0.708193 -0.0058 0
0.279932 0.708192 -0.0058 0
0.279932 0.708191 -0.0055 0
0.279932 0.70819 -0.0055 0
0.279931 0.708189 -0.0054 0
0.279931 0.708188 -0.0054 0
0.279931 0.708187 -0.0064 0
0.27993 0.708185 -0.0064 0
0.27993 0.708184 -0.0058 0
0.27993 0.708183 -0.0058 0
0.279929 0.708181 -0.0055 0
0.279929 0.70818 -0.0055 0
0.27993 0.708179 -0.0058 0
0.27993 0.708178 -0.0058 0
0.279837 0.705204 -0.0052 0
0.279807 0.708203 -0.0052 0
0.27993 0.708177 -0.0057 0
0.279931 0.708176 -0.0057 0
0.27993 0.708175 -0.0056 0
0.27993 0.708174 -0.0056 0
0.27993 0.708173 -0.0056 0
0.27993 0.708172 -0.0059 0
0.27993 0.708172 -0.0059 0
0.279931 0.708171 -0.0057 0
0.279931 0.70817 -0.0057 0
0.27993 0.708169 -0.0055 0
0.279929 0.708168 -0.0055 0
0.279929 0.708166 -0.0058 0
0.279929 0.708165 -0.0058 0
0.279929 0.708165 -0.0055 0
0.279929 0.708164 -0.0055 0
0.279929 0.708163 -0.0059 0
0.279928 0.708162 -0.0059 0
0.279928 0.708162 -0.0056 0
0.279927 0.708161 -0.0058 0
0.279928 0.70816 -0.0058 0
0.279928 0.70816 -0.0058 0
0.279928 0.708159 -0.0053 0
0.279927 0.708159 -0.0053 0
0.279929 0.708158 -0.0054 0
0.279929 0.708157 -0.0059 0
0.279929 0.708156 -0.0059 0
0.279958 0.705155 -0.0059 0
0.279928 0.708151 -0.0058 0
0.279929 0.70815 -0.0058 0
0.279929 0.708149 -0.0051 0
0.279929 0.708149 -0.0051 0
0.279929 0.708148 -0.0059 0
0.27993 0.708145 -0.0059 0
0.27993 0.708144 -0.0055 0
0.27993 0.708143 -0.0055 0
0.27993 0.708142 -0.0061 0
0.27993 0.708141 -0.0061 0
0.27993 0.708141 -0.0061 0
0.279929 0.70814 -0.0052 0
0.27993 0.708139 -0.0052 0
0.279929 0.708137 -0.0058 0
0.279929 0.708135 -0.0058 0
0.279928 0.708134 -0.0054 0
0.279928 0.708132 -0.0054 0
0.279929 0.708131 -0.0055 0
0.279928 0.708129 -0.0055 0
0.279926 0.708127 -0.0058 0
0.279925 0.708125 -0.0058 0
0.279924 0.708125 -0.0057 0
0.279923 0.708123 -0.0057 0
0.279923 0.708122 -0.0058 0
0.279923 0.708121 -0.0058 0
0.279922 0.70812 -0.0055 0
0.279922 0.708119 -0.0055 0
0.279921 0.708119 -0.0055 0
0.279921 0.708119 -0.0059 0
0.279921 0.708119 -0.0059 0
0.279921 0.708117 -0.0053 0
0.279921 0.708116 -0.0053 0
0.279921 0.708116 -0.0059 0
0.279921 0.708115 -0.0059 0
0.279921 0.708115 -0.0054 0
0.27992 0.708115 -0.0054 0
0.279921 0.708115 -0.0056 0
0.27992 0.708115 -0.0056 0
0.279921 0.708115 -0.0055 0
0.27992 0.708114 -0.0055 0
0.279921 0.708113 -0.0055 0
0.279922 0.708112 -0.0055 0
0.279923 0.70811 -0.0055 0
0.279923 0.708109 -0.0055 0
0.279923 0.708107 -0.0055 0
0.279923 0.708105 -0.0055 0
0.279923 0.708103 -0.0054 0
0.279922 0.708102 -0.0054 0
0.279922 0.708101 -0.0054 0
0.279798 0.708126 -0.0058 0
0.279798 0.708125 -0.0058 0
0.279798 0.708124 -0.0058 0
0.279778 0.710122 -0.0054 0
0.279797 0.708121 -0.0054 0
0.279797 0.70812 -0.0054 0
0.279797 0.708119 -0.0054 0
0.279796 0.708119 -0.0054 0
0.279796 0.708118 -0.0054 0
0.279918 0.708091 -0.006 0
0.279795 0.708117 -0.006 0
0.279795 0.708117 -0.006 0
0.279795 0.708115 -0.0055 0
0.279914 0.708087 -0.0061 0
0.279921 0.708086 -0.0061 0
0.280065 0.708059 -0.0061 0
0.28071 0.707926 0.0079 0
0.280933 0.707869 0.0444 0
0.281275 0.707785 0.0444 0
0.281535 0.706702 -0.0054 0
0.281566 0.706677 -0.0054 0
0.281597 0.706656 0.0299 0
0.281477 0.70668 0.0299 0
0.281332 0.706741 0.0299 0
0.28085 0.70689 9.31323e-10 0
0.280713 0.70693 0.0051 0
0.280705 0.705939 0.0051 0
0.280691 0.705946 0.0051 0
0.280676 0.705959 -0.0087 0
0.280674 0.705964 -0.0067 0
0.280551 0.705994 -0.0067 0
0.280428 0.706019 -0.0063 0
0.280443 0.70502 -0.0063 0
0.2802 0.706072 -9.9998e-05 0
0.280097 0.705094 -9.9998e-05 0
0.279848 0.705139 0.0064 0
0.279711 0.706158 0.0064 0
0.279714 0.705151 -0.0042 0
0.279223 0.705241 -0.0042 0
0.279216 0.70623 0.0013 0
0.2791 0.706244 0.0013 0
0.279109 0.70624 -0.0038 0
0.27912 0.705247 -0.0038 0
0.279119 0.705257 -0.0047 0
0.279121 0.705266 -0.0047 0
0.279122 0.70527 -0.000199998 0
0.279119 0.705274 -0.000199998 0
0.279119 0.705274 -0.0037 0
0.27912 0.705273 -0.0037 0
0.279121 0.705272 -0.0028 0
0.279124 0.705274 -0.0028 0
0.279126 0.705275 0.000200002 0
0.279127 0.705275 0.000200002 0
0.27913 0.705273 -0.0022 0
0.279131 0.705271 -0.0022 0
0.27912 0.706272 -0.0026 0
0.279133 0.705273 -0.0026 0
0.279132 0.705274 -0.000199998 0
0.279131 0.705275 -0.000199998 0
0.279129 0.705275 -0.000199998 0
0.279114 0.706276 -0.0025 0
0.279123 0.705276 -0.0025 0
0.279125 0.705279 -0.0052 0
0.279127 0.705282 -0.0052 0
0.279126 0.705282 -0.000499998 0
0.279128 0.705281 -0.000499998 0
0.27913 0.705279 -0.0022 0
0.279131 0.705276 -0.0022 0
0.279133 0.705275 -0.0022 0
0.279132 0.705271 -0.0021 0
0.279132 0.70527 1.86265e-09 0
0.279131 0.705269 1.86265e-09 0
0.27913 0.705268 1.86265e-09 0
0.279129 0.705265 -0.0059 0
0.27913 0.705267 -0.003 0
0.27913 0.705267 -0.003 0
0.279131 0.705267 -0.003 0
0.279131 0.705267 -0.0042 0
0.27913 0.705265 -0.0047 0
0.279131 0.705262 -0.0047 0
0.279132 0.705262 -0.0047 0
0.279133 0.705262 -0.000299999 0
0.279136 0.705261 -0.0032 0
0.279136 0.705262 -0.0032 0
0.279136 0.705261 -0.0032 0
0.279126 0.706261 -0.0035 0
0.279138 0.70526 -0.0035 0
0.279138 0.705257 -0.0021 0
0.279138 0.705257 -0.0021 0
0.279139 0.705256 -0.0046 0
0.279139 0.705256 -0.0046 0
0.279138 0.705256 -0.002 0
0.27914 0.705255 -0.002 0
0.279139 0.705254 -0.0017 0
0.279139 0.705253 -0.0017 0
0.279139 0.705253 -0.0031 0
0.27914 0.70525 -0.0031 0
0.27914 0.70525 -0.0038 0
0.279139 0.705249 -0.0038 0
0.279137 0.705248 -0.0033 0
0.279138 0.705251 -0.0033 0
0.279139 0.705252 -0.0046 0
0.279137 0.70525 -0.0017 0
0.279135 0.705248 -0.0017 0
0.279119 0.706243 -0.0017 0
0.27913 0.70524 -0.000599999 0
0.27913 0.705238 -0.000599999 0
0.279137 0.705241 -0.0022 0
0.279127 0.706241 -0.0022 0
0.279138 0.705241 -0.0042 0
0.279126 0.706237 -9.99989e-05 0
0.279139 0.705236 -9.99989e-05 0
0.279137 0.705234 -9.99989e-05 0
0.279136 0.705233 -0.0013 0
0.279123 0.706232 -0.0013 0
0.279124 0.706228 -0.0049 0
0.279135 0.705228 -0.0049 0
0.279135 0.705228 -0.0015 0
0.279123 0.706228 -0.0015 0
0.279122 0.706226 -0.0021 0
0.279156 0.703226 -0.0021 0
0.279133 0.705224 -0.0027 0
0.279132 0.705224 -0.0027 0
0.27912 0.706222 -0.0048 0
0.27913 0.705222 -0.0048 0
0.279006 0.705248 -0.0055 0
0.279129 0.70522 -0.0055 0
0.279119 0.706219 -0.000199999 0
0.279133 0.705221 -0.000199999 0
0.279135 0.705221 -0.000199999 0
0.279142 0.705222 -0.0018 0
0.279144 0.705222 -0.004 0
