ply
format ascii 1.0
element vertex 1478
property float x
property float y
property float z
property float intensity
end_header
0.158284 0.706638 -0.000599999 0
0.158283 0.706638 -0.000599999 0
0.158283 0.706638 -0.000599999 0
0.158283 0.706639 -0.000599999 0
0.158281 0.706637 -0.000599999 0
0.15828 0.706637 -0.000599999 0
0.158279 0.706636 -0.000399999 0
0.158279 0.706635 -0.000399999 0
0.158279 0.706633 -0.000399999 0
0.158278 0.70663 -0.000999999 0
0.158278 0.706628 -0.000799999 0
0.158278 0.706626 -0.000799999 0
0.158278 0.706625 -0.000799999 0
0.158279 0.706622 -0.000299999 0
0.15828 0.706622 -0.000299999 0
0.15828 0.706621 -9.99989e-05 0
0.158279 0.70662 -9.99989e-05 0
0.158279 0.706618 -0.000899999 0
0.158403 0.70659 -0.000899999 0
0.158403 0.706589 -9.99988e-05 0
0.158403 0.706588 -9.99988e-05 0
0.158404 0.706587 -0.000699999 0
0.158404 0.706586 -0.000699999 0
0.158404 0.706583 -0.000399999 0
0.158403 0.706581 -0.000399999 0
0.15828 0.706604 -0.000499999 0
0.158281 0.706603 -0.000499999 0
0.15828 0.706602 -0.000699999 0
0.15828 0.706601 -0.000699999 0
0.158279 0.706599 -0.000399999 0
0.15828 0.706598 -0.000399999 0
0.15828 0.706596 -0.000699999 0
0.158281 0.706594 -0.000699999 0
0.158282 0.706591 -0.000699999 0
0.158281 0.706588 -0.000699999 0
0.158281 0.706587 -0.000399999 0
0.15828 0.706586 -0.000399999 0
0.158279 0.706584 -0.000399999 0
0.15828 0.706581 -0.000599999 0
0.15828 0.70658 -0.000599999 0
0.15828 0.706579 -0.000499999 0
0.158281 0.706578 -0.000499999 0
0.158281 0.706578 -0.000599999 0
0.158282 0.706576 -0.000599999 0
0.158282 0.706574 -0.000399999 0
0.158282 0.706573 -0.000399999 0
0.158281 0.706571 -0.000599999 0
0.158281 0.70657 -0.000899999 0
0.158404 0.706542 -0.000899999 0
0.158404 0.70654 -0.000899999 0
0.158405 0.706537 -0.000899999 0
0.158405 0.706535 -0.000899999 0
0.158406 0.706534 -0.000999999 0
0.158407 0.706532 -0.000399999 0
0.158408 0.70653 -0.000399999 0
0.158409 0.706529 -0.000399999 0
0.158409 0.706528 -0.000899999 0
0.15841 0.706525 -0.000499999 0
0.15841 0.706523 -0.000499999 0
0.15841 0.706521 -0.000499999 0
0.158409 0.70652 -0.000499999 0
0.15841 0.706519 -0.000999999 0
0.158405 0.704519 -0.000999999 0
0.158409 0.706518 -9.99989e-05 0
0.158409 0.706517 -9.99989e-05 0
0.15841 0.706516 -0.000599999 0
0.15841 0.706515 -0.000599999 0
0.158409 0.706514 -0.000299999 0
0.158409 0.706512 -0.000299999 0
0.158409 0.706512 -0.000699999 0
0.158409 0.706511 -0.000699999 0
0.158409 0.70651 -0.000799999 0
0.15841 0.70651 -0.000799999 0
0.158411 0.706509 -0.000499999 0
0.158411 0.706507 -0.000599999 0
0.158405 0.703506 -0.000599999 0
0.158411 0.706505 -0.000599999 0
0.158411 0.706504 -0.000499999 0
0.158411 0.706503 -0.0013 0
0.15841 0.706502 -0.0013 0
0.15841 0.706501 -0.0013 0
0.158409 0.706499 -0.000499999 0
0.158408 0.706498 -0.000499999 0
0.158407 0.706497 -0.000599999 0
0.158407 0.706496 -0.000599999 0
0.158406 0.706494 -0.000899999 0
0.158406 0.706493 -0.000899999 0
0.158405 0.706493 -0.000499999 0
0.158405 0.706492 -0.000499999 0
0.158405 0.706491 -0.000499999 0
0.158406 0.70649 -0.000899999 0
0.158406 0.706488 -0.000899999 0
0.158406 0.706486 -0.000499999 0
0.158406 0.706485 -0.000499999 0
0.158406 0.706483 -0.000499999 0
0.158408 0.706482 -0.000999999 0
0.158285 0.706508 -0.0012 0
0.158285 0.706507 -0.0012 0
0.158286 0.706506 -0.0012 0
0.158286 0.706505 -0.000699999 0
0.158287 0.706504 -0.000699999 0
0.158287 0.706503 -0.000199999 0
0.158287 0.706503 -0.000199999 0
0.158408 0.706476 -0.000299999 0
0.158285 0.706502 -0.000299999 0
0.158408 0.706475 -0.000299999 0
0.158408 0.706474 -0.000399999 0
0.158408 0.706474 -0.000699999 0
0.158408 0.706474 -0.000699999 0
0.158407 0.706473 -0.000699999 0
0.158406 0.706472 9.8953e-10 0
0.158404 0.706472 -0.0014 0
0.158403 0.70647 -0.0014 0
0.158403 0.70647 -0.000699999 0
0.158403 0.706469 -0.000699999 0
0.158404 0.706468 -0.000599999 0
0.158404 0.706468 -0.000599999 0
0.158405 0.706467 -0.000799999 0
0.158405 0.706467 -0.000799999 0
0.158404 0.706468 -0.000899999 0
0.158404 0.706467 -0.000899999 0
0.158404 0.706466 -0.000699999 0
0.158404 0.706465 -0.000699999 0
0.158404 0.706463 -0.000299999 0
0.158403 0.706461 -0.000299999 0
0.158403 0.70646 -0.000399999 0
0.158403 0.70646 -0.000399999 0
0.158402 0.706458 -0.000499999 0
0.158401 0.706457 -0.000499999 0
0.1584 0.706456 -0.000799999 0
0.158399 0.706456 -0.000799999 0
0.158276 0.706481 -0.0011 0
0.158276 0.706479 -0.0011 0
0.158276 0.706478 -0.0011 0
0.158276 0.706477 -0.000699999 0
0.158278 0.707476 -0.000699999 0
0.158276 0.706475 -0.000799999 0
0.158277 0.706474 -0.000799999 0
0.158277 0.706473 -0.000599999 0
0.158277 0.706472 -0.000599999 0
0.158277 0.70647 -0.000699999 0
0.158275 0.70647 -0.000399999 0
0.158274 0.70647 -0.000399999 0
0.158273 0.706469 -0.000399999 0
0.158272 0.706469 -0.000599999 0
0.158272 0.706469 -0.000599999 0
0.158273 0.706469 -9.9999e-05 0
0.158273 0.706467 -0.000199999 0
0.158273 0.706466 -0.000199999 0
0.158273 0.706465 -0.000899999 0
0.158273 0.706463 -0.000899999 0
0.158273 0.706462 -0.0014 0
0.158272 0.706461 -0.0014 0
0.158272 0.706461 -0.000599999 0
0.158273 0.706461 -0.000599999 0
0.158273 0.70646 -0.000599999 0
0.158273 0.70646 -0.000699999 0
0.158273 0.70646 -0.000699999 0
0.158273 0.70646 -0.0015 0
0.158273 0.706459 -0.0015 0
0.158274 0.706457 -0.000499999 0
0.158273 0.706457 -0.000499999 0
0.158274 0.706456 -0.000699999 0
0.158275 0.706456 -0.000699999 0
0.158275 0.706455 -0.000699999 0
0.158276 0.706453 -0.000999999 0
0.158399 0.706424 -0.000999999 0
0.158398 0.706423 -0.000799999 0
0.158398 0.706422 -0.000799999 0
0.158398 0.70642 -0.000799999 0
0.158397 0.706419 -0.000899999 0
0.158397 0.706419 -0.000399999 0
0.158275 0.706446 -0.000399999 0
0.158275 0.706445 -0.000399999 0
0.158275 0.706444 -0.000899999 0
0.158275 0.706442 -0.000699999 0
0.158275 0.706442 -0.000699999 0
0.158275 0.706441 -0.000699999 0
0.158275 0.70644 -0.000499999 0
0.158274 0.706439 -0.000499999 0
0.158274 0.706436 -0.0015 0
0.158275 0.706435 -0.0015 0
0.158275 0.706434 -0.000499999 0
0.158274 0.706433 -0.000499999 0
0.158275 0.706432 -0.000599999 0
0.158274 0.706429 -0.000599999 0
0.158274 0.706428 -0.000899999 0
0.158274 0.706427 -0.000899999 0
0.158274 0.706426 -0.000699999 0
0.158274 0.706424 -0.000699999 0
0.158273 0.706423 -9.9999e-05 0
0.158273 0.706422 -9.9999e-05 0
0.158273 0.706421 -0.000799999 0
0.158272 0.706418 -0.000799999 0
0.158272 0.706416 -0.000799999 0
0.158272 0.706415 -0.000799999 0
0.158271 0.706413 -0.000799999 0
0.15827 0.706413 -0.000799999 0
0.158269 0.706411 -0.000199999 0
0.158269 0.706411 -0.000199999 0
0.15827 0.706411 -0.000199999 0
0.15827 0.70641 -0.000199999 0
0.158262 0.703408 -0.000499999 0
0.158267 0.706406 -0.000499999 0
0.158267 0.706404 -9.9999e-05 0
0.158266 0.706403 -9.9999e-05 0
0.158267 0.706402 -0.000799999 0
0.158267 0.706401 -0.000799999 0
0.158389 0.706373 -0.000899999 0
0.158364 0.694372 -0.000899999 0
0.158388 0.706371 -0.000399999 0
0.158388 0.706371 -0.000399999 0
0.158388 0.706371 -0.000399999 0
0.158387 0.70637 -0.000699999 0
0.158387 0.706368 -0.000499999 0
0.158387 0.706366 -0.000499999 0
0.158387 0.706366 -0.000999999 0
0.158387 0.706366 -0.000999999 0
0.158386 0.706366 -0.000999999 0
0.158386 0.706365 -0.000299999 0
0.158386 0.706364 -0.000299999 0
0.158386 0.706363 -0.000299999 0
0.158386 0.706362 -0.000299999 0
0.158387 0.706362 -0.000499999 0
0.158387 0.706361 -0.000499999 0
0.158388 0.70636 -0.000899999 0
0.158388 0.706359 -0.000899999 0
0.158388 0.706358 -0.000899999 0
0.158388 0.706355 -0.000199999 0
0.158387 0.706354 -0.000899999 0
0.158387 0.706353 -0.000899999 0
0.158386 0.70635 -0.000899999 0
0.158382 0.704349 -0.000799999 0
0.158263 0.706375 -0.000799999 0
0.158262 0.706372 0.000100001 0
0.158261 0.706371 0.000100001 0
0.15826 0.706371 -9.99991e-05 0
0.15826 0.70637 -9.99991e-05 0
0.158259 0.706369 -0.000299999 0
0.158256 0.706368 -0.000299999 0
0.158255 0.706367 -0.000699999 0
0.158254 0.706366 -0.000699999 0
0.158254 0.706366 -0.000499999 0
0.158254 0.706364 -0.000499999 0
0.158254 0.706362 0.000100001 0
0.158254 0.706361 0.000100001 0
0.158253 0.706361 -0.000799999 0
0.158253 0.706359 -0.000799999 0
0.158252 0.706359 -0.000999999 0
0.158252 0.706358 -0.000999999 0
0.158251 0.706357 -0.000399999 0
0.158374 0.706327 -0.000399999 0
0.158373 0.706326 -0.000499999 0
0.158373 0.706325 -0.000499999 0
0.158368 0.704324 -0.000799999 0
0.158371 0.70632 -0.000799999 0
0.158371 0.706319 -0.000999999 0
0.15837 0.706318 -0.000999999 0
0.15837 0.706317 -0.000999999 0
0.15837 0.706315 -0.000599999 0
0.15837 0.706314 1.04774e-09 0
0.158247 0.706341 1.04774e-09 0
0.158246 0.706339 -0.000299999 0
0.158247 0.706339 -0.000299999 0
0.158247 0.706338 -0.000599999 0
0.158247 0.706336 -0.000599999 0
0.158246 0.706334 -0.000199999 0
0.158246 0.706333 -0.000199999 0
0.158246 0.706331 -0.000199999 0
0.158246 0.70633 -0.000199999 0
0.158246 0.706329 -0.000199999 0
0.158246 0.706329 -0.000799999 0
0.158245 0.706328 -0.000799999 0
0.15824 0.703328 -0.000699999 0
0.158245 0.706327 -0.000699999 0
0.158244 0.706327 -0.000999999 0
0.158244 0.706327 -0.000999999 0
0.158244 0.706326 -0.000999999 0
0.158244 0.706326 -0.000699999 0
0.15824 0.704325 -0.000699999 0
0.158244 0.706321 -0.000699999 0
0.158243 0.70632 -0.000699999 0
0.158243 0.706318 -0.000899999 0
0.158243 0.706317 -0.000899999 0
0.158243 0.706316 -0.000599999 0
0.158242 0.706315 -0.000599999 0
0.158242 0.706315 -0.000899999 0
0.158243 0.706315 -0.000899999 0
0.158242 0.706315 -0.000899999 0
0.158242 0.706314 -0.000399999 0
0.158241 0.706314 -0.000399999 0
0.158241 0.706314 -0.000399999 0
0.158241 0.706313 -0.000799999 0
0.158364 0.706285 -0.000799999 0
0.158244 0.708311 -0.000799999 0
0.158241 0.706309 -0.000799999 0
0.158241 0.706308 -0.000799999 0
0.158365 0.70628 0.000100001 0
0.158242 0.706306 -0.000999999 0
0.158243 0.706305 -0.000999999 0
0.158243 0.706303 -0.000999999 0
0.158366 0.706273 -0.000999999 0
0.158365 0.706271 -0.000499999 0
0.158364 0.70627 -0.000499999 0
0.158363 0.706269 -0.0011 0
0.158363 0.706267 -0.0011 0
0.158362 0.706267 -0.000699999 0
0.158239 0.706294 -0.000699999 0
0.158239 0.706292 -0.000399999 0
0.158361 0.706264 -0.000399999 0
0.15836 0.706263 -0.000399999 0
0.15836 0.706262 -0.000399999 0
0.15836 0.706262 -0.0014 0
0.158237 0.706289 -0.0014 0
0.158237 0.706288 -0.000699999 0
0.158237 0.706287 -0.000699999 0
0.158238 0.706286 -0.000699999 0
0.158239 0.706285 -0.000299999 0
0.158239 0.706283 -0.000699999 0
0.158239 0.706281 -0.000699999 0
0.158239 0.706281 -0.000799999 0
0.158239 0.70628 -0.000799999 0
0.158239 0.706279 -0.000999999 0
0.158239 0.706279 -0.000999999 0
0.158238 0.706278 -0.000999999 0
0.158238 0.706278 -0.000699999 0
0.158235 0.706277 -0.000799999 0
0.158235 0.706276 -0.000799999 0
0.158358 0.706247 -0.000399999 0
0.158359 0.706247 -0.000399999 0
0.158359 0.706243 -0.000699999 0
0.158237 0.70627 -0.000699999 0
0.15836 0.706242 -0.000499999 0
0.15836 0.706242 -0.000499999 0
0.158353 0.70324 -0.000499999 0
0.158359 0.706238 -0.000499999 0
0.158359 0.706237 -0.000499999 0
0.158358 0.706236 -0.000799999 0
0.158237 0.706261 -0.000599999 0
0.158237 0.70626 -0.000599999 0
0.15836 0.706233 -0.000299999 0
0.158361 0.706231 -0.000299999 0
0.158361 0.70623 -0.000299999 0
0.158361 0.706228 -0.000299999 0
0.158361 0.706227 -0.000299999 0
0.158237 0.706254 -0.000299999 0
0.158236 0.706252 -0.000599999 0
0.158236 0.706251 -0.000599999 0
0.158235 0.706251 -0.000899999 0
0.158235 0.706249 -0.000899999 0
0.158358 0.706221 -0.000699999 0
0.158358 0.706219 -0.000699999 0
0.158357 0.706218 -0.000899999 0
0.158357 0.706217 -0.000899999 0
0.158357 0.706216 -0.000799999 0
0.158357 0.706216 -0.000799999 0
0.158357 0.706213 -0.000499999 0
0.158357 0.706212 -0.000499999 0
0.158357 0.706212 -0.000899999 0
0.158359 0.706212 -0.000899999 0
0.158359 0.706212 -0.000699999 0
0.158358 0.706212 -0.000699999 0
0.158359 0.706212 -0.000999999 0
0.158359 0.706212 -0.000299999 0
0.158358 0.706212 -0.000299999 0
0.158358 0.706211 -0.000299999 0
0.158358 0.70621 -0.000199999 0
0.15836 0.706209 -0.000199999 0
0.158361 0.706208 -0.000699999 0
0.158361 0.706208 -0.000699999 0
0.158361 0.706206 0.000100001 0
0.158361 0.706205 0.000100001 0
0.15836 0.706203 0.000200001 0
0.158359 0.706201 0.000200001 0
0.158359 0.7062 -0.000899999 0
0.15836 0.706199 -0.000899999 0
0.15836 0.706199 -0.000899999 0
0.15836 0.706198 -0.000599999 0
0.15836 0.706196 -0.000599999 0
0.158362 0.706194 -0.000499999 0
0.158361 0.706193 -0.000499999 0
0.158238 0.706219 -0.000799999 0
0.158237 0.706218 -0.000799999 0
0.15836 0.70619 -0.000299999 0
0.158359 0.706188 -0.000299999 0
0.158358 0.706187 -0.0011 0
0.158359 0.706186 -0.0011 0
0.158358 0.706184 -0.000599999 0
0.158358 0.706184 -0.000399999 0
0.158357 0.706183 -0.000399999 0
0.158357 0.706182 -0.000399999 0
0.158356 0.706179 -0.000199999 0
0.158355 0.706178 -0.000499999 0
0.158355 0.706176 -0.000499999 0
0.15823 0.7062 -0.000499999 0
0.15823 0.706199 -0.000499999 0
0.15823 0.706197 -0.000499999 0
0.158234 0.708197 -0.000499999 0
0.158232 0.706195 -0.000699999 0
0.158231 0.706194 -0.000699999 0
0.158231 0.706194 -0.000299999 0
0.158231 0.706193 -0.000299999 0
0.15823 0.706192 -0.0011 0
0.15823 0.706192 -0.0011 0
0.15823 0.706191 -0.000699999 0
0.15823 0.70619 -0.000699999 0
0.158229 0.706188 -0.000699999 0
0.158229 0.706187 -0.000699999 0
0.158229 0.706186 -0.000599999 0
0.158224 0.703184 -0.000599999 0
0.158229 0.706183 -0.000599999 0
0.158228 0.706181 -0.000999999 0
0.158228 0.70618 -0.000999999 0
0.158227 0.706178 -0.000599999 0
0.158227 0.706177 -0.000599999 0
0.158227 0.706176 -0.000599999 0
0.158227 0.706175 -0.000899999 0
0.158226 0.706172 -0.000799999 0
0.158226 0.70617 -0.000799999 0
0.158225 0.706169 -0.000799999 0
0.158225 0.706168 -0.0012 0
0.158224 0.706167 -0.0012 0
0.158224 0.706165 -0.000499999 0
0.158224 0.706164 -0.000499999 0
0.158223 0.706164 -0.000499999 0
0.158223 0.706163 -0.000599999 0
0.158222 0.706163 -0.000599999 0
0.158222 0.706163 -0.000199999 0
0.158222 0.706163 -0.000199999 0
0.158222 0.706163 -0.000199999 0
0.158222 0.706163 -0.000499999 0
0.158222 0.706162 -0.000499999 0
0.158222 0.706161 -0.000599999 0
0.158222 0.706161 -0.000599999 0
0.158222 0.70616 -0.000599999 0
0.158224 0.706159 -0.000699999 0
0.158224 0.706159 -0.000699999 0
0.158224 0.706159 -0.000299999 0
0.158223 0.706157 -0.000299999 0
0.158223 0.706156 -0.000899999 0
0.158224 0.706155 -0.000899999 0
0.158224 0.706155 -0.000599999 0
0.15835 0.708126 -0.000599999 0
0.158223 0.706152 -0.000599999 0
0.158223 0.70615 -0.000399999 0
0.158223 0.706147 -0.000399999 0
0.158223 0.706146 -0.000999999 0
0.158223 0.706145 -0.000999999 0
0.158224 0.706142 -9.99991e-05 0
0.158225 0.706141 -9.99991e-05 0
0.158348 0.706112 -0.000899999 0
0.158348 0.706111 -0.000899999 0
0.158348 0.706108 -0.000399999 0
0.158348 0.706107 -0.000399999 0
0.158348 0.706105 -0.000399999 0
0.158348 0.706104 -0.000599999 0
0.158348 0.706102 -0.000599999 0
0.158347 0.7061 -0.000299999 0
0.158347 0.7061 -0.000499999 0
0.158346 0.706098 -0.000499999 0
0.158346 0.706096 -0.000499999 0
0.158345 0.706095 -0.000599999 0
0.158345 0.706094 -0.000599999 0
0.158344 0.706094 -0.000899999 0
0.158344 0.706093 -0.000899999 0
0.158344 0.706091 -0.000899999 0
0.158343 0.70609 -0.000399999 0
0.158343 0.706088 -0.000399999 0
0.158342 0.706087 -0.000599999 0
0.158341 0.706086 -0.000599999 0
0.158341 0.706085 -0.000599999 0
0.158342 0.706082 -0.000499999 0
0.158343 0.706082 -0.000599999 0
0.158344 0.706081 -0.000599999 0
0.158344 0.70608 -0.000599999 0
0.158344 0.706079 -0.000699999 0
0.158344 0.706077 -0.000699999 0
0.158221 0.706103 -0.000599999 0
0.158221 0.706102 -0.000599999 0
0.158344 0.706074 -0.000699999 0
0.158221 0.706101 -0.000699999 0
0.158221 0.706101 -0.000999999 0
0.158221 0.706101 -0.000999999 0
0.158221 0.706101 -0.000599999 0
0.158221 0.706101 -0.000599999 0
0.158221 0.7061 -0.000399999 0
0.158344 0.706071 -0.000399999 0
0.158344 0.706069 -0.000599999 0
0.158344 0.706068 -0.000599999 0
0.158343 0.706066 -0.000599999 0
0.158342 0.706064 -0.000599999 0
0.158342 0.706063 -0.000399999 0
0.158342 0.706059 -0.000699999 0
0.158342 0.706058 -0.000699999 0
0.158342 0.706057 -0.000699999 0
0.158342 0.706055 -0.000499999 0
0.158338 0.704055 -0.000499999 0
0.158342 0.706055 -0.000599999 0
0.158341 0.706054 -0.000599999 0
0.158342 0.706052 -0.000499999 0
0.158341 0.706051 -0.000499999 0
0.158341 0.70605 -0.000499999 0
0.158341 0.706047 -0.000399999 0
0.158341 0.706046 -0.000399999 0
0.158341 0.706045 -0.000299999 0
0.15834 0.706042 -0.000299999 0
0.158339 0.706041 -0.000699999 0
0.158339 0.706039 -0.000699999 0
0.158338 0.706038 -0.000999999 0
0.158337 0.706036 -0.000999999 0
0.158337 0.706035 -0.000999999 0
0.158336 0.706033 -0.000999999 0
0.158337 0.706033 -0.000699999 0
0.158338 0.706032 -0.000699999 0
0.158338 0.706031 -0.000799999 0
0.158338 0.706031 -0.000599999 0
0.158339 0.706031 -0.000599999 0
0.158339 0.706031 -0.000599999 0
0.158339 0.706031 -0.000599999 0
0.158339 0.70603 -0.000599999 0
0.158339 0.706029 -0.000299999 0
0.158338 0.706028 -0.000299999 0
0.158338 0.706028 -0.000299999 0
0.158338 0.706028 -0.000599999 0
0.158338 0.706027 -0.000599999 0
0.158338 0.706026 -0.000599999 0
0.158337 0.706025 -0.000599999 0
0.158337 0.706024 -0.000399999 0
0.158337 0.706023 -0.000399999 0
0.158337 0.706019 -0.000499999 0
0.158337 0.706019 -0.000499999 0
0.158337 0.706017 -0.0011 0
0.158337 0.706017 -0.0011 0
0.158337 0.706016 -0.0011 0
0.158332 0.704015 -9.9999e-05 0
0.158337 0.706013 -0.000999999 0
0.158336 0.706012 -0.000999999 0
0.158334 0.706011 -0.000599999 0
0.158334 0.70601 -0.000599999 0
0.158333 0.706009 -0.000999999 0
0.158334 0.706009 -0.000999999 0
0.158334 0.706009 -0.000199999 0
0.158334 0.706009 -0.000199999 0
0.158335 0.706009 -0.000299999 0
0.158334 0.706009 -0.000299999 0
0.158334 0.706009 -0.000999999 0
0.158335 0.706009 -0.000999999 0
0.158335 0.706008 -0.000899999 0
0.158335 0.706008 -0.000899999 0
0.158334 0.706006 -0.000899999 0
0.158334 0.706004 -0.000799999 0
0.158334 0.706004 -0.000999999 0
0.158335 0.706003 -0.000999999 0
0.158335 0.706002 -0.000399999 0
0.158335 0.706001 -0.000399999 0
0.158334 0.706001 -0.000899999 0
0.158334 0.706 -0.000899999 0
0.158333 0.706 -0.000199999 0
0.158333 0.705998 -0.000199999 0
0.158333 0.705998 -0.000699999 0
0.158333 0.705997 -0.000699999 0
0.158333 0.705996 -0.000999999 0
0.15821 0.706022 -0.000999999 0
0.158209 0.706022 -0.000599999 0
0.158209 0.706021 -0.000599999 0
0.158209 0.70602 -0.000599999 0
0.15821 0.706019 -0.000599999 0
0.15821 0.706018 -0.000799999 0
0.15821 0.706017 -0.000799999 0
0.158211 0.706016 -0.000299999 0
0.158212 0.706014 -0.000299999 0
0.158212 0.706014 -0.000299999 0
0.158212 0.706012 -0.000799999 0
0.158213 0.706011 -0.000799999 0
0.158213 0.70601 -0.000799999 0
0.158215 0.706008 -9.99991e-05 0
0.158215 0.706006 -0.000699999 0
0.158216 0.706005 -0.000699999 0
0.158215 0.706005 -0.000899999 0
0.158215 0.706004 -0.000899999 0
0.158214 0.706003 -0.000899999 0
0.158214 0.706002 -9.99992e-05 0
0.158215 0.706001 -9.99992e-05 0
0.158217 0.705998 -0.000899999 0
0.158218 0.705996 -0.000899999 0
0.158219 0.705994 -0.000599999 0
0.158219 0.705993 -0.000599999 0
0.158219 0.705991 -0.000599999 0
0.158219 0.705989 -0.000599999 0
0.158219 0.705988 -0.000799999 0
0.158218 0.705986 -0.000799999 0
0.158219 0.705985 -0.000599999 0
0.158218 0.705984 -0.000599999 0
0.158219 0.70598 -0.000699999 0
0.158219 0.705979 -0.000699999 0
0.158218 0.705978 -0.000699999 0
0.158218 0.705976 -0.000699999 0
0.158217 0.705973 -0.000699999 0
0.158217 0.705971 -0.000699999 0
0.158217 0.705971 -0.000699999 0
0.158338 0.705941 -9.99991e-05 0
0.158338 0.705941 -0.000499999 0
0.158336 0.70594 -0.000499999 0
0.158335 0.705939 -0.000699999 0
0.158334 0.705938 -0.000699999 0
0.158332 0.705937 -0.000599999 0
0.158331 0.705937 -0.000599999 0
0.158331 0.705937 -0.000499999 0
0.158331 0.705937 -0.000499999 0
0.15833 0.705935 -0.000499999 0
0.15833 0.705935 -0.000399999 0
0.158329 0.705934 -0.000799999 0
0.158329 0.705934 -0.000799999 0
0.158329 0.705933 -0.000799999 0
0.158328 0.705931 -0.000399999 0
0.158328 0.705929 -0.000299999 0
0.158327 0.705929 -0.000299999 0
0.158326 0.705929 -0.000299999 0
0.158326 0.705928 -0.000799999 0
0.158326 0.705926 -0.000599999 0
0.158203 0.705953 -0.000599999 0
0.158203 0.705952 -0.000599999 0
0.158203 0.705952 -0.0011 0
0.158203 0.705951 -0.0011 0
0.158203 0.70595 -0.000699999 0
0.158203 0.705948 -0.000699999 0
0.158202 0.705947 -0.000799999 0
0.158202 0.705945 -0.000599999 0
0.158202 0.705944 -0.000599999 0
0.158202 0.705943 -0.000599999 0
0.158202 0.705942 -0.000499999 0
0.158202 0.705941 -0.000799999 0
0.158202 0.70594 -0.000799999 0
0.158203 0.70594 -0.000799999 0
0.158203 0.705941 -0.000799999 0
0.158203 0.70594 -0.000699999 0
0.158203 0.70594 -0.000699999 0
0.158203 0.70594 -0.000699999 0
0.158325 0.705911 -0.000299999 0
0.158326 0.70591 -0.000299999 0
0.158326 0.705908 -0.000599999 0
0.158325 0.705908 -0.000599999 0
0.158324 0.705905 -0.000499999 0
0.158324 0.705904 -0.000899999 0
0.158322 0.704903 -0.000899999 0
0.1582 0.705928 -0.000499999 0
0.158199 0.705929 -0.000499999 0
0.158199 0.705928 -0.000999999 0
0.158199 0.705927 -0.000999999 0
0.158199 0.705925 -0.000299999 0
0.158199 0.705924 -0.000299999 0
0.158199 0.705922 -0.000299999 0
0.158198 0.70592 -0.000299999 0
0.15832 0.705892 -0.000799999 0
0.158197 0.705918 -0.000799999 0
0.158196 0.705917 -0.000899999 0
0.158195 0.705915 -0.000899999 0
0.158317 0.705886 -0.000799999 0
0.158317 0.705886 -0.000799999 0
0.158316 0.705885 -0.000899999 0
0.158313 0.704885 -0.000899999 0
0.158192 0.705911 -0.000499999 0
0.158192 0.70591 -0.000499999 0
0.158192 0.705907 -0.000799999 0
0.158193 0.705906 -0.000799999 0
0.158193 0.705905 -0.000499999 0
0.158193 0.705902 -0.000499999 0
0.158193 0.7059 -0.000199999 0
0.158192 0.705898 -0.000199999 0
0.15819 0.705897 -0.000599999 0
0.15819 0.705896 -0.000599999 0
0.158313 0.705867 -0.000599999 0
0.158313 0.705867 -0.000599999 0
0.158312 0.705867 -0.000299999 0
0.158311 0.705864 -0.000199999 0
0.158309 0.705863 -0.000199999 0
0.158309 0.705862 -0.000199999 0
0.158309 0.705861 -0.000699999 0
0.158308 0.705859 -0.000399999 0
0.158308 0.705859 -0.000399999 0
0.158307 0.705858 -0.000399999 0
0.158308 0.705857 -0.000599999 0
0.158307 0.705855 -0.000599999 0
0.158307 0.705853 -0.000499999 0
0.158308 0.705853 -0.000499999 0
0.15831 0.705849 -0.000699999 0
0.15831 0.705848 -0.000699999 0
0.15831 0.705847 -0.000699999 0
0.158311 0.705845 -0.000599999 0
0.158311 0.705844 -0.000599999 0
0.158312 0.705844 -0.000899999 0
0.158312 0.705844 -0.000899999 0
0.158314 0.706843 -0.000599999 0
0.158312 0.705842 -0.000599999 0
0.158312 0.70584 -0.000499999 0
0.158312 0.705839 -0.000499999 0
0.158313 0.705837 -0.000199999 0
0.158313 0.705837 -0.000199999 0
0.158393 0.745836 -0.000799999 0
0.158312 0.705834 -0.000799999 0
0.158312 0.705833 -0.000599999 0
0.158312 0.705832 -0.000599999 0
0.158312 0.705831 0.000200001 0
0.158312 0.70583 0.000200001 0
0.158312 0.705829 -0.000999999 0
0.158311 0.705828 -0.000999999 0
0.158312 0.705828 -0.000999999 0
0.158312 0.705827 -0.000799999 0
0.158312 0.705826 -0.000799999 0
0.158312 0.705825 -0.000199999 0
0.158312 0.705824 -0.000199999 0
0.158312 0.705823 -0.000399999 0
0.158313 0.705823 -0.000399999 0
0.158313 0.705822 -0.000399999 0
0.158314 0.705821 -0.000299999 0
0.158315 0.70582 -0.000799999 0
0.158316 0.705819 -0.000799999 0
0.158316 0.705818 -0.000799999 0
0.158316 0.705816 -0.000599999 0
0.158316 0.705815 -0.000599999 0
0.158311 0.703814 -0.000599999 0
0.158314 0.705813 -0.000599999 0
0.158313 0.705811 -0.000599999 0
0.158311 0.70481 -0.000499999 0
0.158312 0.705809 -0.000499999 0
0.158311 0.705808 -0.000499999 0
0.158312 0.705807 -0.000499999 0
0.158312 0.705806 -0.000499999 0
0.158312 0.705805 -0.000199999 0
0.158312 0.705803 -0.000199999 0
0.158312 0.705802 -0.000299999 0
0.158311 0.7058 -0.000299999 0
0.158308 0.703799 -0.000299999 0
0.158312 0.705796 -0.000399999 0
0.158312 0.705795 -0.000999999 0
0.158313 0.705794 -0.000999999 0
0.158313 0.705794 -0.000999999 0
0.158313 0.705793 -0.000699999 0
0.158313 0.70579 -0.000399999 0
0.158313 0.705789 -0.000399999 0
0.158313 0.705788 -0.000399999 0
0.158313 0.705787 -0.000899999 0
0.158313 0.705786 -0.000499999 0
0.158313 0.705786 -0.000499999 0
0.158313 0.705786 -0.000499999 0
0.158312 0.705784 -0.000599999 0
0.158313 0.705784 -0.000599999 0
0.158313 0.705782 -0.000299999 0
0.158314 0.70578 -0.000899999 0
0.158314 0.705779 -0.000899999 0
0.158314 0.705777 -0.000899999 0
0.158313 0.705776 -0.000599999 0
0.158313 0.705774 -0.000499999 0
0.158313 0.705772 -0.000499999 0
0.158312 0.705771 -0.000599999 0
0.158313 0.70577 -0.000599999 0
0.158314 0.705769 -0.000599999 0
0.158314 0.705768 -0.000599999 0
0.158314 0.705768 -0.000599999 0
0.158314 0.705767 -0.000299999 0
0.158314 0.705765 -0.000299999 0
0.158315 0.705763 -0.000199999 0
0.158315 0.705762 -0.000199999 0
0.158316 0.705761 -0.000399999 0
0.158314 0.704758 -0.000699999 0
0.158315 0.705757 -0.000699999 0
0.158315 0.705756 -0.000799999 0
0.158315 0.705754 -0.000799999 0
0.158315 0.705753 -0.000199999 0
0.158315 0.705752 -0.000199999 0
0.158315 0.705752 -0.000199999 0
0.158314 0.70575 -0.000499999 0
0.158313 0.705749 -0.000499999 0
0.158313 0.705749 -0.000499999 0
0.158314 0.705748 -0.000499999 0
0.158313 0.705747 -0.000799999 0
0.158313 0.705746 -0.000799999 0
0.158313 0.705746 -0.000199999 0
0.158313 0.705744 -0.000199999 0
0.158313 0.705744 -0.000499999 0
0.158314 0.705744 -0.000599999 0
0.158314 0.705744 -0.000599999 0
0.158314 0.705743 -0.000199999 0
0.158308 0.702742 -0.000199999 0
0.158314 0.705742 -0.000399999 0
0.158313 0.705743 -0.000399999 0
0.158312 0.705744 -0.000699999 0
0.158311 0.705743 -0.000699999 0
0.15831 0.705742 -0.000599999 0
0.15831 0.705742 -0.000599999 0
0.15831 0.705742 -0.000399999 0
0.15831 0.70574 -0.000399999 0
0.158311 0.705739 -0.000599999 0
0.15831 0.705738 -0.000599999 0
0.15831 0.705737 -0.000499999 0
0.15831 0.705735 -0.000499999 0
0.15831 0.705734 -0.000499999 0
0.15831 0.705732 -0.000799999 0
0.15831 0.705731 -0.000699999 0
0.15831 0.70573 -0.000699999 0
0.15831 0.705729 -0.000699999 0
0.158304 0.702728 -0.000999999 0
0.158188 0.705755 -0.000999999 0
0.158311 0.705727 -0.000999999 0
0.158311 0.705726 -0.000999999 0
0.158311 0.705725 -0.000699999 0
0.158312 0.705723 -0.000699999 0
0.158312 0.705722 -0.000699999 0
0.158189 0.705748 -0.000699999 0
0.158313 0.70572 -0.000299999 0
0.158191 0.705746 -0.000299999 0
0.15819 0.705745 -0.000599999 0
0.15819 0.705744 -0.000599999 0
0.158189 0.705743 -0.000799999 0
0.158189 0.705742 -0.000799999 0
0.158189 0.705741 -0.000399999 0
0.158189 0.705741 -0.000399999 0
0.158312 0.705711 -0.000599999 0
0.158312 0.705711 -0.000599999 0
0.158311 0.70571 -0.000399999 0
0.158311 0.705707 -0.000399999 0
0.15831 0.705705 -0.000299999 0
0.158309 0.705704 -0.000299999 0
0.158309 0.705703 6.98492e-10 0
0.158308 0.705702 6.98492e-10 0
0.158309 0.705701 6.98492e-10 0
0.158284 0.6937 -0.000799999 0
0.158309 0.705698 -0.000299999 0
0.158309 0.705698 -0.000299999 0
0.158309 0.705697 -0.000299999 0
0.158309 0.705696 -0.0011 0
0.158309 0.705696 -0.0011 0
0.158309 0.705696 -0.0011 0
0.158308 0.705695 -0.000599999 0
0.158308 0.705693 -0.000399999 0
0.158308 0.705692 -0.000399999 0
0.158308 0.705691 -0.000699999 0
0.158308 0.70569 -0.000699999 0
0.158307 0.705687 -0.000999999 0
0.158307 0.705686 -0.000999999 0
0.158306 0.705685 -0.000999999 0
0.158305 0.705684 -0.000799999 0
0.158182 0.705709 -0.0011 0
0.158182 0.705708 -0.0011 0
0.158181 0.705707 -0.000399999 0
0.158181 0.705706 -0.000399999 0
0.158178 0.703705 -0.000399999 0
0.158182 0.705703 -0.000999999 0
0.158181 0.705702 -0.000699999 0
0.158181 0.7057 -0.000699999 0
0.158181 0.705698 -0.000699999 0
0.158181 0.705696 -0.000999999 0
0.15818 0.705694 -0.000999999 0
0.15818 0.705692 -0.000199999 0
0.15818 0.705692 -0.000199999 0
0.158179 0.705691 -0.000599999 0
0.158179 0.70569 -0.000599999 0
0.158179 0.705689 -0.000599999 0
0.158178 0.705688 -0.000599999 0
0.158178 0.705687 0.000100001 0
0.158178 0.705686 0.000100001 0
0.158178 0.705686 -0.000599999 0
0.158178 0.705683 -0.000599999 0
0.158179 0.705682 -0.000999999 0
0.158178 0.705681 -0.000999999 0
0.158178 0.70568 -0.000599999 0
0.158178 0.705678 -0.000599999 0
0.158178 0.705678 -0.000399999 0
0.158177 0.705678 -0.000399999 0
0.158177 0.705677 -0.000699999 0
0.158178 0.705675 -0.000699999 0
0.158173 0.702673 -0.000899999 0
0.15818 0.705673 -0.000899999 0
0.15818 0.705672 -0.000299999 0
0.158181 0.70567 -0.000299999 0
0.15818 0.705669 -0.000299999 0
0.158181 0.705669 -0.000599999 0
0.158181 0.705668 -0.000599999 0
0.158304 0.70564 -0.000399999 0
0.158182 0.705667 -0.000399999 0
0.158183 0.705667 -0.000599999 0
0.158307 0.705638 -0.000599999 0
0.158307 0.705637 -0.000399999 0
0.158185 0.705664 -0.000399999 0
0.158185 0.705663 -0.000399999 0
0.158186 0.705662 6.69388e-10 0
0.158185 0.705662 6.69388e-10 0
0.158185 0.705661 -0.000499999 0
0.158308 0.705633 -0.000499999 0
0.158308 0.705631 -0.000499999 0
0.158185 0.705657 -0.000699999 0
0.158185 0.705656 -0.000699999 0
0.158184 0.705655 -0.000299999 0
0.158184 0.705653 -0.000299999 0
0.158306 0.705625 -0.000899999 0
0.158306 0.705624 -0.000899999 0
0.158305 0.705623 -0.000899999 0
0.158306 0.705623 5.82077e-10 0
0.158306 0.705622 5.82077e-10 0
0.158305 0.70562 -0.000399999 0
0.158306 0.70562 -0.000399999 0
0.158183 0.705646 -0.000199999 0
0.158184 0.705646 -0.000199999 0
0.158184 0.705645 -0.000199999 0
0.158185 0.705645 -0.000799999 0
0.158184 0.705642 -0.000499999 0
0.158184 0.705641 -0.000499999 0
0.158184 0.705639 -0.000499999 0
0.158184 0.705638 -0.000699999 0
0.158183 0.705638 -0.000699999 0
0.158306 0.70561 -0.000699999 0
0.158305 0.705609 -0.000599999 0
0.158182 0.705635 -0.000199999 0
0.158182 0.705634 -0.000199999 0
0.158182 0.705633 0.000300001 0
0.158182 0.705631 0.000300001 0
0.158182 0.70563 0.000300001 0
0.158183 0.705629 -0.000999999 0
0.158183 0.705629 -0.000999999 0
0.158184 0.705628 -0.000899999 0
0.158184 0.705628 -0.000899999 0
0.158184 0.705628 0.000400001 0
0.158184 0.705627 0.000400001 0
0.158184 0.705627 -0.0008 0
0.158184 0.705626 -0.0008 0
0.158184 0.705625 -0.0008 0
0.158184 0.705623 -0.0004 0
0.158183 0.705622 -0.0004 0
0.158183 0.70562 -0.0006 0
0.158182 0.705618 -0.0006 0
0.158182 0.705616 -0.0006 0
0.158181 0.705614 -0.0007 0
0.15818 0.705612 -0.0007 0
0.158179 0.705612 -0.0008 0
0.158178 0.70561 -0.0008 0
0.158178 0.705609 -0.0008 0
0.158178 0.705607 -0.0004 0
0.158178 0.705606 -0.0015 0
0.158177 0.705605 -0.0015 0
0.158176 0.705604 -0.0015 0
0.158176 0.705603 -9.99996e-05 0
0.158175 0.705602 -9.99996e-05 0
0.158298 0.705573 -0.0005 0
0.158299 0.705572 -0.0005 0
0.158299 0.705572 -0.0005 0
0.158299 0.705571 -0.0007 0
0.1583 0.705569 -0.0007 0
0.1583 0.705568 -0.0004 0
0.1583 0.705567 -0.0004 0
0.158299 0.705566 -0.0004 0
0.158299 0.705565 -0.0009 0
0.158298 0.705564 -0.0009 0
0.158297 0.705564 -0.0008 0
0.158296 0.705563 -0.0008 0
0.158297 0.705562 -0.0005 0
0.158297 0.705561 -0.0005 0
0.158175 0.705588 -0.0009 0
0.158175 0.705588 -0.0009 0
0.158174 0.705587 -0.0009 0
0.158173 0.705585 -0.000299999 0
0.158172 0.705585 -0.000299999 0
0.158171 0.705584 -0.000299999 0
0.158171 0.705583 -0.000299999 0
0.15817 0.705581 -0.000299999 0
0.15817 0.70558 -0.0007 0
0.15817 0.705579 -0.0007 0
0.158171 0.705578 -0.0008 0
0.158171 0.705578 -0.0008 0
0.158294 0.70555 -0.0007 0
0.158295 0.705549 -0.0007 0
0.158295 0.705548 -0.0007 0
0.158295 0.705547 -0.0006 0
0.158296 0.705546 -0.0006 0
0.158173 0.70557 -9.99995e-05 0
0.158173 0.705569 -9.99995e-05 0
0.158172 0.705567 -0.000499999 0
0.158294 0.705538 -0.000499999 0
0.158294 0.705536 -0.000999999 0
0.158293 0.705535 -0.000999999 0
0.158293 0.705533 -0.000999999 0
0.158293 0.705532 -0.0011 0
0.158293 0.70553 -0.0011 0
0.158292 0.705529 -0.000499999 0
0.158292 0.705527 -0.000499999 0
0.158292 0.705523 -0.000399999 0
0.158292 0.705521 -0.000399999 0
0.158291 0.70552 -0.0013 0
0.158291 0.705519 -0.0013 0
0.15829 0.705518 -0.0013 0
0.158289 0.705517 -0.000299999 0
0.158289 0.705515 -0.000299999 0
0.158288 0.705513 -0.000999999 0
0.158165 0.705539 -0.000999999 0
0.158164 0.705538 -0.000499999 0
0.158286 0.705509 -0.000499999 0
0.158162 0.705536 -0.000899999 0
0.158162 0.705534 -0.000899999 0
0.158161 0.705534 -0.000899999 0
0.158161 0.705533 -0.000699999 0
0.15816 0.705532 -0.000699999 0
0.15816 0.70553 -0.000399999 0
0.158159 0.705529 -0.000399999 0
0.158159 0.705527 -0.000899999 0
0.158159 0.705526 -0.000899999 0
0.158159 0.705525 -0.000399999 0
0.158159 0.705524 -0.000399999 0
0.158159 0.705521 -0.000499999 0
0.158159 0.70552 -0.000499999 0
0.158159 0.705518 -0.000499999 0
0.158159 0.705517 -0.000799999 0
0.158157 0.705517 -0.000799999 0
0.158157 0.705516 -0.000699999 0
0.158278 0.705486 -0.000599999 0
0.158149 0.702512 -0.000599999 0
0.158155 0.705511 -0.000599999 0
0.158154 0.70551 -0.000599999 0
0.158154 0.705509 -0.000599999 0
0.158153 0.705507 -0.000399999 0
0.158153 0.705506 -0.000399999 0
0.158153 0.705505 -0.000399999 0
0.158153 0.705503 -0.0011 0
0.158153 0.705502 -0.000899999 0
0.158153 0.705501 -0.000899999 0
0.158152 0.7055 -0.000899999 0
0.158152 0.705499 6.98492e-10 0
0.158152 0.705498 6.98492e-10 0
0.158152 0.705497 -0.0011 0
0.158153 0.705496 -0.0011 0
0.158152 0.705496 -0.000799999 0
0.158152 0.705496 -0.000799999 0
0.158152 0.705495 -0.000799999 0
0.158152 0.705495 0.000100001 0
0.158151 0.705494 0.000100001 0
0.158151 0.705494 -0.000799999 0
0.158152 0.705493 -0.000799999 0
0.158151 0.705492 -0.000499999 0
0.158152 0.705492 -0.000499999 0
0.158153 0.705491 -0.000399999 0
0.158153 0.70549 -0.000399999 0
0.158153 0.70549 -0.000299999 0
0.158153 0.70549 -0.000299999 0
0.158153 0.70549 -0.000799999 0
0.158153 0.70549 -0.000799999 0
0.158152 0.70549 -0.000499999 0
0.158152 0.705489 -0.000499999 0
0.158151 0.705488 -0.000799999 0
0.158148 0.704487 -0.000799999 0
0.15815 0.705486 -0.000799999 0
0.15815 0.705483 -0.000799999 0
0.158149 0.705482 -0.000599999 0
0.158149 0.705481 -0.000599999 0
0.158148 0.70548 -0.000599999 0
0.158148 0.70548 -0.000399999 0
0.158147 0.705478 -0.000399999 0
0.158147 0.705478 -0.000399999 0
0.158147 0.705478 -0.000399999 0
0.158147 0.705477 -0.000399999 0
0.158146 0.705476 -0.000399999 0
0.158146 0.705475 -0.000499999 0
0.158147 0.705473 -0.000499999 0
0.158147 0.705472 -0.000599999 0
0.158147 0.705471 -0.000599999 0
0.158146 0.705469 -0.000599999 0
0.158146 0.705468 -0.000999999 0
0.158145 0.705467 -0.000999999 0
0.158145 0.705466 -0.000399999 0
0.158145 0.705465 -0.000399999 0
0.158145 0.705462 -0.000799999 0
0.158145 0.705461 -0.000799999 0
0.158145 0.70546 -0.000199999 0
0.158145 0.70546 -0.000199999 0
0.158145 0.705459 -0.000199999 0
0.158143 0.704458 -0.000499999 0
0.158144 0.705456 -0.000499999 0
0.158145 0.705456 -0.000899999 0
0.158145 0.705455 -0.000899999 0
0.158268 0.705427 -0.000399999 0
0.158268 0.705426 -0.000399999 0
0.158267 0.705424 -0.000299999 0
0.158267 0.705423 -0.000299999 0
0.158266 0.705422 -0.000299999 0
0.158267 0.705421 -0.000699999 0
0.158267 0.70542 -0.000699999 0
0.158267 0.705418 -0.000399999 0
0.158267 0.705418 -0.000399999 0
0.158268 0.705417 -0.000699999 0
0.158268 0.705416 -0.000699999 0
0.158267 0.705416 -0.000699999 0
0.158267 0.705415 -0.000799999 0
0.158262 0.703414 -0.000799999 0
0.158265 0.705412 -0.000399999 0
0.158265 0.705411 -0.000899999 0
0.158265 0.705411 -0.000899999 0
0.158265 0.70541 -0.000899999 0
0.158264 0.705409 -0.000199999 0
0.158264 0.705407 -0.000199999 0
0.158263 0.705406 -0.000699999 0
0.158261 0.705405 -0.000699999 0
0.158261 0.705404 -0.000599999 0
0.158262 0.705403 -0.000599999 0
0.158261 0.705402 -0.000599999 0
0.158262 0.705401 -0.000599999 0
0.158261 0.7054 -0.000599999 0
0.158261 0.7054 -0.000899999 0
0.158261 0.705399 -0.000899999 0
0.158138 0.705425 -0.000199999 0
0.158137 0.705424 -0.000199999 0
0.158138 0.705423 -0.000199999 0
0.158136 0.704423 -0.000799999 0
0.158138 0.705422 -0.000799999 0
0.158138 0.705421 0.000500001 0
0.158136 0.70442 0.000500001 0
0.158139 0.705419 0.000500001 0
0.15814 0.705418 -0.0013 0
0.158141 0.705417 -0.0013 0
0.158141 0.705415 -0.000799999 0
0.158141 0.705415 -0.000799999 0
0.158142 0.705414 -0.000699999 0
0.158141 0.705413 -0.000699999 0
0.158141 0.705412 -0.000599999 0
0.158141 0.70541 -0.000599999 0
0.158141 0.705409 0.000100001 0
0.158141 0.705408 0.000100001 0
0.158141 0.705408 -9.99992e-05 0
0.15814 0.705407 -9.99992e-05 0
0.158141 0.705406 -9.99992e-05 0
0.158141 0.705405 -0.0011 0
0.158141 0.705404 -0.0011 0
0.158141 0.705404 -0.0011 0
0.158141 0.705403 -0.000999999 0
0.158141 0.7054 -0.000799999 0
0.158141 0.7054 -0.000799999 0
0.158141 0.705399 -0.000399999 0
0.158141 0.705398 -0.000399999 0
0.158141 0.705397 -0.000399999 0
0.15814 0.705396 -0.000399999 0
0.158139 0.705396 -0.000699999 0
0.158138 0.705395 -0.000699999 0
0.158138 0.705394 -0.000699999 0
0.158137 0.705394 -0.0011 0
0.158137 0.705393 -0.0011 0
0.158137 0.705393 -0.000599999 0
0.158136 0.705393 -0.000599999 0
0.158136 0.705392 -0.000599999 0
0.158136 0.705391 -0.000499999 0
0.158136 0.705389 -0.000499999 0
0.158135 0.705388 -9.99992e-05 0
0.158135 0.705387 -9.99992e-05 0
0.158135 0.705387 -0.000499999 0
0.158135 0.705386 -0.000499999 0
0.158133 0.704385 -0.000299999 0
0.158135 0.705384 -0.000299999 0
0.158135 0.705383 -0.000299999 0
0.158134 0.705382 -0.000699999 0
0.158133 0.705381 -0.000699999 0
0.158132 0.70538 -0.000299999 0
0.158131 0.705379 -0.000299999 0
0.15813 0.705379 -0.000199999 0
0.158129 0.705379 -0.000199999 0
0.158129 0.705378 -0.000599999 0
0.158125 0.703378 -0.000599999 0
0.158129 0.705378 -0.000599999 0
0.158129 0.705377 -0.000699999 0
0.158128 0.705375 -0.000699999 0
0.158127 0.705374 -0.000499999 0
0.158127 0.705374 -0.000499999 0
0.158126 0.705374 -0.000699999 0
0.158125 0.705373 -0.000699999 0
0.158125 0.705373 -0.000199999 0
0.158124 0.705372 -0.000199999 0
0.158124 0.705371 -0.000399999 0
0.158125 0.705371 -0.000399999 0
0.158124 0.70537 -0.000899999 0
0.158123 0.705369 -0.000899999 0
0.158246 0.705341 -0.000499999 0
0.158245 0.705341 -0.000499999 0
0.158238 0.70234 -0.000599999 0
0.158122 0.705365 -0.000599999 0
0.158121 0.705364 -0.000599999 0
0.158245 0.705335 -0.000599999 0
0.158244 0.705334 -0.000199999 0
0.158245 0.705333 -0.000199999 0
0.158245 0.705332 -0.000199999 0
0.158245 0.70533 -0.000799999 0
0.158245 0.705329 -0.000399999 0
0.158245 0.705327 -0.000399999 0
0.158246 0.705325 -0.000399999 0
0.158246 0.705324 -0.000699999 0
0.158247 0.705323 -0.000699999 0
0.158247 0.705322 -0.000499999 0
0.158248 0.705321 -0.000499999 0
0.158248 0.705319 -0.000599999 0
0.158248 0.705317 -0.000599999 0
0.158248 0.705317 -0.000399999 0
0.158248 0.705316 -0.000399999 0
0.15825 0.705313 -0.000499999 0
0.15825 0.705312 -0.000499999 0
0.15825 0.705312 -0.000799999 0
0.158251 0.70531 -0.000799999 0
0.15825 0.705308 -0.0011 0
0.15825 0.705307 -0.0011 0
0.15825 0.705306 -0.000699999 0
0.15825 0.705303 -0.000699999 0
0.158251 0.705302 -0.000499999 0
0.158251 0.705302 -0.000499999 0
0.158252 0.705301 -0.000599999 0
0.158129 0.705325 -0.000599999 0
0.158129 0.705324 -0.000599999 0
0.158129 0.705323 -0.000599999 0
0.158129 0.705321 -0.000899999 0
0.158129 0.705318 -0.000899999 0
0.158129 0.705318 -0.000699999 0
0.158129 0.705317 -0.000699999 0
0.158128 0.705315 -0.000699999 0
0.158128 0.705312 -0.000499999 0
0.158128 0.705311 -0.000199999 0
0.158128 0.70531 -0.000199999 0
0.158128 0.705308 -0.000499999 0
0.158129 0.705307 -0.000499999 0
0.158129 0.705307 -0.000499999 0
0.158129 0.705305 -0.000499999 0
0.158129 0.705305 -0.000499999 0
0.15813 0.705305 -0.000399999 0
0.15813 0.705304 -0.000399999 0
0.15813 0.705303 -0.000399999 0
0.158129 0.705302 -0.000299999 0
0.158251 0.705274 -0.000299999 0
0.158128 0.7053 -0.000799999 0
0.158128 0.7053 -0.000799999 0
0.158128 0.7053 -0.000699999 0
0.158129 0.7053 -0.000699999 0
0.158129 0.705299 -0.000799999 0
0.158252 0.705272 -0.000799999 0
0.158252 0.705271 -0.000799999 0
0.158251 0.705271 -0.000699999 0
0.158128 0.705299 -0.000699999 0
0.158128 0.705299 -0.000699999 0
0.158128 0.705299 -0.000699999 0
0.158127 0.705299 -0.000799999 0
0.15825 0.705271 -0.000799999 0
0.15825 0.705271 -0.000399999 0
0.15825 0.70527 -0.000399999 0
0.158251 0.70527 -0.000399999 0
0.158252 0.705268 -0.000699999 0
0.158251 0.704267 -0.000699999 0
0.158253 0.705267 -0.000299999 0
0.158253 0.705266 -0.000299999 0
0.158253 0.705264 -0.000399999 0
0.158253 0.705263 -0.000899999 0
0.158253 0.705261 -0.000899999 0
0.158133 0.705288 6.98492e-10 0
0.158133 0.705287 6.98492e-10 0
0.158133 0.705286 6.98492e-10 0
0.158133 0.705285 -0.000499999 0
0.158132 0.705283 -0.000899999 0
0.158131 0.705282 -0.000899999 0
0.15813 0.705281 -0.000699999 0
0.158253 0.705253 -0.000699999 0
0.158251 0.705251 -0.000799999 0
0.158248 0.70425 -0.000799999 0
0.15825 0.705249 -0.000799999 0
0.15825 0.705247 -0.000799999 0
0.15825 0.705245 -0.000699999 0
0.158249 0.705243 -0.000699999 0
0.158249 0.705241 -0.000399999 0
0.158248 0.705239 -0.000399999 0
0.158247 0.705235 -0.000499999 0
0.158246 0.705234 -0.000499999 0
0.158245 0.705232 -0.000399999 0
0.158244 0.705229 -0.000399999 0
0.158244 0.705227 -0.000299999 0
0.158244 0.705225 -0.000299999 0
0.158243 0.705224 -0.000199999 0
0.158243 0.705223 -0.000199999 0
0.158242 0.705221 -0.000199999 0
0.158118 0.705247 -0.000299999 0
0.158117 0.705244 -0.000299999 0
0.158117 0.705243 -0.000499999 0
0.158116 0.70524 -0.000499999 0
0.158116 0.705238 -0.000599999 0
0.158115 0.705236 -0.000599999 0
0.158238 0.705205 -0.000699999 0
0.158239 0.705204 -0.000699999 0
0.158239 0.705203 -0.000399999 0
0.158239 0.705202 -0.000399999 0
0.158239 0.7052 0.000200001 0
0.158239 0.705199 0.000200001 0
0.15824 0.705198 -0.000599999 0
0.15824 0.705197 -0.000599999 0
0.15824 0.705196 -0.000699999 0
0.158239 0.705196 -0.000699999 0
0.158117 0.705223 -0.000299999 0
0.158117 0.705221 -0.000499999 0
0.158118 0.70522 -0.000499999 0
0.158117 0.70522 -0.000499999 0
0.158118 0.705218 -0.000799999 0
0.158241 0.705189 -0.000499999 0
0.15824 0.705189 -0.000499999 0
0.158239 0.705188 -0.000499999 0
0.158239 0.705187 -0.000699999 0
0.158239 0.705185 -0.000699999 0
0.158238 0.705184 -0.000699999 0
0.158238 0.705183 -0.000699999 0
0.158238 0.705182 -0.000699999 0
0.158238 0.705181 -0.000499999 0
0.158238 0.70518 -0.000499999 0
0.158238 0.705178 -0.000499999 0
0.158238 0.705178 -0.000399999 0
0.158239 0.705177 -0.000399999 0
0.158237 0.705177 -0.000399999 0
0.158237 0.705176 -0.000699999 0
0.158237 0.705175 -0.000699999 0
0.158237 0.705174 -0.000699999 0
0.158237 0.705172 -0.000699999 0
0.158237 0.705169 -0.000399999 0
0.158237 0.705168 -0.000399999 0
0.158237 0.705168 -0.000799999 0
0.158236 0.705167 -0.000799999 0
0.158236 0.705167 7.567e-10 0
0.158235 0.705166 7.567e-10 0
0.158235 0.705165 7.567e-10 0
0.158234 0.705165 -0.000299999 0
0.158234 0.705164 -0.000299999 0
0.158234 0.705163 -0.000399999 0
0.158233 0.705162 -0.000399999 0
0.158233 0.705161 -0.000799999 0
0.158232 0.70516 -0.000799999 0
0.158231 0.70516 -0.000799999 0
0.15823 0.705159 -0.000599999 0
0.158229 0.705159 -0.000599999 0
0.158228 0.705157 -0.000599999 0
0.158227 0.705156 -0.000599999 0
0.158227 0.705156 -0.000399999 0
0.158226 0.705155 -0.000399999 0
0.158225 0.705154 -0.000299999 0
0.158224 0.705153 -0.000299999 0
0.158223 0.705152 -0.000799999 0
0.158221 0.705151 -0.000799999 0
0.158221 0.70515 -0.000599999 0
0.15822 0.705149 -0.000599999 0
0.15822 0.705148 -0.000599999 0
0.15822 0.705147 -0.000599999 0
0.15822 0.705146 -0.000499999 0
0.158094 0.705172 -0.000199999 0
0.158094 0.705171 -0.000199999 0
0.158093 0.705169 -0.000199999 0
0.158072 0.694168 -0.000799999 0
0.158092 0.705167 -0.000799999 0
0.158092 0.705167 -0.000799999 0
0.158091 0.705166 -0.000899999 0
0.15809 0.705165 -0.000899999 0
0.15809 0.705164 -0.000299999 0
0.15809 0.705163 -0.000299999 0
0.15809 0.705161 -0.000799999 0
0.15809 0.705161 -0.000799999 0
0.15809 0.70516 -0.0012 0
0.15809 0.70516 -0.0012 0
0.158089 0.705159 -0.000499999 0
0.15809 0.705156 -0.000499999 0
0.158091 0.705154 -0.000499999 0
0.158091 0.705153 -0.000599999 0
0.158092 0.705153 -0.000599999 0
0.158094 0.705154 -0.0014 0
0.158095 0.705154 -0.0014 0
0.158095 0.705153 -0.000299999 0
0.158095 0.705153 -0.000299999 0
0.158095 0.705153 -0.000299999 0
0.158095 0.705152 -0.000299999 0
0.158218 0.705122 -9.99993e-05 0
0.158217 0.705122 -9.99993e-05 0
0.158217 0.705121 -9.99993e-05 0
0.158217 0.705119 -0.000999999 0
0.158217 0.705119 -0.000999999 0
0.158217 0.705118 -0.000699999 0
0.158217 0.705117 -0.000699999 0
0.158094 0.705144 -0.000199999 0
0.158093 0.705144 -0.000199999 0
0.158093 0.705144 -0.000599999 0
0.158092 0.705144 -0.000599999 0
0.158093 0.705144 -0.000599999 0
0.158094 0.705143 -0.000399999 0
0.158094 0.705142 -0.000399999 0
0.158094 0.705141 -0.000999999 0
0.158217 0.705111 -0.000499999 0
0.158217 0.70511 -0.000499999 0
0.158094 0.705136 -0.000499999 0
0.158095 0.705135 -0.000299999 0
0.158095 0.705134 -0.000299999 0
0.158095 0.705133 -0.000899999 0
0.158095 0.70513 -0.000899999 0
0.158096 0.705129 -0.000499999 0
0.158097 0.705127 -0.000499999 0
0.158097 0.705125 -0.000499999 0
0.158097 0.705124 -0.000499999 0
0.15822 0.705096 -0.000499999 0
0.158098 0.705123 -0.0011 0
0.158222 0.706096 -0.0011 0
0.158097 0.705122 -0.0011 0
0.158221 0.705094 -0.000999999 0
0.158221 0.705093 -0.000999999 0
0.158221 0.705091 -0.000799999 0
0.158221 0.70509 -0.000399999 0
0.158217 0.703089 -0.000399999 0
0.158221 0.705089 -0.000399999 0
0.158221 0.705088 -0.000399999 0
0.15822 0.705087 -0.000399999 0
0.158098 0.705113 -0.000399999 0
0.158221 0.705086 -0.000599999 0
0.15822 0.705085 -0.000699999 0
0.158098 0.705111 -0.000699999 0
0.158098 0.70511 -0.000699999 0
0.158098 0.705109 -0.000299999 0
0.158097 0.705105 -0.000899999 0
0.15822 0.705076 -0.000899999 0
0.158221 0.705075 -9.99993e-05 0
0.158221 0.705074 -9.99993e-05 0
0.158222 0.705073 -9.99993e-05 0
0.158222 0.705072 -0.0013 0
0.158222 0.70507 -0.0013 0
0.158222 0.705069 -0.000699999 0
0.158221 0.705066 -0.000699999 0
0.158221 0.705065 -0.000499999 0
0.158221 0.705064 -0.000499999 0
0.15822 0.705064 -0.000899999 0
0.15822 0.705064 -0.000899999 0
0.158096 0.705091 -0.000899999 0
0.158096 0.70509 -0.000399999 0
0.158094 0.705088 -0.000399999 0
0.158094 0.705087 -0.000499999 0
0.158093 0.705086 -0.000499999 0
0.158093 0.705086 -0.000899999 0
0.158093 0.705085 -0.000899999 0
0.158094 0.705085 -0.000899999 0
0.158094 0.705085 -0.000499999 0
0.158094 0.705084 -0.000699999 0
0.158094 0.705084 -0.000699999 0
0.158094 0.705082 -0.000699999 0
0.158095 0.70508 -0.000299999 0
0.158094 0.705079 -0.000299999 0
0.158094 0.705077 -0.000699999 0
0.158093 0.705076 -0.000799999 0
0.158093 0.705075 -0.000799999 0
0.158092 0.705073 -0.000599999 0
0.158093 0.705072 -0.000599999 0
0.158093 0.705071 -0.000499999 0
0.158092 0.705068 -0.000499999 0
0.158093 0.705067 -0.000199999 0
0.158093 0.705066 -0.000199999 0
0.158093 0.705065 -0.000599999 0
0.158093 0.705063 -0.000599999 0
0.158093 0.705062 -0.000599999 0
0.158093 0.705061 -0.000599999 0
0.158093 0.70506 -0.000199999 0
0.158093 0.705059 -0.000199999 0
0.158093 0.705058 -0.000299999 0
0.158093 0.705057 -0.000299999 0
0.158093 0.705056 -0.000599999 0
0.158093 0.705055 -0.000599999 0
0.158093 0.705055 -0.000299999 0
0.158093 0.705054 -0.000299999 0
0.158093 0.705054 -0.000799999 0
0.158092 0.705054 -0.000799999 0
0.158092 0.705053 -0.000199999 0
0.158092 0.705053 -0.000199999 0
0.158091 0.705053 -0.000199999 0
0.158092 0.705053 -0.000199999 0
0.158092 0.705053 -0.000699999 0
0.158093 0.705052 -0.000699999 0
0.158093 0.705051 -0.000699999 0
0.158092 0.70505 -0.000599999 0
0.158093 0.705049 -0.000599999 0
0.158093 0.705048 -0.000199999 0
0.158093 0.705045 -0.000199999 0
0.158093 0.705043 -0.000399999 0
0.158094 0.705042 -0.000399999 0
0.158094 0.705041 -0.000399999 0
0.158094 0.70504 -0.000299999 0
0.158094 0.70504 -0.000299999 0
