ply
format ascii 1.0
element vertex 1733
property float x
property float y
property float z
property float intensity
end_header
0.356248 0.716167 -0.005 0
0.356248 0.716165 -0.005 0
0.356248 0.716164 -0.0053 0
0.356248 0.716161 -0.0053 0
0.356247 0.71616 -0.0045 0
0.356247 0.716159 -0.0045 0
0.356247 0.716159 -0.0049 0
0.356246 0.716157 -0.0049 0
0.356246 0.716156 -0.0049 0
0.356245 0.716156 -0.0049 0
0.356245 0.716155 -0.0042 0
0.356245 0.716154 -0.0042 0
0.356245 0.716153 -0.0049 0
0.356246 0.71615 -0.0049 0
0.356246 0.716149 -0.0053 0
0.356246 0.716148 -0.0053 0
0.356246 0.716147 -0.0049 0
0.356246 0.716145 -0.0049 0
0.356245 0.716145 -0.0047 0
0.356245 0.716145 -0.0047 0
0.356245 0.716145 -0.005 0
0.356246 0.716142 -0.005 0
0.356336 0.713142 -0.0052 0
0.356248 0.71614 -0.0052 0
0.356248 0.716139 -0.0046 0
0.356249 0.716138 -0.0046 0
0.356248 0.716137 -0.0046 0
0.356249 0.716136 -0.0049 0
0.356249 0.716136 -0.0049 0
0.356373 0.716111 -0.0047 0
0.35625 0.716134 -0.0047 0
0.356251 0.716134 -0.0049 0
0.356376 0.71611 -0.0049 0
0.356376 0.716109 -0.0047 0
0.356253 0.716131 -0.0047 0
0.356254 0.71613 -0.0047 0
0.356254 0.71613 -0.0043 0
0.356254 0.71613 -0.0043 0
0.356254 0.716129 -0.0043 0
0.356377 0.716104 -0.0048 0
0.356377 0.716103 -0.0048 0
0.356254 0.716125 -0.005 0
0.356253 0.716124 -0.005 0
0.356253 0.716122 -0.0046 0
0.356252 0.716121 -0.0046 0
0.356375 0.716096 -0.0052 0
0.356375 0.716095 -0.0052 0
0.356375 0.716095 -0.0052 0
0.356375 0.716094 -0.0043 0
0.356375 0.716093 -0.0043 0
0.356375 0.716092 -0.0047 0
0.356376 0.716091 -0.0047 0
0.356252 0.716114 -0.0045 0
0.356253 0.716113 -0.0045 0
0.356253 0.716113 -0.0045 0
0.356254 0.716112 -0.0051 0
0.356253 0.71611 -0.0048 0
0.356253 0.716108 -0.0048 0
0.356253 0.716107 -0.0048 0
0.356253 0.716106 -0.005 0
0.356252 0.716105 -0.005 0
0.356376 0.716081 -0.005 0
0.356375 0.71608 -0.0049 0
0.356251 0.716102 -0.0045 0
0.356251 0.716101 -0.0045 0
0.356251 0.7161 -0.004 0
0.356251 0.716099 -0.004 0
0.356252 0.716097 -0.004 0
0.356252 0.716097 -0.0053 0
0.356253 0.716096 -0.0053 0
0.356253 0.716096 -0.0052 0
0.356254 0.716096 -0.0052 0
0.356253 0.716095 -0.0039 0
0.356253 0.716094 -0.0039 0
0.356253 0.716094 -0.0051 0
0.356254 0.716094 -0.0051 0
0.356253 0.716092 -0.0051 0
0.356253 0.716091 -0.0047 0
0.356253 0.716089 -0.0047 0
0.356252 0.716087 -0.0049 0
0.356252 0.716085 -0.0049 0
0.356251 0.716084 -0.0049 0
0.35625 0.716081 -0.005 0
0.356249 0.71608 -0.005 0
0.356248 0.716079 -0.0051 0
0.356248 0.716078 -0.0051 0
0.356248 0.716077 -0.0051 0
0.356248 0.716074 -0.0047 0
0.356248 0.716074 -0.0058 0
0.356247 0.716072 -0.0058 0
0.356247 0.716071 -0.0058 0
0.356246 0.71607 -0.0044 0
0.356245 0.716069 -0.0044 0
0.356369 0.716044 -0.0048 0
0.35637 0.716043 -0.0048 0
0.35637 0.716043 -0.0048 0
0.35637 0.716042 -0.005 0
0.356371 0.71604 -0.005 0
0.356371 0.716039 -0.0047 0
0.356371 0.716038 -0.0047 0
0.356371 0.716037 -0.0047 0
0.35637 0.716036 -0.0052 0
0.356369 0.716035 -0.0052 0
0.356369 0.716035 -0.0051 0
0.356368 0.716034 -0.0051 0
0.356368 0.716033 -0.0048 0
0.356369 0.716032 -0.0048 0
0.356245 0.716056 -0.0052 0
0.356245 0.716055 -0.0052 0
0.356245 0.716054 -0.0052 0
0.356244 0.716053 -0.0046 0
0.356243 0.716052 -0.0046 0
0.356242 0.716051 -0.0046 0
0.356242 0.71605 -0.0046 0
0.356241 0.716048 -0.0046 0
0.356241 0.716047 -0.005 0
0.356241 0.716047 -0.005 0
0.356242 0.716045 -0.0051 0
0.356242 0.716045 -0.0051 0
0.356366 0.716021 -0.005 0
0.356367 0.71602 -0.005 0
0.356367 0.716019 -0.005 0
0.356367 0.716018 -0.0049 0
0.356368 0.716017 -0.0049 0
0.356244 0.716037 -0.0044 0
0.356244 0.716036 -0.0044 0
0.356243 0.716034 -0.0048 0
0.356366 0.716009 -0.0048 0
0.356366 0.716007 -0.0053 0
0.356366 0.716006 -0.0053 0
0.356365 0.716004 -0.0053 0
0.356365 0.716003 -0.0054 0
0.356365 0.716001 -0.0054 0
0.356364 0.716 -0.0048 0
0.356365 0.715998 -0.0048 0
0.356365 0.715994 -0.0047 0
0.356364 0.715992 -0.0047 0
0.356364 0.715991 -0.0056 0
0.356363 0.71599 -0.0056 0
0.356363 0.715989 -0.0056 0
0.356362 0.715988 -0.0046 0
0.356362 0.715986 -0.0046 0
0.356361 0.715984 -0.0053 0
0.356237 0.716006 -0.0053 0
0.356236 0.716005 -0.0048 0
0.356359 0.71598 -0.0048 0
0.356234 0.716003 -0.0052 0
0.356234 0.716001 -0.0052 0
0.356233 0.716 -0.0052 0
0.356233 0.716 -0.005 0
0.356233 0.715999 -0.005 0
0.356232 0.715997 -0.0047 0
0.356232 0.715996 -0.0047 0
0.356232 0.715994 -0.0052 0
0.356232 0.715993 -0.0052 0
0.356232 0.715992 -0.0047 0
0.356232 0.715991 -0.0047 0
0.356232 0.715988 -0.0048 0
0.356232 0.715987 -0.0048 0
0.356232 0.715985 -0.0048 0
0.356231 0.715984 -0.0051 0
0.35623 0.715983 -0.0051 0
0.356229 0.715982 -0.005 0
0.356352 0.715956 -0.0049 0
0.356317 0.71298 -0.0049 0
0.356228 0.715978 -0.0049 0
0.356227 0.715977 -0.0049 0
0.356227 0.715975 -0.0049 0
0.356226 0.715974 -0.0047 0
0.356226 0.715972 -0.0047 0
0.356226 0.715972 -0.0047 0
0.356226 0.71597 -0.0054 0
0.356226 0.715969 -0.0052 0
0.356226 0.715968 -0.0052 0
0.356226 0.715966 -0.0052 0
0.356226 0.715966 -0.0043 0
0.356225 0.715964 -0.0043 0
0.356226 0.715963 -0.0054 0
0.356226 0.715962 -0.0054 0
0.356226 0.715962 -0.0051 0
0.356225 0.715962 -0.0051 0
0.356226 0.715962 -0.0051 0
0.356226 0.715962 -0.0042 0
0.356225 0.715961 -0.0042 0
0.356224 0.715961 -0.0051 0
0.356225 0.71596 -0.0051 0
0.356225 0.715959 -0.0048 0
0.356225 0.715958 -0.0048 0
0.356226 0.715958 -0.0047 0
0.356227 0.715956 -0.0047 0
0.356227 0.715957 -0.0046 0
0.356227 0.715957 -0.0046 0
0.356227 0.715957 -0.0051 0
0.356226 0.715957 -0.0051 0
0.356226 0.715957 -0.0048 0
0.356225 0.715955 -0.0048 0
0.356225 0.715955 -0.0051 0
0.356253 0.714954 -0.0051 0
0.356224 0.715952 -0.0051 0
0.356223 0.71595 -0.0051 0
0.356223 0.715949 -0.0049 0
0.356223 0.715947 -0.0049 0
0.356222 0.715946 -0.0047 0
0.356222 0.715947 -0.0047 0
0.356221 0.715945 -0.0047 0
0.356221 0.715944 -0.0047 0
0.356221 0.715944 -0.0047 0
0.356221 0.715944 -0.0047 0
0.35622 0.715943 -0.0047 0
0.35622 0.715941 -0.0048 0
0.356221 0.71594 -0.0048 0
0.356221 0.715939 -0.0049 0
0.356221 0.715937 -0.0049 0
0.35622 0.715936 -0.0049 0
0.35622 0.715934 -0.0053 0
0.35622 0.715933 -0.0053 0
0.356219 0.715932 -0.0047 0
0.35622 0.715931 -0.0047 0
0.356219 0.715929 -0.0051 0
0.356219 0.715928 -0.0051 0
0.35622 0.715927 -0.0045 0
0.35622 0.715926 -0.0045 0
0.35622 0.715925 -0.0045 0
0.356249 0.714924 -0.0048 0
0.356219 0.715923 -0.0048 0
0.35622 0.715923 -0.0052 0
0.35622 0.715922 -0.0052 0
0.356344 0.715897 -0.0047 0
0.356343 0.715896 -0.0047 0
0.356343 0.715895 -0.0046 0
0.356343 0.715894 -0.0046 0
0.356342 0.715893 -0.0046 0
0.356343 0.715892 -0.005 0
0.356343 0.715891 -0.005 0
0.356343 0.715888 -0.0047 0
0.356343 0.715888 -0.0047 0
0.356343 0.715887 -0.005 0
0.356344 0.715887 -0.005 0
0.356343 0.715886 -0.005 0
0.356343 0.715885 -0.0051 0
0.356401 0.713885 -0.0051 0
0.356342 0.715882 -0.0047 0
0.356341 0.715881 -0.0047 0
0.356341 0.715881 -0.0052 0
0.356341 0.71588 -0.0052 0
0.35634 0.715879 -0.0045 0
0.35634 0.715878 -0.0045 0
0.356339 0.715877 -0.005 0
0.356337 0.715875 -0.005 0
0.356337 0.715874 -0.0049 0
0.356338 0.715873 -0.0049 0
0.356338 0.715872 -0.0049 0
0.356338 0.715871 -0.0049 0
0.356338 0.71587 -0.0049 0
0.356338 0.71587 -0.0052 0
0.356337 0.715869 -0.0052 0
0.356214 0.715891 -0.0045 0
0.356213 0.715891 -0.0045 0
0.356213 0.715889 -0.0045 0
0.356243 0.714889 -0.0051 0
0.356214 0.715888 -0.0051 0
0.356214 0.715887 -0.0038 0
0.356244 0.714887 -0.0038 0
0.356215 0.715885 -0.0038 0
0.356216 0.715885 -0.0056 0
0.356217 0.715883 -0.0056 0
0.356217 0.715881 -0.0051 0
0.356218 0.715881 -0.0051 0
0.356218 0.71588 -0.005 0
0.356218 0.715879 -0.005 0
0.356217 0.715878 -0.0049 0
0.356217 0.715876 -0.0049 0
0.356217 0.715875 -0.0042 0
0.356218 0.715875 -0.0042 0
0.356217 0.715874 -0.0044 0
0.356217 0.715873 -0.0044 0
0.356217 0.715872 -0.0044 0
0.356217 0.715871 -0.0054 0
0.356217 0.71587 -0.0054 0
0.356217 0.71587 -0.0054 0
0.356217 0.715869 -0.0053 0
0.356218 0.715867 -0.0051 0
0.356218 0.715866 -0.0051 0
0.356218 0.715865 -0.0051 0
0.356218 0.715864 -0.0047 0
0.356217 0.715863 -0.0047 0
0.356217 0.715862 -0.0047 0
0.356216 0.715862 -0.005 0
0.356214 0.715861 -0.005 0
0.356214 0.715861 -0.005 0
0.356214 0.71586 -0.0054 0
0.356214 0.715859 -0.0054 0
0.356214 0.715859 -0.0049 0
0.356213 0.715859 -0.0049 0
0.356213 0.715858 -0.0049 0
0.356213 0.715857 -0.0048 0
0.356212 0.715855 -0.0048 0
0.356212 0.715854 -0.0044 0
0.356212 0.715853 -0.0044 0
0.356212 0.715853 -0.0048 0
0.356212 0.715852 -0.0048 0
0.356241 0.714852 -0.0046 0
0.356212 0.71585 -0.0046 0
0.356212 0.715849 -0.0046 0
0.356211 0.715849 -0.005 0
0.35621 0.715847 -0.005 0
0.35621 0.715846 -0.005 0
0.356208 0.715845 -0.0046 0
0.356207 0.715845 -0.0045 0
0.356207 0.715845 -0.0045 0
0.356206 0.715844 -0.0049 0
0.356265 0.713845 -0.0049 0
0.356206 0.715844 -0.0049 0
0.356206 0.715843 -0.005 0
0.356205 0.715841 -0.005 0
0.356205 0.71584 -0.0048 0
0.356204 0.71584 -0.0048 0
0.356204 0.71584 -0.005 0
0.356203 0.715839 -0.005 0
0.356202 0.715839 -0.0045 0
0.356202 0.715837 -0.0045 0
0.356202 0.715837 -0.0047 0
0.356202 0.715836 -0.0047 0
0.356202 0.715835 -0.0052 0
0.356201 0.715834 -0.0052 0
0.356324 0.71581 -0.0048 0
0.356323 0.71581 -0.0048 0
0.356411 0.712811 -0.0049 0
0.356199 0.715831 -0.0049 0
0.356199 0.71583 -0.0049 0
0.356323 0.715805 -0.0049 0
0.356323 0.715804 -0.0045 0
0.356323 0.715803 -0.0045 0
0.356324 0.715802 -0.0045 0
0.356324 0.7158 -0.0051 0
0.356323 0.715798 -0.0047 0
0.356324 0.715797 -0.0047 0
0.356324 0.715795 -0.0047 0
0.356325 0.715794 -0.005 0
0.356326 0.715793 -0.005 0
0.356326 0.715791 -0.0048 0
0.356327 0.715791 -0.0048 0
0.356327 0.715788 -0.0049 0
0.356327 0.715787 -0.0049 0
0.356327 0.715787 -0.0047 0
0.356327 0.715786 -0.0047 0
0.356329 0.715783 -0.0048 0
0.356329 0.715782 -0.0048 0
0.35633 0.715781 -0.0051 0
0.35633 0.71578 -0.0051 0
0.35633 0.715778 -0.0054 0
0.356329 0.715776 -0.0054 0
0.356329 0.715775 -0.005 0
0.35633 0.715773 -0.005 0
0.35633 0.715772 -0.0048 0
0.356331 0.715772 -0.0048 0
0.356331 0.715771 -0.0049 0
0.356208 0.715791 -0.0049 0
0.356208 0.715789 -0.0049 0
0.356208 0.715788 -0.0049 0
0.356208 0.715787 -0.0052 0
0.356208 0.715784 -0.0052 0
0.356208 0.715784 -0.005 0
0.356208 0.715783 -0.005 0
0.356208 0.715781 -0.005 0
0.356207 0.715778 -0.0048 0
0.356207 0.715777 -0.0045 0
0.356207 0.715776 -0.0045 0
0.356208 0.715774 -0.0048 0
0.356208 0.715773 -0.0048 0
0.356209 0.715773 -0.0048 0
0.356208 0.715771 -0.0048 0
0.356209 0.715771 -0.0048 0
0.356209 0.715771 -0.0047 0
0.35621 0.71577 -0.0047 0
0.356209 0.715769 -0.0047 0
0.356208 0.715768 -0.0046 0
0.356331 0.715744 -0.0046 0
0.356208 0.715766 -0.0051 0
0.356208 0.715766 -0.0051 0
0.356208 0.715766 -0.005 0
0.356208 0.715766 -0.005 0
0.356208 0.715765 -0.0051 0
0.356332 0.715742 -0.0051 0
0.356332 0.715741 -0.0051 0
0.356332 0.715741 -0.005 0
0.356208 0.715765 -0.005 0
0.356208 0.715765 -0.005 0
0.356207 0.715765 -0.005 0
0.356207 0.715765 -0.0051 0
0.35633 0.715741 -0.0051 0
0.356331 0.715741 -0.0047 0
0.356331 0.71574 -0.0047 0
0.356331 0.71574 -0.0047 0
0.356333 0.715738 -0.005 0
0.356363 0.714738 -0.005 0
0.356333 0.715737 -0.0046 0
0.356334 0.715736 -0.0046 0
0.356334 0.715734 -0.0047 0
0.356334 0.715732 -0.0052 0
0.356334 0.715731 -0.0052 0
0.356213 0.715754 -0.0043 0
0.356214 0.715753 -0.0043 0
0.356213 0.715752 -0.0043 0
0.356213 0.715751 -0.0048 0
0.356212 0.715749 -0.0052 0
0.356211 0.715748 -0.0052 0
0.356211 0.715747 -0.005 0
0.356334 0.715722 -0.005 0
0.356332 0.715721 -0.0051 0
0.356361 0.71472 -0.0051 0
0.356331 0.715719 -0.0051 0
0.356331 0.715717 -0.0051 0
0.356331 0.715715 -0.005 0
0.356331 0.715713 -0.005 0
0.35633 0.715711 -0.0047 0
0.35633 0.715709 -0.0047 0
0.356328 0.715705 -0.0048 0
0.356328 0.715703 -0.0048 0
0.356327 0.715702 -0.0047 0
0.356326 0.715699 -0.0047 0
0.356326 0.715697 -0.0046 0
0.356326 0.715695 -0.0046 0
0.356325 0.715694 -0.0045 0
0.356325 0.715692 -0.0045 0
0.356324 0.715691 -0.0045 0
0.3562 0.715713 -0.0046 0
0.356198 0.71571 -0.0046 0
0.356198 0.715708 -0.0048 0
0.356198 0.715705 -0.0048 0
0.356198 0.715703 -0.0049 0
0.356197 0.715702 -0.0049 0
0.356321 0.715675 -0.005 0
0.356321 0.715674 -0.005 0
0.356322 0.715673 -0.0047 0
0.356321 0.715671 -0.0047 0
0.356322 0.71567 -0.0041 0
0.356322 0.715668 -0.0041 0
0.356323 0.715667 -0.0049 0
0.356323 0.715666 -0.0049 0
0.356323 0.715666 -0.005 0
0.356322 0.715666 -0.005 0
0.356199 0.715688 -0.0046 0
0.356199 0.715687 -0.0048 0
0.3562 0.715686 -0.0048 0
0.3562 0.715685 -0.0048 0
0.3562 0.715683 -0.0051 0
0.356324 0.715659 -0.0048 0
0.356323 0.715658 -0.0048 0
0.356322 0.715658 -0.0048 0
0.356322 0.715656 -0.005 0
0.356322 0.715655 -0.005 0
0.356321 0.715654 -0.005 0
0.356321 0.715652 -0.005 0
0.356322 0.715652 -0.005 0
0.356322 0.715651 -0.0048 0
0.356322 0.71565 -0.0048 0
0.356322 0.715648 -0.0048 0
0.356322 0.715647 -0.0047 0
0.356322 0.715647 -0.0047 0
0.356321 0.715646 -0.0047 0
0.356321 0.715646 -0.005 0
0.35632 0.715645 -0.005 0
0.35632 0.715643 -0.005 0
0.356321 0.715642 -0.005 0
0.356321 0.715638 -0.0047 0
0.356321 0.715637 -0.0047 0
0.35632 0.715637 -0.0051 0
0.35632 0.715637 -0.0051 0
0.356319 0.715636 -0.0043 0
0.356319 0.715635 -0.0043 0
0.356319 0.715635 -0.0043 0
0.356318 0.715634 -0.0046 0
0.356318 0.715634 -0.0046 0
0.356318 0.715633 -0.0047 0
0.356317 0.715632 -0.0047 0
0.356317 0.71563 -0.0051 0
0.356316 0.71563 -0.0051 0
0.356316 0.715629 -0.0051 0
0.356315 0.715629 -0.0049 0
0.356313 0.715628 -0.0049 0
0.356312 0.715627 -0.0049 0
0.356311 0.715625 -0.0049 0
0.356311 0.715625 -0.0047 0
0.35631 0.715624 -0.0047 0
0.356309 0.715623 -0.0046 0
0.356308 0.715622 -0.0046 0
0.356307 0.715621 -0.0051 0
0.356306 0.71562 -0.0051 0
0.356305 0.715619 -0.0049 0
0.356305 0.715618 -0.0049 0
0.356304 0.715617 -0.0049 0
0.356304 0.715616 -0.0049 0
0.356304 0.715615 -0.0048 0
0.356178 0.715637 -0.0045 0
0.356178 0.715636 -0.0045 0
0.356177 0.715634 -0.0045 0
0.356502 0.704638 -0.0051 0
0.356176 0.715632 -0.0051 0
0.356176 0.715631 -0.0051 0
0.356175 0.71563 -0.0052 0
0.356174 0.71563 -0.0052 0
0.356174 0.715629 -0.0046 0
0.356174 0.715627 -0.0046 0
0.356174 0.715626 -0.0051 0
0.356174 0.715625 -0.0051 0
0.356174 0.715625 -0.0055 0
0.356174 0.715625 -0.0055 0
0.356174 0.715624 -0.0048 0
0.356174 0.715621 -0.0048 0
0.356175 0.715619 -0.0048 0
0.356176 0.715618 -0.0049 0
0.356177 0.715618 -0.0049 0
0.356178 0.715619 -0.0057 0
0.356179 0.715619 -0.0057 0
0.356179 0.715618 -0.0046 0
0.356179 0.715618 -0.0046 0
0.356179 0.715618 -0.0046 0
0.356179 0.715617 -0.0046 0
0.356303 0.715591 -0.0044 0
0.356302 0.71559 -0.0044 0
0.356302 0.715589 -0.0053 0
0.356302 0.715588 -0.0053 0
0.356303 0.715588 -0.0053 0
0.356303 0.715587 -0.005 0
0.356303 0.715586 -0.005 0
0.356179 0.715609 -0.0045 0
0.356178 0.715609 -0.0045 0
0.356177 0.715609 -0.0049 0
0.356177 0.715609 -0.0049 0
0.356177 0.715608 -0.0049 0
0.356178 0.715608 -0.0047 0
0.356179 0.715607 -0.0047 0
0.356179 0.715606 -0.0053 0
0.356303 0.71558 -0.0048 0
0.356303 0.715578 -0.0048 0
0.356179 0.7156 -0.0048 0
0.35618 0.7156 -0.0046 0
0.35618 0.715599 -0.0046 0
0.35618 0.715598 -0.0052 0
0.35618 0.715595 -0.0052 0
0.356181 0.715594 -0.0048 0
0.356182 0.715592 -0.0048 0
0.356182 0.71559 -0.0048 0
0.356183 0.715589 -0.0048 0
0.356306 0.715565 -0.0048 0
0.356183 0.715588 -0.0054 0
0.356277 0.716564 -0.0054 0
0.356183 0.715587 -0.0054 0
0.356307 0.715563 -0.0053 0
0.356307 0.715562 -0.0053 0
0.356307 0.71556 -0.0051 0
0.356307 0.715559 -0.0047 0
0.356366 0.713559 -0.0047 0
0.356307 0.715558 -0.0047 0
0.356307 0.715557 -0.0047 0
0.356307 0.715556 -0.0047 0
0.356183 0.715579 -0.0047 0
0.356307 0.715554 -0.0049 0
0.356307 0.715554 -0.005 0
0.356183 0.715576 -0.005 0
0.356183 0.715575 -0.005 0
0.356183 0.715574 -0.0046 0
0.356183 0.71557 -0.0052 0
0.356307 0.715545 -0.0052 0
0.356307 0.715544 -0.0044 0
0.356308 0.715543 -0.0044 0
0.356309 0.715542 -0.0044 0
0.356309 0.715541 -0.0056 0
0.356309 0.715539 -0.0056 0
0.356309 0.715538 -0.005 0
0.356308 0.715535 -0.005 0
0.356308 0.715534 -0.0048 0
0.356308 0.715533 -0.0048 0
0.356307 0.715533 -0.0052 0
0.356307 0.715533 -0.0052 0
0.356182 0.715556 -0.0052 0
0.356182 0.715555 -0.0047 0
0.35618 0.715553 -0.0048 0
0.35618 0.715552 -0.0048 0
0.35618 0.715551 -0.0048 0
0.356179 0.715551 -0.0052 0
0.35618 0.71555 -0.0052 0
0.35618 0.71555 -0.0052 0
0.356181 0.71555 -0.0048 0
0.356181 0.715549 -0.005 0
0.35618 0.715549 -0.005 0
0.356181 0.715547 -0.005 0
0.356181 0.715545 -0.0046 0
0.356181 0.715544 -0.0046 0
0.35618 0.715542 -0.005 0
0.35618 0.715541 -0.0051 0
0.35618 0.71554 -0.0051 0
0.356179 0.715538 -0.0049 0
0.35618 0.715537 -0.0049 0
0.356179 0.715536 -0.0048 0
0.356179 0.715533 -0.0048 0
0.35618 0.715532 -0.0045 0
0.35618 0.715531 -0.0045 0
0.35618 0.71553 -0.0049 0
0.35618 0.715528 -0.0049 0
0.35618 0.715527 -0.0049 0
0.35618 0.715526 -0.0049 0
0.35618 0.715525 -0.0045 0
0.356181 0.715524 -0.0045 0
0.356181 0.715523 -0.0046 0
0.356181 0.715522 -0.0046 0
0.356181 0.715521 -0.0049 0
0.35618 0.71552 -0.0049 0
0.356181 0.71552 -0.0046 0
0.356181 0.715519 -0.0046 0
0.35618 0.715519 -0.0051 0
0.35618 0.715519 -0.0051 0
0.35618 0.715518 -0.0045 0
0.356179 0.715518 -0.0045 0
0.356179 0.715518 -0.0045 0
0.356179 0.715518 -0.0045 0
0.35618 0.715517 -0.005 0
0.35618 0.715517 -0.005 0
0.35618 0.715516 -0.005 0
0.35618 0.715515 -0.0049 0
0.35618 0.715514 -0.0049 0
0.356181 0.715513 -0.0045 0
0.356181 0.71551 -0.0045 0
0.356181 0.715508 -0.0047 0
0.356181 0.715507 -0.0047 0
0.356182 0.715506 -0.0047 0
0.356182 0.715505 -0.0046 0
0.356182 0.715505 -0.0046 0
0.356182 0.715504 -0.0046 0
0.356182 0.715503 -0.005 0
0.356271 0.712502 -0.005 0
0.356183 0.7155 -0.005 0
0.356184 0.715499 -0.005 0
0.356184 0.715498 -0.0049 0
0.356184 0.715497 -0.0049 0
0.356184 0.715497 -0.0049 0
0.356184 0.715496 -0.0052 0
0.356184 0.715495 -0.0052 0
0.356184 0.715494 -0.0046 0
0.356185 0.715492 -0.0052 0
0.356185 0.715492 -0.0052 0
0.356185 0.715492 -0.0052 0
0.356185 0.715491 -0.0053 0
0.356185 0.715491 -0.0053 0
0.356185 0.71549 -0.0053 0
0.356184 0.715489 -0.0049 0
0.356184 0.715488 -0.0049 0
0.356184 0.715487 -0.0047 0
0.356184 0.715486 -0.0047 0
0.356184 0.715485 -0.005 0
0.356184 0.715485 -0.005 0
0.356183 0.715484 -0.0046 0
0.356183 0.715483 -0.0046 0
0.356183 0.715483 -0.0053 0
0.356183 0.715483 -0.0053 0
0.356183 0.715482 -0.0053 0
0.356183 0.715481 -0.0047 0
0.356184 0.715481 -0.0047 0
0.356183 0.71548 -0.0049 0
0.356183 0.71548 -0.0049 0
0.356183 0.715479 -0.0049 0
0.356183 0.715478 -0.005 0
0.356183 0.715478 -0.005 0
0.356184 0.715478 -0.0048 0
0.356185 0.715477 -0.0048 0
0.356185 0.715476 -0.0048 0
0.356186 0.715475 -0.0044 0
0.356186 0.715475 -0.0048 0
0.356187 0.715474 -0.0048 0
0.356187 0.715474 -0.0048 0
0.356276 0.712474 -0.0047 0
0.356188 0.715472 -0.0047 0
0.356189 0.715471 -0.0047 0
0.356189 0.715471 -0.0047 0
0.35619 0.71547 -0.0047 0
0.35619 0.71547 -0.0048 0
0.35619 0.715468 -0.0048 0
0.35619 0.715467 -0.0045 0
0.35619 0.715465 -0.0045 0
0.35619 0.715465 -0.0043 0
0.35619 0.715464 -0.0043 0
0.35619 0.715465 -0.0046 0
0.35619 0.715465 -0.0046 0
0.35619 0.715464 -0.0046 0
0.356191 0.715462 -0.0049 0
0.35619 0.71546 -0.0046 0
0.356191 0.715459 -0.0046 0
0.356191 0.715457 -0.0046 0
0.356221 0.714457 -0.0049 0
0.356192 0.715456 -0.0049 0
0.356193 0.715455 -0.0047 0
0.356193 0.715455 -0.0047 0
0.356193 0.715455 -0.0049 0
0.356194 0.715454 -0.0049 0
0.356194 0.715454 -0.0048 0
0.356193 0.715453 -0.0048 0
0.356193 0.715452 -0.0048 0
0.356192 0.715451 -0.0046 0
0.356191 0.715451 -0.0053 0
0.35619 0.71545 -0.0053 0
0.35619 0.715448 -0.0053 0
0.35619 0.715447 -0.0047 0
0.35619 0.715447 -0.0047 0
0.35619 0.715447 -0.0052 0
0.356278 0.712448 -0.0052 0
0.35619 0.715446 -0.0052 0
0.35619 0.715445 -0.0049 0
0.356191 0.715444 -0.0049 0
0.35619 0.715442 -0.0049 0
0.356189 0.71544 -0.005 0
0.356189 0.715438 -0.0047 0
0.356188 0.715437 -0.0047 0
0.356187 0.715436 -0.0051 0
0.356186 0.715434 -0.0051 0
0.356186 0.715433 -0.0048 0
0.356185 0.715433 -0.0048 0
0.356184 0.715431 -0.0049 0
0.356184 0.71543 -0.0049 0
0.356184 0.715429 -0.0052 0
0.356183 0.715428 -0.0052 0
0.356182 0.715427 -0.0048 0
0.356182 0.715426 -0.0048 0
0.356181 0.715425 -0.0048 0
0.356239 0.713425 -0.0054 0
0.35618 0.715424 -0.0054 0
0.356239 0.713424 -0.0051 0
0.35618 0.715423 -0.0051 0
0.35618 0.715421 -0.0048 0
0.356181 0.71542 -0.0048 0
0.35618 0.715418 -0.0053 0
0.35618 0.715416 -0.0053 0
0.35618 0.715415 -0.0053 0
0.356303 0.71539 -0.0044 0
0.356303 0.715389 -0.0048 0
0.356303 0.715389 -0.0048 0
0.356303 0.715389 -0.0048 0
0.356179 0.715413 -0.0049 0
0.356179 0.715411 -0.0048 0
0.356302 0.715386 -0.0048 0
0.356303 0.715385 -0.0048 0
0.356181 0.715405 -0.0047 0
0.356183 0.715405 -0.0048 0
0.356183 0.715404 -0.0048 0
0.354972 0.756386 -0.0048 0
0.356184 0.715404 -0.005 0
0.356214 0.714404 -0.005 0
0.356184 0.715403 -0.005 0
0.356183 0.715403 -0.005 0
0.356306 0.715379 -0.0047 0
0.356306 0.715378 -0.0047 0
0.356305 0.715377 -0.0049 0
0.356305 0.715376 -0.0049 0
0.356306 0.715375 -0.0047 0
0.356306 0.715375 -0.0047 0
0.356307 0.715374 -0.005 0
0.356307 0.715374 -0.005 0
0.356307 0.715372 -0.0045 0
0.356306 0.715372 -0.0045 0
0.356306 0.715371 -0.0045 0
0.356306 0.715368 -0.005 0
0.356306 0.715367 -0.0049 0
0.356305 0.715366 -0.0049 0
0.356305 0.715365 -0.0049 0
0.356304 0.715364 -0.0045 0
0.356304 0.715363 -0.0045 0
0.356304 0.715362 -0.0051 0
0.356304 0.71536 -0.005 0
0.356305 0.71536 -0.005 0
0.356306 0.71536 -0.005 0
0.356306 0.715359 -0.0051 0
0.356306 0.715358 -0.0051 0
0.356306 0.715357 -0.0047 0
0.356306 0.715356 -0.0047 0
0.356306 0.715356 -0.0047 0
0.356306 0.715355 -0.0046 0
0.356306 0.715354 -0.0046 0
0.356306 0.715353 -0.0048 0
0.356305 0.715352 -0.0048 0
0.356304 0.71535 -0.0047 0
0.356305 0.71535 -0.0047 0
0.356305 0.715349 -0.0045 0
0.356305 0.715348 -0.0045 0
0.356305 0.715349 -0.0045 0
0.356305 0.715348 -0.0051 0
0.356305 0.715348 -0.0051 0
0.356305 0.715345 -0.0048 0
0.356305 0.715344 -0.0048 0
0.356305 0.715343 -0.0053 0
0.356305 0.715341 -0.0053 0
0.356181 0.715363 -0.0053 0
0.356181 0.71536 -0.0049 0
0.35624 0.71336 -0.0049 0
0.356182 0.715357 -0.0049 0
0.356182 0.715355 -0.0051 0
0.356181 0.715354 -0.0051 0
0.356181 0.715353 -0.0051 0
0.35618 0.715352 -0.0048 0
0.35618 0.71535 -0.0048 0
0.35618 0.715349 -0.005 0
0.356303 0.715324 -0.005 0
0.35618 0.715346 -0.005 0
0.356239 0.713346 -0.005 0
0.356303 0.71532 -0.0047 0
0.356179 0.715342 -0.0047 0
0.356179 0.715341 -0.0047 0
0.356178 0.715339 -0.0045 0
0.356178 0.715339 -0.0045 0
0.356178 0.715336 -0.005 0
0.356178 0.715336 -0.005 0
0.356178 0.715336 -0.0046 0
0.356177 0.715334 -0.0046 0
0.3563 0.71531 -0.0046 0
0.356236 0.713333 -0.0046 0
0.356177 0.715331 -0.0046 0
0.356177 0.71533 -0.005 0
0.356301 0.715303 -0.005 0
0.356301 0.715302 -0.0048 0
0.356302 0.715301 -0.0048 0
0.356302 0.715299 -0.0049 0
0.356302 0.715298 -0.0049 0
0.356302 0.715296 -0.0049 0
0.356303 0.715295 -0.0044 0
0.356303 0.715294 -0.0044 0
0.356303 0.715293 -0.0049 0
0.356304 0.715293 -0.0049 0
0.356304 0.715293 -0.0052 0
0.356303 0.715292 -0.0052 0
0.356303 0.715291 -0.0045 0
0.356302 0.715291 -0.0045 0
0.356302 0.71529 -0.0053 0
0.356301 0.715291 -0.0053 0
0.356301 0.715292 -0.0049 0
0.3563 0.715292 -0.0049 0
0.356299 0.715292 -0.0053 0
0.356299 0.715291 -0.0053 0
0.356298 0.71529 -0.0047 0
0.356298 0.715289 -0.0051 0
0.356298 0.715287 -0.0051 0
0.356299 0.715286 -0.0051 0
0.356298 0.715284 -0.0051 0
0.356298 0.715281 -0.0051 0
0.356298 0.715279 -0.0044 0
0.356298 0.715278 -0.0044 0
0.356299 0.715276 -0.0048 0
0.356298 0.715274 -0.0049 0
0.356298 0.715272 -0.0049 0
0.356298 0.715271 -0.0049 0
0.356299 0.71527 -0.005 0
0.356298 0.715268 -0.0046 0
0.356297 0.715266 -0.0046 0
0.356297 0.715265 -0.0046 0
0.356295 0.715263 -0.0051 0
0.356295 0.715263 -0.0051 0
0.356295 0.715262 -0.0051 0
0.356295 0.71526 -0.0051 0
0.356294 0.715258 -0.0045 0
0.356294 0.715257 -0.0045 0
0.356293 0.715256 -0.0051 0
0.356293 0.715254 -0.0051 0
0.356293 0.715253 -0.0045 0
0.356293 0.71525 -0.005 0
0.356293 0.715249 -0.005 0
0.356293 0.715247 -0.005 0
0.356292 0.715245 -0.0049 0
0.356291 0.715244 -0.0049 0
0.356291 0.715243 -0.0049 0
0.35629 0.715242 -0.0049 0
0.35629 0.715241 -0.0051 0
0.356289 0.71524 -0.0051 0
0.356288 0.715239 -0.0051 0
0.356288 0.715238 -0.0054 0
0.356288 0.715238 -0.0054 0
0.356288 0.715237 -0.0049 0
0.356287 0.715236 -0.0049 0
0.356287 0.715236 -0.0048 0
0.356286 0.715235 -0.0048 0
0.356286 0.715233 -0.0053 0
0.356285 0.715231 -0.0053 0
0.356285 0.715229 -0.005 0
0.356285 0.715226 -0.005 0
0.356285 0.715225 -0.0053 0
0.356286 0.715224 -0.0053 0
0.356286 0.715224 -0.0048 0
0.356286 0.715223 -0.0048 0
0.356287 0.715223 -0.0048 0
0.356287 0.715221 -0.0048 0
0.356288 0.715221 -0.0047 0
0.356287 0.71522 -0.0047 0
0.356287 0.715218 -0.0047 0
0.356287 0.715216 -0.005 0
0.356287 0.715215 -0.005 0
0.356287 0.715213 -0.0054 0
0.356287 0.715212 -0.0054 0
0.356287 0.715212 -0.0048 0
0.356288 0.715211 -0.0048 0
0.356288 0.715211 -0.0049 0
0.356289 0.71521 -0.0049 0
0.356289 0.715209 -0.0049 0
0.356289 0.715209 -0.0048 0
0.356289 0.715208 -0.0048 0
0.356289 0.715208 -0.0048 0
0.356289 0.715207 -0.0041 0
0.356288 0.715205 -0.0045 0
0.356289 0.715203 -0.0045 0
0.35629 0.715202 -0.0046 0
0.35629 0.715201 -0.0046 0
0.35629 0.7152 -0.0046 0
0.356291 0.715199 -0.0048 0
0.356291 0.715197 -0.0048 0
0.356292 0.715196 -0.0047 0
0.356293 0.715196 -0.0047 0
0.356293 0.715195 -0.0047 0
0.356293 0.715194 -0.0052 0
0.356293 0.715193 -0.0052 0
0.356294 0.715192 -0.005 0
0.356293 0.715188 -0.005 0
0.356292 0.715187 -0.005 0
0.356292 0.715186 -0.005 0
0.356292 0.715186 -0.0049 0
0.356291 0.715184 -0.0049 0
0.35629 0.715184 -0.0049 0
0.35629 0.715182 -0.005 0
0.35629 0.715181 -0.005 0
0.356291 0.71518 -0.005 0
0.35629 0.715178 -0.0045 0
0.35629 0.715177 -0.0049 0
0.35629 0.715176 -0.0049 0
0.35629 0.715175 -0.005 0
0.35629 0.715174 -0.005 0
0.356289 0.715173 -0.005 0
0.356289 0.71517 -0.0053 0
0.356287 0.715167 -0.0053 0
0.356286 0.715165 -0.0048 0
0.356285 0.715164 -0.0048 0
0.356284 0.715163 -0.0048 0
0.356284 0.715162 -0.0048 0
0.356283 0.715161 -0.0048 0
0.356281 0.715159 -0.0048 0
0.356281 0.715157 -0.005 0
0.35628 0.715156 -0.005 0
0.356279 0.715154 -0.005 0
0.356278 0.715153 -0.005 0
0.356277 0.715151 -0.005 0
0.356276 0.71515 -0.0043 0
0.356276 0.71515 -0.0043 0
0.356276 0.715149 -0.0047 0
0.356276 0.715149 -0.0047 0
0.356305 0.714148 -0.0047 0
0.356275 0.715145 -0.0049 0
0.356275 0.715145 -0.0049 0
0.356275 0.715144 -0.0049 0
0.356275 0.715143 -0.0049 0
0.356274 0.715141 -0.0051 0
0.356275 0.71514 -0.0051 0
0.356274 0.715139 -0.0049 0
0.356273 0.715137 -0.0049 0
0.356273 0.715135 -0.0049 0
0.356273 0.715135 -0.0049 0
0.356273 0.715134 -0.0043 0
0.356272 0.715133 -0.0043 0
0.356272 0.715133 -0.0043 0
0.35633 0.713132 -0.0049 0
0.35627 0.715131 -0.0049 0
0.356271 0.71513 -0.0048 0
0.356271 0.715128 -0.0048 0
0.35627 0.715128 -0.0048 0
0.35627 0.715126 -0.005 0
0.356271 0.715126 -0.005 0
0.356271 0.715125 -0.0044 0
0.35627 0.715123 -0.0044 0
0.356271 0.715122 -0.0046 0
0.356271 0.715122 -0.0046 0
0.35627 0.715121 -0.0045 0
0.35627 0.71512 -0.0045 0
0.35627 0.71512 -0.0045 0
0.356269 0.71512 -0.005 0
0.356269 0.715119 -0.005 0
0.356299 0.714118 -0.0046 0
0.356299 0.714117 -0.0046 0
0.356269 0.715116 -0.0046 0
0.356269 0.715115 -0.0047 0
0.356621 0.70312 -0.0051 0
0.356267 0.715114 -0.0051 0
0.356267 0.715113 -0.0051 0
0.356266 0.715112 -0.0046 0
0.356266 0.715111 -0.0046 0
0.356266 0.71511 -0.005 0
0.356266 0.715109 -0.005 0
0.356265 0.715109 -0.0048 0
0.356141 0.715132 -0.0048 0
0.35614 0.715132 -0.0044 0
0.35614 0.715131 -0.0044 0
0.35614 0.715131 -0.005 0
0.35614 0.71513 -0.005 0
0.35614 0.715129 -0.005 0
0.35614 0.715129 -0.0044 0
0.356141 0.715128 -0.0044 0
0.356141 0.715128 -0.0045 0
0.35614 0.715127 -0.0045 0
0.35614 0.715126 -0.0047 0
0.35614 0.715126 -0.0047 0
0.356264 0.715101 -0.0047 0
0.356264 0.7151 -0.005 0
0.356264 0.715099 -0.005 0
0.356263 0.715099 -0.0052 0
0.356138 0.715119 -0.0052 0
0.356138 0.715118 -0.0049 0
0.356262 0.715093 -0.0049 0
0.356262 0.715092 -0.005 0
0.35635 0.712092 -0.005 0
0.356261 0.71509 -0.005 0
0.35626 0.715089 -0.005 0
0.356259 0.715088 -0.0056 0
0.356258 0.715087 -0.0056 0
0.356258 0.715086 -0.0054 0
0.356257 0.715084 -0.0044 0
0.356257 0.715083 -0.0044 0
0.356257 0.715082 -0.0044 0
0.356258 0.715081 -0.005 0
0.356258 0.71508 -0.0052 0
0.356259 0.715079 -0.0052 0
0.356259 0.715078 -0.0052 0
0.356259 0.715077 -0.005 0
0.356259 0.715075 -0.0049 0
0.356259 0.715074 -0.0049 0
0.35626 0.715073 -0.0052 0
0.356261 0.715072 -0.0052 0
0.356261 0.715071 -0.0046 0
0.356262 0.71507 -0.0046 0
0.356263 0.715069 -0.0046 0
0.356264 0.715067 -0.0053 0
0.356264 0.715066 -0.0048 0
0.356265 0.715066 -0.0048 0
0.356264 0.715065 -0.0048 0
0.356141 0.715087 -0.0046 0
0.35614 0.715086 -0.0047 0
0.356141 0.715085 -0.0047 0
0.356141 0.715084 -0.005 0
0.356142 0.715084 -0.005 0
0.356142 0.715084 -0.0046 0
0.356142 0.715084 -0.0046 0
0.356142 0.715085 -0.0049 0
0.356142 0.715085 -0.0048 0
0.356143 0.715084 -0.0048 0
0.356143 0.715084 -0.0048 0
0.356143 0.715081 -0.0048 0
0.356142 0.715079 -0.0048 0
0.356142 0.715078 -0.0048 0
0.357325 0.675095 -0.0048 0
0.356143 0.715077 -0.0047 0
0.356143 0.715077 -0.0047 0
0.356143 0.715076 -0.0051 0
0.356143 0.715075 -0.0051 0
0.356143 0.715073 -0.0051 0
0.356143 0.715072 -0.0048 0
0.356143 0.715072 -0.0048 0
0.356143 0.715071 -0.0052 0
0.356143 0.71507 -0.0052 0
0.356143 0.715069 -0.0047 0
0.356143 0.715067 -0.0047 0
0.356143 0.715067 -0.0049 0
0.356141 0.715064 -0.0049 0
0.35614 0.715063 -0.0049 0
0.35614 0.715061 -0.0049 0
0.356138 0.71506 -0.0048 0
0.356138 0.715058 -0.0048 0
0.356138 0.715057 -0.0048 0
0.356138 0.715056 -0.0048 0
0.356138 0.715054 -0.0048 0
0.356139 0.715053 -0.0049 0
0.356139 0.715051 -0.0049 0
0.35614 0.71505 -0.0049 0
0.356141 0.715048 -0.0049 0
0.356142 0.715047 -0.005 0
0.356142 0.715046 -0.005 0
0.356141 0.715045 -0.005 0
0.356141 0.715044 -0.0043 0
0.35614 0.715043 -0.0043 0
0.35614 0.715042 -0.0051 0
0.35614 0.715041 -0.0051 0
0.35614 0.715041 -0.0051 0
0.35614 0.71504 -0.0046 0
0.35614 0.71504 -0.0046 0
0.35614 0.715039 -0.0047 0
0.356142 0.715035 -0.0047 0
0.356143 0.715033 -0.0047 0
0.356143 0.715031 -0.0047 0
0.356144 0.715029 -0.0051 0
0.356145 0.715028 -0.0051 0
0.356145 0.715026 -0.0051 0
0.356145 0.715024 -0.0049 0
0.356145 0.715023 -0.0044 0
0.356145 0.715022 -0.0044 0
0.356146 0.71502 -0.0048 0
0.356146 0.715019 -0.0048 0
0.356146 0.715019 -0.0048 0
0.356147 0.715018 -0.0048 0
0.356147 0.715018 -0.0047 0
0.356237 0.712018 -0.0047 0
0.356148 0.715017 -0.0052 0
0.356147 0.715014 -0.0052 0
0.356147 0.715013 -0.0047 0
0.356147 0.715013 -0.0047 0
0.356206 0.713013 -0.0051 0
0.356147 0.71501 -0.0051 0
0.356147 0.71501 -0.005 0
0.356147 0.715009 -0.005 0
0.356147 0.715009 -0.0042 0
0.356147 0.715007 -0.0042 0
0.356147 0.715006 -0.0048 0
0.356147 0.715005 -0.0048 0
0.35627 0.714979 -0.0049 0
0.356269 0.714976 -0.0049 0
0.356268 0.714975 -0.0051 0
0.356268 0.714974 -0.0051 0
0.356268 0.714973 -0.0051 0
0.356144 0.714995 -0.0051 0
0.356143 0.714992 -0.0047 0
0.356142 0.714991 -0.0047 0
0.356142 0.71499 -0.005 0
0.35614 0.714987 -0.005 0
0.356229 0.711987 -0.0049 0
0.356141 0.714985 -0.0049 0
0.356141 0.714984 -0.0048 0
0.356141 0.714983 -0.0048 0
0.356142 0.714984 -0.0048 0
0.356498 0.702988 -0.0049 0
0.356143 0.714982 -0.0049 0
0.356266 0.714958 -0.005 0
0.356266 0.714957 -0.005 0
0.356142 0.71498 -0.005 0
0.356142 0.714979 -0.0047 0
0.356142 0.714978 -0.0047 0
0.356142 0.714977 -0.0047 0
0.356142 0.714976 -0.0047 0
0.356142 0.714975 -0.005 0
0.356141 0.714974 -0.005 0
0.35614 0.714972 -0.0045 0
0.35614 0.714971 -0.0045 0
0.35614 0.714971 -0.0046 0
0.356139 0.71497 -0.0046 0
0.356138 0.714968 -0.0048 0
0.356138 0.714967 -0.0048 0
0.356138 0.714966 -0.0043 0
0.356138 0.714965 -0.0043 0
0.356261 0.714939 -0.0049 0
0.356261 0.714937 -0.0049 0
0.356262 0.714936 -0.0049 0
0.356262 0.714935 -0.0049 0
0.356139 0.714957 -0.0045 0
0.356263 0.714932 -0.0045 0
0.356263 0.714931 -0.005 0
0.356263 0.71493 -0.005 0
0.356263 0.714928 -0.005 0
0.35614 0.71495 -0.005 0
0.356139 0.714949 -0.0047 0
0.356139 0.714947 -0.005 0
0.356139 0.714945 -0.005 0
0.356139 0.714944 -0.005 0
0.356139 0.714943 -0.0045 0
0.35614 0.714941 -0.0048 0
0.35614 0.71494 -0.0048 0
0.35614 0.714939 -0.0048 0
0.356139 0.714937 -0.0051 0
0.356139 0.714937 -0.0048 0
0.356139 0.714936 -0.0048 0
0.356142 0.714935 -0.0048 0
0.356265 0.714911 -0.0048 0
0.356264 0.714908 -0.0049 0
0.356265 0.714907 -0.0049 0
0.356265 0.714905 -0.0052 0
0.356264 0.714904 -0.0046 0
0.356264 0.714903 -0.0046 0
0.356264 0.714902 -0.0046 0
0.356264 0.714901 -0.0051 0
0.356265 0.7149 -0.0051 0
0.356265 0.714899 -0.0048 0
0.356266 0.714896 -0.0048 0
0.356266 0.714894 -0.0053 0
0.356266 0.714893 -0.0053 0
0.356265 0.71489 -0.0049 0
0.356141 0.714912 -0.0049 0
0.356141 0.714911 -0.0049 0
0.356141 0.714909 -0.0047 0
0.356141 0.714908 -0.0046 0
0.35614 0.714908 -0.0046 0
0.35614 0.714907 -0.0046 0
0.35614 0.714904 -0.0047 0
0.356139 0.714902 -0.0054 0
0.356139 0.7149 -0.0054 0
0.356139 0.714899 -0.0054 0
0.356138 0.714899 -0.0052 0
0.356137 0.714898 -0.005 0
0.356138 0.714898 -0.005 0
0.356138 0.714897 -0.005 0
0.356138 0.714897 -0.0045 0
0.356139 0.714895 -0.0044 0
0.35614 0.714894 -0.0044 0
0.35614 0.714894 -0.0044 0
0.35614 0.714894 -0.0046 0
0.35614 0.714893 -0.0049 0
0.35614 0.714893 -0.0049 0
0.35614 0.714893 -0.0049 0
0.356138 0.714891 -0.0054 0
0.356138 0.71489 -0.0049 0
0.356137 0.714889 -0.0049 0
0.356258 0.714864 -0.0047 0
0.356258 0.714863 -0.0047 0
0.356258 0.714862 -0.0045 0
0.356258 0.714861 -0.0045 0
0.356257 0.71486 -0.005 0
0.356257 0.714859 -0.005 0
0.356256 0.714858 -0.0044 0
0.356256 0.714858 -0.0044 0
0.356256 0.714856 -0.0051 0
0.356315 0.712855 -0.0051 0
0.356256 0.714853 -0.0051 0
0.356257 0.714852 -0.0051 0
0.356257 0.714849 -0.0043 0
0.356257 0.714849 -0.0043 0
0.356258 0.714849 -0.0045 0
0.356258 0.714848 -0.0045 0
0.356133 0.71487 -0.0051 0
0.356134 0.714869 -0.0051 0
0.356134 0.714868 -0.0053 0
0.356134 0.714868 -0.0053 0
0.356134 0.714868 -0.0053 0
0.356134 0.714867 -0.0049 0
0.356134 0.714866 -0.0049 0
0.356134 0.714866 -0.0052 0
0.356134 0.714864 -0.0052 0
0.356134 0.714863 -0.0054 0
0.356134 0.714862 -0.0054 0
0.356134 0.714861 -0.0049 0
0.356135 0.71486 -0.0049 0
0.356259 0.714835 -0.0049 0
0.356136 0.714856 -0.0048 0
0.356136 0.714855 -0.0053 0
0.356136 0.714855 -0.0053 0
0.356136 0.714855 -0.0053 0
0.356136 0.714854 -0.0049 0
0.356137 0.714853 -0.0049 0
0.356137 0.714852 -0.0052 0
0.356136 0.714851 -0.0052 0
0.356136 0.71485 -0.0052 0
0.356259 0.714824 -0.0051 0
0.356259 0.714824 -0.0048 0
0.356259 0.714823 -0.0048 0
0.356259 0.714822 -0.0048 0
0.356258 0.71482 -0.0051 0
0.356257 0.714817 -0.0046 0
0.356256 0.714816 -0.0046 0
0.356256 0.714816 -0.0046 0
0.356257 0.714815 -0.0047 0
0.356257 0.714814 -0.0047 0
0.356257 0.714813 -0.0051 0
0.356257 0.714812 -0.0051 0
0.356257 0.714811 -0.0051 0
0.356257 0.71481 -0.0049 0
0.356257 0.714809 -0.0049 0
0.356256 0.714808 -0.0049 0
0.356344 0.711809 -0.0049 0
0.356256 0.714807 -0.0049 0
0.356256 0.714807 -0.0047 0
0.356256 0.714806 -0.0047 0
0.356255 0.714805 -0.0051 0
0.356254 0.714801 -0.0051 0
0.356312 0.712801 -0.0047 0
0.356252 0.714798 -0.0047 0
0.356252 0.714796 -0.0049 0
0.356251 0.714795 -0.0049 0
0.35625 0.714793 -0.0047 0
0.35625 0.714793 -0.0047 0
0.35625 0.714792 -0.0049 0
0.356249 0.714791 -0.0049 0
0.35648 0.702819 -0.0049 0
0.356125 0.714813 -0.0049 0
0.356125 0.714811 -0.0053 0
0.356125 0.71481 -0.0053 0
0.356124 0.714809 -0.005 0
0.356124 0.714809 -0.005 0
0.356247 0.714784 -0.0046 0
0.356247 0.714783 -0.0046 0
0.356123 0.714806 -0.0055 0
0.356122 0.714804 -0.0055 0
0.356122 0.714802 -0.0042 0
0.356121 0.7148 -0.0042 0
0.356121 0.714799 -0.0047 0
0.356121 0.714798 -0.0049 0
0.356121 0.714797 -0.0049 0
0.356122 0.714796 -0.0049 0
0.356123 0.714794 -0.0048 0
0.356123 0.714793 -0.0046 0
0.356122 0.714792 -0.0046 0
0.356122 0.714791 -0.0046 0
0.356123 0.714789 -0.0048 0
0.356122 0.714788 -0.0044 0
0.356122 0.714787 -0.0044 0
0.356245 0.714762 -0.0044 0
0.356245 0.714761 -0.0052 0
0.356121 0.714783 -0.0052 0
0.35612 0.714782 -0.0046 0
0.356089 0.71578 -0.0046 0
0.356241 0.714756 -0.0046 0
0.356242 0.714754 -0.0049 0
0.356241 0.714752 -0.0051 0
0.356242 0.714751 -0.0051 0
0.356242 0.71475 -0.0051 0
0.356242 0.714749 -0.0048 0
0.356242 0.714747 -0.0048 0
0.356243 0.714743 -0.0051 0
0.356243 0.714742 -0.0051 0
0.356244 0.714742 -0.0048 0
0.356244 0.714742 -0.0048 0
0.356244 0.714742 -0.0053 0
0.356245 0.714742 -0.0053 0
0.356245 0.714741 -0.0053 0
0.356245 0.71474 -0.0045 0
0.356246 0.71474 -0.0045 0
0.356245 0.71474 -0.0045 0
0.356246 0.714739 -0.005 0
0.356246 0.714738 -0.005 0
0.356247 0.714735 -0.0047 0
0.356248 0.714733 -0.0047 0
0.356248 0.714732 -0.0049 0
0.356278 0.713731 -0.0048 0
0.356248 0.71473 -0.0048 0
0.356247 0.714729 -0.0048 0
0.356247 0.714728 -0.0052 0
0.356247 0.714727 -0.0052 0
0.356246 0.714726 -0.0048 0
0.356246 0.714725 -0.0048 0
0.356246 0.714725 -0.0048 0
0.356246 0.714724 -0.0047 0
0.356247 0.71472 -0.0047 0
0.356246 0.714718 -0.0047 0
0.356247 0.714716 -0.0047 0
0.356247 0.714715 -0.0045 0
0.356248 0.714714 -0.0045 0
0.356249 0.714714 -0.005 0
0.356249 0.714714 -0.005 0
0.356249 0.714712 -0.0044 0
0.356248 0.714712 -0.0044 0
0.356248 0.714711 -0.0045 0
0.356249 0.714712 -0.0045 0
0.356249 0.714711 -0.0045 0
0.356249 0.714709 -0.0055 0
0.35625 0.714708 -0.0044 0
0.356279 0.713707 -0.0044 0
0.35625 0.714706 -0.0044 0
0.35625 0.714704 -0.005 0
0.35625 0.714703 -0.005 0
0.356249 0.7147 -0.0045 0
0.356249 0.714699 -0.0045 0
0.356308 0.712698 -0.0045 0
0.356249 0.714696 -0.0045 0
0.356249 0.714695 -0.0045 0
0.356279 0.713693 -0.0045 0
0.356249 0.714691 -0.0045 0
0.356249 0.714689 -0.0049 0
0.356249 0.714688 -0.0052 0
0.355044 0.75567 -0.0052 0
0.356248 0.714688 -0.0052 0
0.356248 0.714689 -0.0046 0
0.356247 0.714688 -0.0046 0
0.356248 0.714688 -0.0047 0
0.356248 0.714687 -0.0047 0
0.356248 0.714687 -0.0047 0
0.356248 0.714685 -0.0048 0
0.356248 0.714684 -0.0051 0
0.356248 0.714683 -0.0051 0
0.356248 0.714682 -0.0051 0
0.356247 0.714681 -0.0047 0
0.356247 0.71468 -0.0047 0
0.356247 0.714679 -0.0048 0
0.356122 0.714701 -0.0048 0
0.356123 0.7147 -0.0051 0
0.356123 0.714699 -0.0051 0
0.354911 0.755679 -0.0053 0
0.356122 0.714696 -0.0053 0
0.356122 0.714694 -0.0047 0
0.356122 0.714693 -0.0047 0
0.356122 0.714691 -0.0048 0
0.356122 0.71469 -0.0048 0
0.356121 0.714689 -0.0053 0
0.356181 0.712689 -0.0053 0
0.35612 0.714687 -0.0046 0
0.356119 0.714686 -0.0046 0
0.356119 0.714686 -0.0047 0
0.356243 0.714661 -0.0047 0
0.356244 0.71466 -0.0056 0
0.356244 0.714659 -0.0056 0
0.356244 0.714658 -0.0056 0
0.356244 0.714657 -0.0053 0
0.356243 0.714656 -0.0053 0
0.356243 0.714655 -0.0047 0
0.356242 0.714654 -0.0047 0
0.356241 0.714653 -0.0046 0
0.35624 0.714652 -0.0046 0
0.35624 0.714652 -0.005 0
0.356239 0.714651 -0.005 0
0.356239 0.71465 -0.005 0
0.356239 0.714649 -0.0043 0
0.356237 0.714648 -0.0043 0
0.356265 0.713647 -0.0047 0
0.356235 0.714645 -0.0047 0
0.356235 0.714644 -0.0056 0
0.356234 0.714644 -0.0056 0
0.356233 0.714643 -0.0041 0
0.356232 0.714643 -0.0041 0
0.356231 0.714641 -0.0047 0
0.356232 0.71464 -0.0047 0
0.356232 0.714639 -0.0052 0
0.356231 0.714638 -0.0052 0
0.356231 0.714635 -0.0047 0
0.356231 0.714634 -0.0047 0
0.35623 0.714633 -0.0042 0
0.35623 0.714633 -0.0042 0
0.356105 0.714654 -0.0046 0
0.356229 0.714629 -0.0046 0
0.35623 0.714628 -0.0055 0
0.356105 0.714651 -0.0055 0
0.356107 0.714649 -0.0045 0
0.356107 0.714649 -0.0045 0
0.356107 0.714649 -0.0047 0
0.356108 0.714648 -0.0047 0
0.356196 0.711649 -0.0048 0
0.356107 0.714646 -0.0048 0
0.356108 0.714646 -0.0047 0
0.356138 0.713645 -0.0047 0
0.356109 0.714643 -0.0047 0
0.356109 0.714643 -0.005 0
0.356111 0.714642 -0.005 0
0.356111 0.714643 -0.0046 0
0.356112 0.714643 -0.0046 0
0.356112 0.714642 -0.0046 0
0.356112 0.714641 -0.0046 0
0.356113 0.71464 -0.005 0
0.356113 0.714638 -0.005 0
0.356113 0.714636 -0.005 0
0.356237 0.714611 -0.0045 0
0.356237 0.714611 -0.0045 0
0.356238 0.714609 -0.0047 0
0.356238 0.714607 -0.0047 0
0.356239 0.714607 -0.0051 0
0.356269 0.713606 -0.0051 0
0.356239 0.714604 -0.0052 0
0.356239 0.714604 -0.0052 0
0.356239 0.714603 -0.0052 0
0.356239 0.714602 -0.005 0
0.356239 0.714601 -0.005 0
0.356238 0.7146 -0.005 0
0.356237 0.714599 -0.005 0
0.356237 0.714598 -0.005 0
0.356237 0.714599 -0.005 0
0.356236 0.714598 -0.0048 0
0.356236 0.714598 -0.0048 0
0.356235 0.714597 -0.0048 0
0.356234 0.714596 -0.0052 0
0.356234 0.714595 -0.0045 0
0.356234 0.714595 -0.0045 0
0.356233 0.714595 -0.0045 0
0.356108 0.714618 -0.0052 0
0.356108 0.714619 -0.0045 0
0.356108 0.714619 -0.0045 0
0.356108 0.714618 -0.0045 0
0.356108 0.714617 -0.005 0
0.356108 0.714616 -0.0047 0
0.356231 0.714592 -0.0047 0
0.356231 0.714592 -0.0047 0
0.356106 0.714616 -0.0049 0
0.356106 0.714615 -0.005 0
0.356105 0.714614 -0.005 0
0.356106 0.714613 -0.0048 0
0.356106 0.714612 -0.0048 0
0.356229 0.714587 -0.005 0
0.356229 0.714587 -0.005 0
0.356228 0.714586 -0.0047 0
0.356227 0.714586 -0.0047 0
0.356102 0.714608 -0.0044 0
0.356225 0.714585 -0.0044 0
0.356224 0.714584 -0.005 0
0.356223 0.714584 -0.005 0
0.356223 0.714583 -0.005 0
0.356222 0.714582 -0.005 0
0.356222 0.71458 -0.005 0
0.35631 0.71158 -0.005 0
0.356222 0.714579 -0.005 0
0.356223 0.714578 -0.0046 0
0.356225 0.714576 -0.0046 0
0.356225 0.714575 -0.0053 0
0.356225 0.714574 -0.0053 0
0.356225 0.714573 -0.0042 0
0.356225 0.714572 -0.0042 0
0.356224 0.714571 -0.0048 0
0.356224 0.71457 -0.0048 0
0.356224 0.71457 -0.0054 0
0.356224 0.714569 -0.0054 0
0.356223 0.714568 -0.0054 0
0.356224 0.714566 -0.0044 0
0.356224 0.714565 -0.0052 0
0.356224 0.714565 -0.0052 0
0.356224 0.714565 -0.0052 0
0.356223 0.714564 -0.0051 0
0.356099 0.714587 -0.0051 0
0.356098 0.714585 -0.0047 0
0.356098 0.714583 -0.0047 0
0.356098 0.714582 -0.0047 0
0.356098 0.71458 -0.005 0
0.356098 0.714579 -0.0046 0
0.356098 0.714578 -0.0046 0
0.356098 0.714576 -0.0046 0
0.356098 0.714575 -0.0048 0
0.356098 0.714574 -0.0048 0
0.356097 0.714572 -0.0047 0
0.356098 0.714571 -0.0047 0
0.356097 0.71457 -0.0048 0
0.356097 0.714568 -0.0048 0
0.356097 0.714567 -0.0051 0
0.356097 0.714566 -0.0051 0
0.356097 0.714565 -0.0051 0
0.356186 0.711566 -0.0045 0
0.356097 0.714563 -0.0045 0
0.356097 0.714562 -0.0049 0
0.356097 0.714561 -0.0049 0
0.356097 0.71456 -0.0051 0
0.356096 0.714559 -0.0051 0
0.356097 0.714558 -0.0049 0
0.356097 0.714557 -0.0049 0
0.356098 0.714556 -0.0049 0
0.356221 0.714532 -0.0052 0
0.356251 0.713531 -0.0044 0
0.356222 0.714529 -0.0044 0
0.356222 0.714527 -0.0044 0
0.356222 0.714526 -0.0052 0
0.356222 0.714524 -0.0052 0
0.356221 0.714523 -0.0048 0
0.356221 0.714522 -0.0048 0
0.356097 0.714544 -0.0048 0
0.356097 0.714543 -0.0051 0
0.356221 0.714519 -0.005 0
0.356222 0.714518 -0.005 0
0.356222 0.714517 -0.005 0
0.356222 0.714516 -0.0047 0
0.356222 0.714516 -0.0047 0
0.35631 0.711516 -0.0049 0
0.356222 0.714512 -0.0049 0
0.356222 0.71451 -0.005 0
0.356222 0.714509 -0.005 0
0.356222 0.714508 -0.0047 0
0.356221 0.714508 -0.0047 0
0.35622 0.714507 -0.0053 0
0.356221 0.714505 -0.0053 0
0.356221 0.714504 -0.0047 0
0.356221 0.714502 -0.0047 0
0.356222 0.7145 -0.0047 0
0.356221 0.714499 -0.0046 0
0.35622 0.714498 -0.005 0
0.356219 0.714497 -0.005 0
0.356218 0.714496 -0.005 0
0.356218 0.714495 -0.0047 0
0.356218 0.714494 -0.0047 0
0.356218 0.714494 -0.0052 0
0.356218 0.714493 -0.0052 0
0.356218 0.714492 -0.0048 0
0.356218 0.714491 -0.0048 0
0.356217 0.714491 -0.0048 0
0.356216 0.714491 -0.0048 0
0.356216 0.71449 -0.0048 0
0.356216 0.714489 -0.0048 0
0.356215 0.714489 -0.0048 0
0.356214 0.714488 -0.005 0
0.356213 0.714487 -0.005 0
0.356213 0.714486 -0.0049 0
0.356213 0.714486 -0.0049 0
0.356212 0.714485 -0.0049 0
0.356212 0.714484 -0.0049 0
0.356211 0.714482 -0.0049 0
0.356211 0.714481 -0.005 0
0.35621 0.71448 -0.005 0
0.35621 0.714479 -0.0047 0
0.35621 0.714478 -0.0047 0
0.356209 0.714477 -0.0046 0
0.356209 0.714476 -0.0046 0
0.356209 0.714475 -0.0056 0
0.356208 0.714473 -0.0056 0
0.356208 0.714472 -0.005 0
0.356208 0.714471 -0.005 0
0.356207 0.714469 -0.0047 0
0.356207 0.714468 -0.0047 0
0.356208 0.714467 -0.005 0
0.356208 0.714466 -0.005 0
0.356173 0.711491 -0.0044 0
0.356085 0.714489 -0.0044 0
0.356208 0.714465 -0.0049 0
0.356209 0.714465 -0.0049 0
0.356209 0.714464 -0.0048 0
0.356208 0.714462 -0.0048 0
0.356208 0.714461 -0.0048 0
0.356208 0.714461 -0.0051 0
0.356208 0.71446 -0.0051 0
0.356209 0.714459 -0.0049 0
0.356209 0.714458 -0.0049 0
0.356209 0.714457 -0.0047 0
0.356208 0.714456 -0.0047 0
0.356208 0.714454 -0.005 0
0.356207 0.714453 -0.005 0
0.356207 0.714453 -0.0047 0
0.356207 0.714453 -0.0047 0
0.356207 0.714451 -0.0051 0
0.356207 0.71445 -0.0051 0
0.356206 0.71445 -0.0048 0
0.356206 0.714449 -0.005 0
0.356206 0.714448 -0.005 0
0.356206 0.714448 -0.005 0
0.356206 0.714447 -0.0045 0
0.356206 0.714447 -0.0045 0
0.356207 0.714446 -0.0046 0
0.356208 0.714445 -0.0046 0
0.356208 0.714445 -0.0051 0
0.356295 0.711444 -0.0051 0
0.356207 0.714439 -0.005 0
0.356207 0.714438 -0.005 0
0.356207 0.714437 -0.0043 0
0.356208 0.714437 -0.0043 0
0.356208 0.714436 -0.0051 0
0.356208 0.714433 -0.0051 0
0.356209 0.714432 -0.0047 0
0.356208 0.714431 -0.0047 0
0.356209 0.71443 -0.0053 0
0.356209 0.71443 -0.0053 0
0.356209 0.714429 -0.0053 0
0.356208 0.714428 -0.0044 0
0.356209 0.714427 -0.0044 0
0.356208 0.714425 -0.005 0
0.356208 0.714424 -0.005 0
0.356207 0.714422 -0.0046 0
0.356207 0.71442 -0.0046 0
0.356208 0.714419 -0.0047 0
0.356207 0.714417 -0.0047 0
0.356205 0.714415 -0.005 0
0.356204 0.714413 -0.005 0
0.356203 0.714413 -0.0049 0
0.356203 0.714411 -0.0049 0
0.356202 0.71441 -0.005 0
0.356202 0.714409 -0.005 0
0.356202 0.714408 -0.0047 0
0.356201 0.714408 -0.0047 0
0.3562 0.714407 -0.0047 0
0.356201 0.714408 -0.0051 0
0.3562 0.714407 -0.0051 0
0.3562 0.714405 -0.0045 0
0.3562 0.714404 -0.0045 0
0.3562 0.714404 -0.0051 0
0.3562 0.714404 -0.0051 0
0.3562 0.714403 -0.0046 0
0.3562 0.714403 -0.0046 0
0.3562 0.714403 -0.0048 0
0.3562 0.714403 -0.0048 0
0.3562 0.714403 -0.0047 0
0.3562 0.714402 -0.0047 0
0.3562 0.714401 -0.0047 0
0.356201 0.7144 -0.0047 0
0.356202 0.714398 -0.0047 0
0.356202 0.714397 -0.0047 0
0.356203 0.714395 -0.0047 0
0.356202 0.714393 -0.0047 0
0.356203 0.714391 -0.0046 0
0.356202 0.71439 -0.0046 0
0.356201 0.714389 -0.0046 0
0.356077 0.714411 -0.005 0
0.356077 0.71441 -0.005 0
0.356077 0.714409 -0.005 0
0.356017 0.716406 -0.0046 0
0.356076 0.714406 -0.0046 0
0.356076 0.714405 -0.0046 0
0.356076 0.714405 -0.0046 0
0.356076 0.714405 -0.0046 0
0.356075 0.714404 -0.0046 0
0.356198 0.714379 -0.0052 0
0.356074 0.714403 -0.0052 0
0.356075 0.714402 -0.0052 0
0.356074 0.714401 -0.0047 0
0.356194 0.714375 -0.0053 0
0.356201 0.714374 -0.0053 0
0.356346 0.71435 -0.0053 0
0.356992 0.71423 0.0087 0
0.357217 0.714177 0.0452 0
0.357561 0.714099 0.0452 0
0.357842 0.713022 -0.0046 0
0.357873 0.712998 -0.0046 0
0.357905 0.712977 0.0307 0
0.357785 0.712999 0.0307 0
0.357638 0.713057 0.0307 0
0.357153 0.713196 0.000800002 0
0.357016 0.713233 0.0059 0
0.357027 0.712243 0.0059 0
0.357013 0.712249 0.0059 0
0.356998 0.712263 -0.0079 0
0.356995 0.712268 -0.0059 0
0.356872 0.712295 -0.0059 0
0.356748 0.712318 -0.0055 0
0.356784 0.711319 -0.0055 0
0.356519 0.712366 0.000700003 0
0.356436 0.711386 0.000700003 0
0.356186 0.711426 0.0072 0
0.356029 0.712442 0.0072 0
0.356052 0.711436 -0.0034 0
0.355559 0.711516 -0.0034 0
0.355533 0.712504 0.0021 0
0.355416 0.712517 0.0021 0
0.355426 0.712512 -0.003 0
0.355456 0.71152 -0.003 0
0.355455 0.71153 -0.0039 0
0.355457 0.711539 -0.0039 0
0.355457 0.711543 0.000600004 0
0.355455 0.711547 0.000600004 0
0.355454 0.711547 -0.0029 0
0.355456 0.711546 -0.0029 0
0.355457 0.711545 -0.002 0
0.35546 0.711547 -0.002 0
0.355461 0.711548 0.001 0
0.355463 0.711548 0.001 0
0.355466 0.711546 -0.0014 0
0.355466 0.711544 -0.0014 0
0.355436 0.712545 -0.0018 0
0.355468 0.711546 -0.0018 0
0.355467 0.711547 0.000600004 0
0.355466 0.711548 0.000600004 0
0.355464 0.711548 0.000600004 0
0.35543 0.712548 -0.0017 0
0.355458 0.711549 -0.0017 0
