ply
format ascii 1.0
element vertex 1725
property float x
property float y
property float z
property float intensity
end_header
0.218825 0.716579 -0.0098 0
0.218826 0.716576 -0.0096 0
0.218826 0.716576 -0.0096 0
0.218826 0.716575 -0.0096 0
0.218826 0.716574 -0.0092 0
0.218825 0.716573 -0.0092 0
0.218825 0.716572 -0.0092 0
0.218823 0.716572 -0.0095 0
0.218822 0.716571 -0.0095 0
0.218822 0.71657 -0.0095 0
0.218822 0.71657 -0.0099 0
0.218822 0.716569 -0.0099 0
0.218821 0.716569 -0.0094 0
0.218821 0.716569 -0.0094 0
0.218821 0.716568 -0.0094 0
0.21882 0.716567 -0.0093 0
0.21882 0.716565 -0.0093 0
0.21882 0.716564 -0.0089 0
0.21882 0.716563 -0.0089 0
0.21882 0.716563 -0.0093 0
0.21882 0.716562 -0.0093 0
0.21885 0.715562 -0.0091 0
0.21882 0.71656 -0.0091 0
0.21882 0.716559 -0.0091 0
0.218819 0.716558 -0.0095 0
0.218818 0.716557 -0.0095 0
0.218818 0.716556 -0.0095 0
0.218816 0.716555 -0.0091 0
0.218815 0.716555 -0.009 0
0.218815 0.716555 -0.009 0
0.218814 0.716554 -0.0094 0
0.218876 0.714555 -0.0094 0
0.218814 0.716553 -0.0094 0
0.218814 0.716553 -0.0095 0
0.218813 0.716551 -0.0095 0
0.218813 0.716549 -0.0093 0
0.218812 0.71655 -0.0093 0
0.218811 0.71655 -0.0095 0
0.218811 0.716549 -0.0095 0
0.21881 0.716549 -0.009 0
0.21881 0.716547 -0.009 0
0.21881 0.716547 -0.0092 0
0.21881 0.716546 -0.0092 0
0.21881 0.716545 -0.0097 0
0.218809 0.716544 -0.0097 0
0.218932 0.71652 -0.0093 0
0.218931 0.71652 -0.0093 0
0.219023 0.713521 -0.0094 0
0.218807 0.716541 -0.0094 0
0.218807 0.71654 -0.0094 0
0.218931 0.716515 -0.0094 0
0.218931 0.716514 -0.009 0
0.218931 0.716513 -0.009 0
0.218932 0.716512 -0.009 0
0.218931 0.71651 -0.0096 0
0.218931 0.716508 -0.0092 0
0.218932 0.716507 -0.0092 0
0.218932 0.716505 -0.0092 0
0.218933 0.716504 -0.0095 0
0.218934 0.716503 -0.0095 0
0.218934 0.716501 -0.0093 0
0.218935 0.716501 -0.0093 0
0.218935 0.716498 -0.0094 0
0.218935 0.716497 -0.0094 0
0.218935 0.716497 -0.0092 0
0.218935 0.716496 -0.0092 0
0.218937 0.716493 -0.0093 0
0.218937 0.716492 -0.0093 0
0.218938 0.716491 -0.0096 0
0.218938 0.71649 -0.0096 0
0.218938 0.716488 -0.0099 0
0.218937 0.716486 -0.0099 0
0.218937 0.716485 -0.0095 0
0.218938 0.716483 -0.0095 0
0.218938 0.716482 -0.0093 0
0.218939 0.716482 -0.0093 0
0.218939 0.716481 -0.0094 0
0.218816 0.716501 -0.0094 0
0.218816 0.716499 -0.0094 0
0.218816 0.716498 -0.0094 0
0.218816 0.716497 -0.0097 0
0.218816 0.716494 -0.0097 0
0.218816 0.716493 -0.0095 0
0.218816 0.716492 -0.0095 0
0.218816 0.716491 -0.0095 0
0.218815 0.716488 -0.0093 0
0.218815 0.716487 -0.009 0
0.218815 0.716486 -0.009 0
0.218816 0.716484 -0.0093 0
0.218816 0.716483 -0.0093 0
0.218816 0.716483 -0.0093 0
0.218816 0.716481 -0.0093 0
0.218817 0.716481 -0.0093 0
0.218817 0.716481 -0.0092 0
0.218818 0.71648 -0.0092 0
0.218817 0.716478 -0.0092 0
0.218816 0.716478 -0.0091 0
0.218939 0.716454 -0.0091 0
0.218816 0.716476 -0.0096 0
0.218816 0.716476 -0.0096 0
0.218816 0.716476 -0.0095 0
0.218816 0.716476 -0.0095 0
0.218816 0.716475 -0.0096 0
0.21894 0.716452 -0.0096 0
0.21894 0.716451 -0.0096 0
0.21894 0.716451 -0.0095 0
0.218816 0.716475 -0.0095 0
0.218816 0.716475 -0.0095 0
0.218815 0.716475 -0.0095 0
0.218815 0.716475 -0.0096 0
0.218938 0.716451 -0.0096 0
0.218939 0.716451 -0.0092 0
0.218939 0.71645 -0.0092 0
0.218939 0.71645 -0.0092 0
0.218941 0.716448 -0.0095 0
0.218972 0.715448 -0.0095 0
0.218941 0.716447 -0.0091 0
0.218942 0.716446 -0.0091 0
0.218942 0.716444 -0.0092 0
0.218942 0.716442 -0.0097 0
0.218942 0.716441 -0.0097 0
0.218821 0.716464 -0.0088 0
0.218822 0.716463 -0.0088 0
0.218821 0.716462 -0.0088 0
0.218821 0.716461 -0.0093 0
0.21882 0.716459 -0.0097 0
0.218819 0.716458 -0.0097 0
0.218819 0.716457 -0.0095 0
0.218942 0.716433 -0.0095 0
0.21894 0.716431 -0.0096 0
0.21897 0.71543 -0.0096 0
0.218939 0.716429 -0.0096 0
0.218939 0.716427 -0.0096 0
0.218939 0.716425 -0.0095 0
0.218939 0.716423 -0.0095 0
0.218938 0.716421 -0.0092 0
0.218938 0.716419 -0.0092 0
0.218937 0.716415 -0.0093 0
0.218936 0.716413 -0.0093 0
0.218935 0.716412 -0.0092 0
0.218934 0.716409 -0.0092 0
0.218934 0.716407 -0.0091 0
0.218934 0.716405 -0.0091 0
0.218933 0.716404 -0.009 0
0.218933 0.716402 -0.009 0
0.218932 0.716401 -0.009 0
0.218808 0.716423 -0.0091 0
0.218806 0.71642 -0.0091 0
0.218806 0.716418 -0.0093 0
0.218806 0.716415 -0.0093 0
0.218806 0.716413 -0.0094 0
0.218805 0.716412 -0.0094 0
0.218929 0.716385 -0.0095 0
0.21893 0.716384 -0.0095 0
0.21893 0.716383 -0.0092 0
0.21893 0.716381 -0.0092 0
0.21893 0.71638 -0.0086 0
0.21893 0.716378 -0.0086 0
0.218931 0.716377 -0.0094 0
0.218931 0.716376 -0.0094 0
0.218931 0.716376 -0.0095 0
0.21893 0.716376 -0.0095 0
0.218807 0.716398 -0.0091 0
0.218807 0.716397 -0.0093 0
0.218808 0.716396 -0.0093 0
0.218808 0.716395 -0.0093 0
0.218808 0.716393 -0.0096 0
0.218932 0.716369 -0.0093 0
0.218931 0.716368 -0.0093 0
0.21893 0.716368 -0.0093 0
0.21893 0.716366 -0.0095 0
0.21893 0.716365 -0.0095 0
0.21893 0.716364 -0.0095 0
0.218929 0.716362 -0.0095 0
0.21893 0.716362 -0.0095 0
0.21893 0.716361 -0.0093 0
0.21893 0.716359 -0.0093 0
0.21893 0.716358 -0.0093 0
0.21893 0.716357 -0.0092 0
0.21893 0.716357 -0.0092 0
0.218929 0.716356 -0.0092 0
0.218929 0.716356 -0.0095 0
0.218929 0.716355 -0.0095 0
0.218928 0.716353 -0.0095 0
0.218929 0.716352 -0.0095 0
0.218929 0.716348 -0.0092 0
0.218929 0.716347 -0.0092 0
0.218928 0.716347 -0.0096 0
0.218928 0.716347 -0.0096 0
0.218928 0.716346 -0.0088 0
0.218928 0.716345 -0.0088 0
0.218927 0.716345 -0.0088 0
0.218926 0.716344 -0.0091 0
0.218926 0.716344 -0.0091 0
0.218926 0.716343 -0.0092 0
0.218925 0.716342 -0.0092 0
0.218925 0.71634 -0.0096 0
0.218924 0.71634 -0.0096 0
0.218924 0.716339 -0.0096 0
0.218923 0.716339 -0.0094 0
0.218922 0.716338 -0.0094 0
0.21892 0.716337 -0.0094 0
0.218919 0.716335 -0.0094 0
0.218919 0.716335 -0.0092 0
0.218918 0.716334 -0.0092 0
0.218917 0.716333 -0.0091 0
0.218917 0.716332 -0.0091 0
0.218915 0.716331 -0.0096 0
0.218914 0.71633 -0.0096 0
0.218913 0.716329 -0.0094 0
0.218913 0.716328 -0.0094 0
0.218913 0.716327 -0.0094 0
0.218912 0.716326 -0.0094 0
0.218912 0.716325 -0.0093 0
0.218786 0.716347 -0.009 0
0.218786 0.716345 -0.009 0
0.218785 0.716343 -0.009 0
0.219125 0.705348 -0.0096 0
0.218784 0.716342 -0.0096 0
0.218784 0.716341 -0.0096 0
0.218783 0.71634 -0.0097 0
0.218783 0.716339 -0.0097 0
0.218782 0.716338 -0.0091 0
0.218782 0.716337 -0.0091 0
0.218782 0.716336 -0.0096 0
0.218782 0.716335 -0.0096 0
0.218782 0.716335 -0.01 0
0.218782 0.716334 -0.01 0
0.218782 0.716333 -0.0093 0
0.218782 0.716331 -0.0093 0
0.218783 0.716329 -0.0093 0
0.218784 0.716328 -0.0094 0
0.218785 0.716328 -0.0094 0
0.218787 0.716329 -0.0102 0
0.218788 0.716329 -0.0102 0
0.218788 0.716328 -0.0091 0
0.218788 0.716328 -0.0091 0
0.218788 0.716328 -0.0091 0
0.218788 0.716327 -0.0091 0
0.218911 0.716301 -0.0089 0
0.218911 0.7163 -0.0089 0
0.21891 0.716299 -0.0098 0
0.218911 0.716298 -0.0098 0
0.218911 0.716298 -0.0098 0
0.218911 0.716297 -0.0095 0
0.218911 0.716296 -0.0095 0
0.218787 0.716319 -0.009 0
0.218786 0.716318 -0.009 0
0.218786 0.716319 -0.0094 0
0.218785 0.716318 -0.0094 0
0.218786 0.716318 -0.0094 0
0.218787 0.716318 -0.0092 0
0.218787 0.716316 -0.0092 0
0.218787 0.716315 -0.0098 0
0.218911 0.71629 -0.0093 0
0.218911 0.716289 -0.0093 0
0.218787 0.71631 -0.0093 0
0.218788 0.71631 -0.0091 0
0.218788 0.716309 -0.0091 0
0.218788 0.716308 -0.0097 0
0.218788 0.716305 -0.0097 0
0.218789 0.716303 -0.0093 0
0.21879 0.716302 -0.0093 0
0.218791 0.7163 -0.0093 0
0.218791 0.716299 -0.0093 0
0.218914 0.716275 -0.0093 0
0.218791 0.716298 -0.0099 0
0.218884 0.717274 -0.0099 0
0.218791 0.716297 -0.0099 0
0.218915 0.716273 -0.0098 0
0.218915 0.716272 -0.0098 0
0.218916 0.71627 -0.0096 0
0.218916 0.716269 -0.0092 0
0.218977 0.714269 -0.0092 0
0.218915 0.716268 -0.0092 0
0.218916 0.716267 -0.0092 0
0.218915 0.716266 -0.0092 0
0.218791 0.716288 -0.0092 0
0.218915 0.716264 -0.0094 0
0.218915 0.716264 -0.0095 0
0.218792 0.716286 -0.0095 0
0.218792 0.716285 -0.0095 0
0.218792 0.716284 -0.0091 0
0.218791 0.71628 -0.0097 0
0.218915 0.716255 -0.0097 0
0.218916 0.716254 -0.0089 0
0.218916 0.716253 -0.0089 0
0.218917 0.716252 -0.0089 0
0.218917 0.716251 -0.0101 0
0.218917 0.716249 -0.0101 0
0.218917 0.716248 -0.0095 0
0.218917 0.716245 -0.0095 0
0.218916 0.716244 -0.0093 0
0.218916 0.716243 -0.0093 0
0.218916 0.716243 -0.0097 0
0.218915 0.716243 -0.0097 0
0.218791 0.716266 -0.0097 0
0.21879 0.716265 -0.0092 0
0.218789 0.716263 -0.0093 0
0.218788 0.716262 -0.0093 0
0.218788 0.716261 -0.0093 0
0.218788 0.71626 -0.0097 0
0.218788 0.71626 -0.0097 0
0.218789 0.71626 -0.0097 0
0.218789 0.71626 -0.0093 0
0.218789 0.716259 -0.0095 0
0.218788 0.716258 -0.0095 0
0.218789 0.716256 -0.0095 0
0.21879 0.716255 -0.0091 0
0.218789 0.716254 -0.0091 0
0.218789 0.716252 -0.0095 0
0.218788 0.716251 -0.0096 0
0.218788 0.716249 -0.0096 0
0.218788 0.716248 -0.0094 0
0.218788 0.716247 -0.0094 0
0.218788 0.716246 -0.0093 0
0.218788 0.716243 -0.0093 0
0.218788 0.716242 -0.009 0
0.218788 0.716241 -0.009 0
0.218789 0.71624 -0.0094 0
0.218788 0.716238 -0.0094 0
0.218788 0.716237 -0.0094 0
0.218788 0.716235 -0.0094 0
0.218789 0.716234 -0.009 0
0.218789 0.716234 -0.009 0
0.218789 0.716233 -0.0091 0
0.218789 0.716232 -0.0091 0
0.218789 0.71623 -0.0094 0
0.218789 0.71623 -0.0094 0
0.218789 0.71623 -0.0091 0
0.218789 0.716229 -0.0091 0
0.218789 0.716229 -0.0096 0
0.218788 0.716229 -0.0096 0
0.218788 0.716228 -0.009 0
0.218788 0.716228 -0.009 0
0.218787 0.716228 -0.009 0
0.218787 0.716228 -0.009 0
0.218788 0.716227 -0.0095 0
0.218788 0.716227 -0.0095 0
0.218789 0.716226 -0.0095 0
0.218788 0.716225 -0.0094 0
0.218789 0.716224 -0.0094 0
0.218789 0.716223 -0.009 0
0.218789 0.71622 -0.009 0
0.218789 0.716218 -0.0092 0
0.21879 0.716217 -0.0092 0
0.21879 0.716216 -0.0092 0
0.21879 0.716215 -0.0091 0
0.21879 0.716214 -0.0091 0
0.21879 0.716214 -0.0091 0
0.21879 0.716213 -0.0095 0
0.218884 0.713212 -0.0095 0
0.218792 0.716209 -0.0095 0
0.218792 0.716209 -0.0095 0
0.218792 0.716208 -0.0094 0
0.218792 0.716207 -0.0094 0
0.218792 0.716207 -0.0094 0
0.218793 0.716206 -0.0097 0
0.218793 0.716205 -0.0097 0
0.218793 0.716204 -0.0091 0
0.218793 0.716202 -0.0097 0
0.218794 0.716202 -0.0097 0
0.218794 0.716202 -0.0097 0
0.218794 0.716201 -0.0098 0
0.218793 0.716201 -0.0098 0
0.218793 0.7162 -0.0098 0
0.218793 0.716199 -0.0094 0
0.218793 0.716198 -0.0094 0
0.218792 0.716196 -0.0092 0
0.218792 0.716195 -0.0092 0
0.218792 0.716195 -0.0095 0
0.218792 0.716195 -0.0095 0
0.218792 0.716194 -0.0091 0
0.218792 0.716193 -0.0091 0
0.218791 0.716193 -0.0098 0
0.218791 0.716193 -0.0098 0
0.218791 0.716192 -0.0098 0
0.218792 0.716191 -0.0092 0
0.218792 0.716191 -0.0092 0
0.218792 0.71619 -0.0094 0
0.218792 0.71619 -0.0094 0
0.218791 0.716189 -0.0094 0
0.218791 0.716188 -0.0095 0
0.218792 0.716188 -0.0095 0
0.218793 0.716187 -0.0093 0
0.218793 0.716186 -0.0093 0
0.218794 0.716186 -0.0093 0
0.218794 0.716185 -0.0089 0
0.218795 0.716184 -0.0093 0
0.218795 0.716184 -0.0093 0
0.218795 0.716183 -0.0093 0
0.218889 0.713184 -0.0092 0
0.218797 0.716182 -0.0092 0
0.218797 0.716181 -0.0092 0
0.218798 0.71618 -0.0092 0
0.218798 0.71618 -0.0092 0
0.218798 0.716179 -0.0093 0
0.218798 0.716178 -0.0093 0
0.218799 0.716177 -0.009 0
0.218799 0.716175 -0.009 0
0.218799 0.716174 -0.0088 0
0.218799 0.716174 -0.0088 0
0.218798 0.716174 -0.0091 0
0.218798 0.716174 -0.0091 0
0.218798 0.716174 -0.0091 0
0.218799 0.716172 -0.0094 0
0.218799 0.71617 -0.0091 0
0.218799 0.716169 -0.0091 0
0.218799 0.716167 -0.0091 0
0.218831 0.715167 -0.0094 0
0.2188 0.716166 -0.0094 0
0.218801 0.716165 -0.0092 0
0.218801 0.716165 -0.0092 0
0.218802 0.716165 -0.0094 0
0.218802 0.716164 -0.0094 0
0.218802 0.716164 -0.0093 0
0.218802 0.716163 -0.0093 0
0.218801 0.716162 -0.0093 0
0.218801 0.716161 -0.0091 0
0.2188 0.716161 -0.0098 0
0.218799 0.71616 -0.0098 0
0.218798 0.716158 -0.0098 0
0.218798 0.716157 -0.0092 0
0.218798 0.716157 -0.0092 0
0.218798 0.716157 -0.0097 0
0.218891 0.713158 -0.0097 0
0.218798 0.716156 -0.0097 0
0.218799 0.716155 -0.0094 0
0.218799 0.716153 -0.0094 0
0.218799 0.716152 -0.0094 0
0.218798 0.71615 -0.0095 0
0.218797 0.716148 -0.0092 0
0.218796 0.716147 -0.0092 0
0.218795 0.716145 -0.0096 0
0.218794 0.716144 -0.0096 0
0.218794 0.716143 -0.0093 0
0.218794 0.716143 -0.0093 0
0.218793 0.716141 -0.0094 0
0.218793 0.71614 -0.0094 0
0.218792 0.716139 -0.0097 0
0.218792 0.716138 -0.0097 0
0.218791 0.716137 -0.0093 0
0.21879 0.716136 -0.0093 0
0.218789 0.716135 -0.0093 0
0.21885 0.714135 -0.0099 0
0.218788 0.716134 -0.0099 0
0.21885 0.714134 -0.0096 0
0.218789 0.716132 -0.0096 0
0.218789 0.716131 -0.0093 0
0.218789 0.71613 -0.0093 0
0.218789 0.716127 -0.0098 0
0.218789 0.716126 -0.0098 0
0.218788 0.716125 -0.0098 0
0.218911 0.7161 -0.0089 0
0.218911 0.716099 -0.0093 0
0.218911 0.716099 -0.0093 0
0.218911 0.716099 -0.0093 0
0.218788 0.716123 -0.0094 0
0.218787 0.716121 -0.0093 0
0.218911 0.716096 -0.0093 0
0.218912 0.716095 -0.0093 0
0.21879 0.716115 -0.0092 0
0.218791 0.716114 -0.0093 0
0.218792 0.716114 -0.0093 0
0.217523 0.757094 -0.0093 0
0.218793 0.716114 -0.0095 0
0.218824 0.715114 -0.0095 0
0.218792 0.716113 -0.0095 0
0.218792 0.716113 -0.0095 0
0.218915 0.716089 -0.0092 0
0.218915 0.716088 -0.0092 0
0.218914 0.716087 -0.0094 0
0.218914 0.716086 -0.0094 0
0.218914 0.716085 -0.0092 0
0.218915 0.716085 -0.0092 0
0.218916 0.716084 -0.0095 0
0.218916 0.716084 -0.0095 0
0.218915 0.716082 -0.009 0
0.218915 0.716082 -0.009 0
0.218915 0.716081 -0.009 0
0.218915 0.716078 -0.0095 0
0.218915 0.716077 -0.0094 0
0.218914 0.716075 -0.0094 0
0.218914 0.716075 -0.0094 0
0.218913 0.716074 -0.009 0
0.218913 0.716073 -0.009 0
0.218913 0.716072 -0.0096 0
0.218913 0.71607 -0.0095 0
0.218913 0.71607 -0.0095 0
0.218914 0.71607 -0.0095 0
0.218914 0.716069 -0.0096 0
0.218915 0.716068 -0.0096 0
0.218914 0.716067 -0.0092 0
0.218915 0.716066 -0.0092 0
0.218915 0.716066 -0.0092 0
0.218915 0.716065 -0.0091 0
0.218914 0.716064 -0.0091 0
0.218914 0.716063 -0.0093 0
0.218914 0.716062 -0.0093 0
0.218913 0.71606 -0.0092 0
0.218913 0.71606 -0.0092 0
0.218913 0.716059 -0.009 0
0.218914 0.716058 -0.009 0
0.218914 0.716059 -0.009 0
0.218914 0.716058 -0.0096 0
0.218914 0.716058 -0.0096 0
0.218914 0.716055 -0.0093 0
0.218914 0.716054 -0.0093 0
0.218914 0.716053 -0.0098 0
0.218914 0.716051 -0.0098 0
0.21879 0.716073 -0.0098 0
0.218789 0.71607 -0.0094 0
0.218852 0.71407 -0.0094 0
0.21879 0.716067 -0.0094 0
0.21879 0.716065 -0.0096 0
0.21879 0.716064 -0.0096 0
0.218789 0.716063 -0.0096 0
0.218789 0.716062 -0.0093 0
0.218789 0.71606 -0.0093 0
0.218789 0.716059 -0.0095 0
0.218912 0.716034 -0.0095 0
0.218788 0.716056 -0.0095 0
0.21885 0.714056 -0.0095 0
0.218912 0.71603 -0.0092 0
0.218788 0.716052 -0.0092 0
0.218787 0.71605 -0.0092 0
0.218787 0.716049 -0.009 0
0.218787 0.716049 -0.009 0
0.218786 0.716046 -0.0095 0
0.218787 0.716046 -0.0095 0
0.218786 0.716045 -0.0091 0
0.218786 0.716044 -0.0091 0
0.218909 0.71602 -0.0091 0
0.218847 0.714043 -0.0091 0
0.218785 0.716041 -0.0091 0
0.218786 0.71604 -0.0095 0
0.218909 0.716013 -0.0095 0
0.21891 0.716012 -0.0093 0
0.218911 0.716011 -0.0093 0
0.218911 0.716009 -0.0094 0
0.218911 0.716008 -0.0094 0
0.218911 0.716006 -0.0094 0
0.218911 0.716005 -0.0089 0
0.218912 0.716004 -0.0089 0
0.218912 0.716003 -0.0094 0
0.218912 0.716003 -0.0094 0
0.218912 0.716003 -0.0097 0
0.218912 0.716002 -0.0097 0
0.218912 0.716001 -0.009 0
0.218911 0.716001 -0.009 0
0.21891 0.716 -0.0098 0
0.21891 0.716001 -0.0098 0
0.218909 0.716002 -0.0094 0
0.218909 0.716002 -0.0094 0
0.218908 0.716002 -0.0098 0
0.218907 0.716001 -0.0098 0
0.218907 0.716 -0.0092 0
0.218907 0.715999 -0.0096 0
0.218907 0.715997 -0.0096 0
0.218907 0.715996 -0.0096 0
0.218907 0.715994 -0.0096 0
0.218907 0.715991 -0.0096 0
0.218907 0.715989 -0.0089 0
0.218907 0.715988 -0.0089 0
0.218907 0.715986 -0.0093 0
0.218907 0.715984 -0.0094 0
0.218906 0.715982 -0.0094 0
0.218907 0.715981 -0.0094 0
0.218907 0.71598 -0.0095 0
0.218907 0.715978 -0.0091 0
0.218906 0.715976 -0.0091 0
0.218906 0.715975 -0.0091 0
0.218904 0.715973 -0.0096 0
0.218904 0.715973 -0.0096 0
0.218904 0.715972 -0.0096 0
0.218903 0.71597 -0.0096 0
0.218903 0.715968 -0.009 0
0.218902 0.715967 -0.009 0
0.218901 0.715966 -0.0096 0
0.218901 0.715964 -0.0096 0
0.218902 0.715963 -0.009 0
0.218901 0.71596 -0.0095 0
0.218901 0.715959 -0.0095 0
0.218902 0.715957 -0.0095 0
0.218901 0.715955 -0.0094 0
0.2189 0.715954 -0.0094 0
0.218899 0.715953 -0.0094 0
0.218899 0.715952 -0.0094 0
0.218898 0.715951 -0.0096 0
0.218898 0.71595 -0.0096 0
0.218897 0.715949 -0.0096 0
0.218897 0.715948 -0.0099 0
0.218897 0.715948 -0.0099 0
0.218897 0.715947 -0.0094 0
0.218896 0.715946 -0.0094 0
0.218895 0.715946 -0.0093 0
0.218895 0.715945 -0.0093 0
0.218894 0.715943 -0.0098 0
0.218894 0.715941 -0.0098 0
0.218894 0.715939 -0.0095 0
0.218893 0.715935 -0.0095 0
0.218894 0.715935 -0.0098 0
0.218894 0.715934 -0.0098 0
0.218894 0.715934 -0.0093 0
0.218895 0.715933 -0.0093 0
0.218895 0.715933 -0.0093 0
0.218896 0.715931 -0.0093 0
0.218896 0.715931 -0.0092 0
0.218896 0.71593 -0.0092 0
0.218896 0.715928 -0.0092 0
0.218896 0.715926 -0.0095 0
0.218896 0.715925 -0.0095 0
0.218895 0.715922 -0.0099 0
0.218895 0.715922 -0.0099 0
0.218896 0.715922 -0.0093 0
0.218896 0.715921 -0.0093 0
0.218897 0.715921 -0.0094 0
0.218898 0.71592 -0.0094 0
0.218898 0.715919 -0.0094 0
0.218898 0.715919 -0.0093 0
0.218898 0.715918 -0.0093 0
0.218898 0.715918 -0.0093 0
0.218897 0.715917 -0.0086 0
0.218897 0.715915 -0.009 0
0.218898 0.715913 -0.009 0
0.218898 0.715912 -0.0091 0
0.218899 0.715911 -0.0091 0
0.218899 0.71591 -0.0091 0
0.2189 0.715909 -0.0093 0
0.2189 0.715907 -0.0093 0
0.218901 0.715906 -0.0092 0
0.218902 0.715906 -0.0092 0
0.218902 0.715905 -0.0092 0
0.218902 0.715904 -0.0097 0
0.218902 0.715903 -0.0097 0
0.218902 0.715901 -0.0095 0
0.218902 0.715898 -0.0095 0
0.218901 0.715897 -0.0095 0
0.218901 0.715896 -0.0095 0
0.218901 0.715895 -0.0094 0
0.2189 0.715894 -0.0094 0
0.218899 0.715894 -0.0094 0
0.218899 0.715892 -0.0095 0
0.218899 0.715891 -0.0095 0
0.2189 0.71589 -0.0095 0
0.218899 0.715888 -0.009 0
0.218899 0.715887 -0.0094 0
0.218899 0.715886 -0.0094 0
0.218899 0.715885 -0.0095 0
0.218898 0.715884 -0.0095 0
0.218898 0.715883 -0.0095 0
0.218897 0.71588 -0.0098 0
0.218896 0.715877 -0.0098 0
0.218895 0.715875 -0.0093 0
0.218894 0.715874 -0.0093 0
0.218893 0.715873 -0.0093 0
0.218892 0.715872 -0.0093 0
0.218892 0.715871 -0.0093 0
0.21889 0.715869 -0.0093 0
0.21889 0.715867 -0.0095 0
0.218889 0.715865 -0.0095 0
0.218887 0.715864 -0.0095 0
0.218887 0.715862 -0.0095 0
0.218886 0.715861 -0.0095 0
0.218885 0.71586 -0.0088 0
0.218885 0.71586 -0.0088 0
0.218884 0.715859 -0.0092 0
0.218884 0.715859 -0.0092 0
0.218915 0.714858 -0.0092 0
0.218884 0.715855 -0.0094 0
0.218884 0.715855 -0.0094 0
0.218884 0.715854 -0.0094 0
0.218884 0.715853 -0.0094 0
0.218883 0.715851 -0.0096 0
0.218883 0.71585 -0.0096 0
0.218883 0.715849 -0.0094 0
0.218882 0.715847 -0.0094 0
0.218882 0.715845 -0.0094 0
0.218882 0.715844 -0.0094 0
0.218882 0.715844 -0.0088 0
0.218881 0.715843 -0.0088 0
0.218881 0.715843 -0.0088 0
0.218942 0.713842 -0.0094 0
0.218879 0.71584 -0.0094 0
0.218879 0.715839 -0.0093 0
0.21888 0.715838 -0.0093 0
0.218879 0.715838 -0.0093 0
0.218879 0.715836 -0.0095 0
0.218879 0.715836 -0.0095 0
0.218879 0.715835 -0.0089 0
0.218879 0.715833 -0.0089 0
0.218879 0.715832 -0.0091 0
0.218879 0.715832 -0.0091 0
0.218879 0.715831 -0.009 0
0.218879 0.71583 -0.009 0
0.218878 0.71583 -0.009 0
0.218878 0.71583 -0.0095 0
0.218878 0.715829 -0.0095 0
0.218909 0.714828 -0.0091 0
0.218909 0.714827 -0.0091 0
0.218878 0.715826 -0.0091 0
0.218878 0.715825 -0.0092 0
0.219247 0.70383 -0.0096 0
0.218876 0.715823 -0.0096 0
0.218876 0.715823 -0.0096 0
0.218875 0.715822 -0.0091 0
0.218875 0.715821 -0.0091 0
0.218875 0.71582 -0.0095 0
0.218875 0.715819 -0.0095 0
0.218874 0.715819 -0.0093 0
0.218749 0.715842 -0.0093 0
0.218749 0.715841 -0.0089 0
0.218749 0.715841 -0.0089 0
0.218749 0.71584 -0.0095 0
0.218749 0.715839 -0.0095 0
0.218749 0.715839 -0.0095 0
0.218749 0.715839 -0.0089 0
0.21875 0.715838 -0.0089 0
0.21875 0.715837 -0.009 0
0.218749 0.715837 -0.009 0
0.218749 0.715836 -0.0092 0
0.218749 0.715835 -0.0092 0
0.218873 0.715811 -0.0092 0
0.218873 0.71581 -0.0095 0
0.218873 0.715809 -0.0095 0
0.218872 0.715808 -0.0097 0
0.218747 0.715829 -0.0097 0
0.218747 0.715828 -0.0094 0
0.218871 0.715803 -0.0094 0
0.218871 0.715802 -0.0095 0
0.218963 0.712802 -0.0095 0
0.21887 0.7158 -0.0095 0
0.218869 0.715799 -0.0095 0
0.218868 0.715798 -0.0101 0
0.218867 0.715796 -0.0101 0
0.218867 0.715796 -0.0099 0
0.218866 0.715794 -0.0089 0
0.218866 0.715793 -0.0089 0
0.218866 0.715792 -0.0089 0
0.218867 0.715791 -0.0095 0
0.218867 0.71579 -0.0097 0
0.218868 0.715789 -0.0097 0
0.218868 0.715788 -0.0097 0
0.218868 0.715787 -0.0095 0
0.218868 0.715785 -0.0094 0
0.218868 0.715784 -0.0094 0
0.218869 0.715783 -0.0097 0
0.21887 0.715782 -0.0097 0
0.21887 0.715781 -0.0091 0
0.218871 0.71578 -0.0091 0
0.218872 0.715779 -0.0091 0
0.218873 0.715777 -0.0098 0
0.218873 0.715776 -0.0093 0
0.218873 0.715775 -0.0093 0
0.218873 0.715775 -0.0093 0
0.21875 0.715797 -0.0091 0
0.218749 0.715796 -0.0092 0
0.21875 0.715795 -0.0092 0
0.21875 0.715794 -0.0095 0
0.218751 0.715794 -0.0095 0
0.218751 0.715794 -0.0091 0
0.218751 0.715794 -0.0091 0
0.218751 0.715795 -0.0094 0
0.218751 0.715794 -0.0093 0
0.218752 0.715794 -0.0093 0
0.218752 0.715793 -0.0093 0
0.218752 0.71579 -0.0093 0
0.218751 0.715789 -0.0093 0
0.218751 0.715788 -0.0093 0
0.21999 0.675807 -0.0093 0
0.218752 0.715787 -0.0092 0
0.218752 0.715786 -0.0092 0
0.218752 0.715785 -0.0096 0
0.218752 0.715784 -0.0096 0
0.218752 0.715783 -0.0096 0
0.218752 0.715782 -0.0093 0
0.218752 0.715782 -0.0093 0
0.218752 0.71578 -0.0097 0
0.218752 0.715779 -0.0097 0
0.218752 0.715778 -0.0092 0
0.218752 0.715777 -0.0092 0
0.218752 0.715776 -0.0094 0
0.21875 0.715774 -0.0094 0
0.218749 0.715773 -0.0094 0
0.218749 0.715771 -0.0094 0
0.218747 0.715769 -0.0093 0
0.218747 0.715768 -0.0093 0
0.218747 0.715767 -0.0093 0
0.218747 0.715765 -0.0093 0
0.218747 0.715764 -0.0093 0
0.218748 0.715763 -0.0094 0
0.218748 0.715761 -0.0094 0
0.218749 0.715759 -0.0094 0
0.21875 0.715758 -0.0094 0
0.218751 0.715757 -0.0095 0
0.218751 0.715756 -0.0095 0
0.21875 0.715754 -0.0095 0
0.21875 0.715753 -0.0088 0
0.218749 0.715753 -0.0088 0
0.218749 0.715752 -0.0096 0
0.218749 0.715751 -0.0096 0
0.218749 0.715751 -0.0096 0
0.218749 0.71575 -0.0091 0
0.218749 0.71575 -0.0091 0
0.218749 0.715749 -0.0092 0
0.218751 0.715745 -0.0092 0
0.218752 0.715743 -0.0092 0
0.218752 0.715741 -0.0092 0
0.218753 0.715739 -0.0096 0
0.218754 0.715737 -0.0096 0
0.218754 0.715735 -0.0096 0
0.218754 0.715733 -0.0094 0
0.218754 0.715733 -0.0089 0
0.218754 0.715731 -0.0089 0
0.218755 0.71573 -0.0093 0
0.218755 0.715729 -0.0093 0
0.218756 0.715729 -0.0093 0
0.218756 0.715728 -0.0093 0
0.218756 0.715728 -0.0092 0
0.21885 0.712728 -0.0092 0
0.218757 0.715727 -0.0097 0
0.218756 0.715724 -0.0097 0
0.218756 0.715723 -0.0092 0
0.218756 0.715722 -0.0092 0
0.218818 0.713723 -0.0096 0
0.218756 0.71572 -0.0096 0
0.218756 0.71572 -0.0095 0
0.218756 0.715719 -0.0095 0
0.218756 0.715718 -0.0087 0
0.218757 0.715717 -0.0087 0
0.218756 0.715716 -0.0093 0
0.218756 0.715715 -0.0093 0
0.218879 0.715689 -0.0094 0
0.218878 0.715686 -0.0094 0
0.218877 0.715685 -0.0096 0
0.218877 0.715684 -0.0096 0
0.218877 0.715683 -0.0096 0
0.218753 0.715704 -0.0096 0
0.218752 0.715701 -0.0092 0
0.218751 0.715701 -0.0092 0
0.218751 0.7157 -0.0095 0
0.21875 0.715697 -0.0095 0
0.218843 0.712697 -0.0094 0
0.21875 0.715695 -0.0094 0
0.21875 0.715694 -0.0093 0
0.218751 0.715693 -0.0093 0
0.218751 0.715693 -0.0093 0
0.219123 0.703699 -0.0094 0
0.218752 0.715692 -0.0094 0
0.218876 0.715668 -0.0095 0
0.218875 0.715667 -0.0095 0
0.218752 0.715689 -0.0095 0
0.218751 0.715688 -0.0092 0
0.218751 0.715687 -0.0092 0
0.218751 0.715687 -0.0092 0
0.218751 0.715686 -0.0092 0
0.218751 0.715685 -0.0095 0
0.21875 0.715684 -0.0095 0
0.21875 0.715682 -0.009 0
0.218749 0.715681 -0.009 0
0.218749 0.71568 -0.0091 0
0.218748 0.71568 -0.0091 0
0.218747 0.715678 -0.0093 0
0.218747 0.715677 -0.0093 0
0.218747 0.715676 -0.0088 0
0.218747 0.715675 -0.0088 0
0.218871 0.715649 -0.0094 0
0.21887 0.715647 -0.0094 0
0.218871 0.715646 -0.0094 0
0.218871 0.715645 -0.0094 0
0.218748 0.715666 -0.009 0
0.218872 0.715642 -0.009 0
0.218872 0.715641 -0.0095 0
0.218872 0.71564 -0.0095 0
0.218872 0.715638 -0.0095 0
0.218749 0.71566 -0.0095 0
0.218749 0.715659 -0.0092 0
0.218749 0.715657 -0.0095 0
0.218748 0.715655 -0.0095 0
0.218748 0.715654 -0.0095 0
0.218748 0.715652 -0.009 0
0.218749 0.715651 -0.0093 0
0.218749 0.715649 -0.0093 0
0.218749 0.715649 -0.0093 0
0.218749 0.715647 -0.0096 0
0.218748 0.715647 -0.0093 0
0.218749 0.715646 -0.0093 0
0.218751 0.715645 -0.0093 0
0.218874 0.715621 -0.0093 0
0.218874 0.715618 -0.0094 0
0.218874 0.715617 -0.0094 0
0.218874 0.715615 -0.0097 0
0.218874 0.715614 -0.0091 0
0.218873 0.715613 -0.0091 0
0.218873 0.715612 -0.0091 0
0.218873 0.715611 -0.0096 0
0.218874 0.71561 -0.0096 0
0.218874 0.715609 -0.0093 0
0.218875 0.715606 -0.0093 0
0.218875 0.715604 -0.0098 0
0.218875 0.715603 -0.0098 0
0.218875 0.7156 -0.0094 0
0.218751 0.715622 -0.0094 0
0.21875 0.715621 -0.0094 0
0.21875 0.715619 -0.0092 0
0.21875 0.715618 -0.0091 0
0.21875 0.715617 -0.0091 0
0.218749 0.715617 -0.0091 0
0.218749 0.715614 -0.0092 0
0.218748 0.715612 -0.0099 0
0.218748 0.71561 -0.0099 0
0.218748 0.715609 -0.0099 0
0.218747 0.715609 -0.0097 0
0.218747 0.715608 -0.0095 0
0.218747 0.715607 -0.0095 0
0.218747 0.715607 -0.0095 0
0.218747 0.715607 -0.009 0
0.218749 0.715605 -0.0089 0
0.218749 0.715604 -0.0089 0
0.218749 0.715604 -0.0089 0
0.218749 0.715603 -0.0091 0
0.218749 0.715602 -0.0094 0
0.218749 0.715603 -0.0094 0
0.218749 0.715602 -0.0094 0
0.218748 0.715601 -0.0099 0
0.218747 0.7156 -0.0094 0
0.218746 0.715598 -0.0094 0
0.218867 0.715574 -0.0092 0
0.218867 0.715573 -0.0092 0
0.218867 0.715572 -0.009 0
0.218867 0.715571 -0.009 0
0.218866 0.71557 -0.0095 0
0.218866 0.715569 -0.0095 0
0.218865 0.715568 -0.0089 0
0.218865 0.715568 -0.0089 0
0.218866 0.715566 -0.0096 0
0.218927 0.713565 -0.0096 0
0.218866 0.715563 -0.0096 0
0.218866 0.715562 -0.0096 0
0.218866 0.715559 -0.0088 0
0.218867 0.715559 -0.0088 0
0.218867 0.715559 -0.009 0
0.218867 0.715558 -0.009 0
0.218743 0.71558 -0.0096 0
0.218743 0.715579 -0.0096 0
0.218743 0.715578 -0.0098 0
0.218743 0.715577 -0.0098 0
0.218743 0.715577 -0.0098 0
0.218743 0.715577 -0.0094 0
0.218743 0.715576 -0.0094 0
0.218743 0.715575 -0.0097 0
0.218743 0.715574 -0.0097 0
0.218743 0.715573 -0.0099 0
0.218744 0.715572 -0.0099 0
0.218744 0.715571 -0.0094 0
0.218744 0.71557 -0.0094 0
0.218868 0.715545 -0.0094 0
0.218746 0.715566 -0.0093 0
0.218746 0.715565 -0.0098 0
0.218745 0.715565 -0.0098 0
0.218745 0.715564 -0.0098 0
0.218746 0.715563 -0.0094 0
0.218746 0.715562 -0.0094 0
0.218746 0.715561 -0.0097 0
0.218745 0.715561 -0.0097 0
0.218746 0.71556 -0.0097 0
0.218869 0.715534 -0.0096 0
0.218869 0.715534 -0.0093 0
0.218868 0.715533 -0.0093 0
0.218868 0.715531 -0.0093 0
0.218868 0.71553 -0.0096 0
0.218866 0.715527 -0.0091 0
0.218866 0.715526 -0.0091 0
0.218866 0.715525 -0.0091 0
0.218867 0.715525 -0.0092 0
0.218867 0.715524 -0.0092 0
0.218866 0.715523 -0.0096 0
0.218866 0.715522 -0.0096 0
0.218866 0.715521 -0.0096 0
0.218866 0.71552 -0.0094 0
0.218866 0.715519 -0.0094 0
0.218866 0.715518 -0.0094 0
0.218958 0.712519 -0.0094 0
0.218865 0.715517 -0.0094 0
0.218865 0.715517 -0.0092 0
0.218865 0.715516 -0.0092 0
0.218865 0.715514 -0.0096 0
0.218863 0.715511 -0.0096 0
0.218924 0.713511 -0.0092 0
0.218861 0.715508 -0.0092 0
0.218861 0.715506 -0.0094 0
0.21886 0.715505 -0.0094 0
0.21886 0.715503 -0.0092 0
0.218859 0.715503 -0.0092 0
0.218859 0.715502 -0.0094 0
0.218858 0.715501 -0.0094 0
0.219106 0.703529 -0.0094 0
0.218734 0.715522 -0.0094 0
0.218734 0.715521 -0.0098 0
0.218734 0.71552 -0.0098 0
0.218733 0.715519 -0.0095 0
0.218733 0.715518 -0.0095 0
0.218856 0.715494 -0.0091 0
0.218856 0.715493 -0.0091 0
0.218732 0.715515 -0.01 0
0.218732 0.715514 -0.01 0
0.218731 0.715512 -0.0087 0
0.218731 0.71551 -0.0087 0
0.21873 0.715509 -0.0092 0
0.218731 0.715508 -0.0094 0
0.218731 0.715507 -0.0094 0
0.218731 0.715506 -0.0094 0
0.218732 0.715504 -0.0093 0
0.218732 0.715503 -0.0091 0
0.218731 0.715502 -0.0091 0
0.218731 0.715501 -0.0091 0
0.218732 0.715499 -0.0093 0
0.218732 0.715498 -0.0089 0
0.218731 0.715496 -0.0089 0
0.218854 0.715472 -0.0089 0
0.218854 0.715471 -0.0097 0
0.21873 0.715493 -0.0097 0
0.218729 0.715492 -0.0091 0
0.218697 0.71649 -0.0091 0
0.218851 0.715465 -0.0091 0
0.218851 0.715464 -0.0094 0
0.218851 0.715462 -0.0096 0
0.218851 0.715461 -0.0096 0
0.218851 0.715459 -0.0096 0
0.218851 0.715458 -0.0093 0
0.218851 0.715457 -0.0093 0
0.218852 0.715453 -0.0096 0
0.218853 0.715452 -0.0096 0
0.218853 0.715452 -0.0093 0
0.218854 0.715452 -0.0093 0
0.218854 0.715452 -0.0098 0
0.218854 0.715452 -0.0098 0
0.218854 0.715451 -0.0098 0
0.218855 0.71545 -0.009 0
0.218855 0.71545 -0.009 0
0.218855 0.715449 -0.009 0
0.218855 0.715449 -0.0095 0
0.218855 0.715448 -0.0095 0
0.218856 0.715445 -0.0092 0
0.218857 0.715443 -0.0092 0
0.218858 0.715442 -0.0094 0
0.218889 0.714441 -0.0093 0
0.218857 0.71544 -0.0093 0
0.218857 0.715439 -0.0093 0
0.218856 0.715438 -0.0097 0
0.218856 0.715437 -0.0097 0
0.218855 0.715436 -0.0093 0
0.218855 0.715435 -0.0093 0
0.218855 0.715435 -0.0093 0
0.218855 0.715434 -0.0092 0
0.218856 0.71543 -0.0092 0
0.218856 0.715428 -0.0092 0
0.218856 0.715426 -0.0092 0
0.218857 0.715424 -0.009 0
0.218857 0.715424 -0.009 0
0.218858 0.715424 -0.0095 0
0.218859 0.715424 -0.0095 0
0.218858 0.715422 -0.0089 0
0.218858 0.715422 -0.0089 0
0.218857 0.715421 -0.009 0
0.218858 0.715422 -0.009 0
0.218858 0.715421 -0.009 0
0.218859 0.715419 -0.01 0
0.218859 0.715418 -0.0089 0
0.21889 0.714417 -0.0089 0
0.218859 0.715415 -0.0089 0
0.218859 0.715414 -0.0095 0
0.218859 0.715413 -0.0095 0
0.218859 0.71541 -0.009 0
0.218859 0.715409 -0.009 0
0.21892 0.713408 -0.009 0
0.218858 0.715405 -0.009 0
0.218858 0.715405 -0.009 0
0.21889 0.714403 -0.009 0
0.218859 0.715401 -0.009 0
0.218859 0.715399 -0.0094 0
0.218859 0.715398 -0.0097 0
0.217596 0.756378 -0.0097 0
0.218858 0.715398 -0.0097 0
0.218857 0.715399 -0.0091 0
0.218857 0.715398 -0.0091 0
0.218857 0.715397 -0.0092 0
0.218857 0.715397 -0.0092 0
0.218857 0.715397 -0.0092 0
0.218858 0.715394 -0.0093 0
0.218857 0.715393 -0.0096 0
0.218857 0.715392 -0.0096 0
0.218857 0.715391 -0.0096 0
0.218857 0.715391 -0.0092 0
0.218857 0.71539 -0.0092 0
0.218856 0.715389 -0.0093 0
0.218732 0.715411 -0.0093 0
0.218732 0.715409 -0.0096 0
0.218732 0.715409 -0.0096 0
0.217463 0.756387 -0.0098 0
0.218732 0.715405 -0.0098 0
0.218732 0.715404 -0.0092 0
0.218732 0.715403 -0.0092 0
0.218731 0.715401 -0.0093 0
0.218731 0.7154 -0.0093 0
0.218731 0.715399 -0.0098 0
0.218793 0.713399 -0.0098 0
0.21873 0.715397 -0.0091 0
0.218729 0.715396 -0.0091 0
0.218729 0.715396 -0.0092 0
0.218852 0.715371 -0.0092 0
0.218853 0.71537 -0.0101 0
0.218853 0.715369 -0.0101 0
0.218854 0.715368 -0.0101 0
0.218853 0.715367 -0.0098 0
0.218853 0.715366 -0.0098 0
0.218852 0.715365 -0.0092 0
0.218851 0.715364 -0.0092 0
0.218851 0.715363 -0.0091 0
0.218849 0.715362 -0.0091 0
0.218849 0.715362 -0.0095 0
0.218849 0.715361 -0.0095 0
0.218849 0.71536 -0.0095 0
0.218848 0.715359 -0.0088 0
0.218847 0.715358 -0.0088 0
0.218876 0.714357 -0.0092 0
0.218845 0.715355 -0.0092 0
0.218844 0.715354 -0.0101 0
0.218843 0.715354 -0.0101 0
0.218842 0.715353 -0.0086 0
0.218842 0.715353 -0.0086 0
0.218841 0.715351 -0.0092 0
0.218841 0.71535 -0.0092 0
0.218841 0.715349 -0.0097 0
0.218841 0.715348 -0.0097 0
0.21884 0.715345 -0.0092 0
0.21884 0.715343 -0.0092 0
0.21884 0.715343 -0.0087 0
0.21884 0.715343 -0.0087 0
0.218715 0.715364 -0.0091 0
0.218839 0.715339 -0.0091 0
0.218839 0.715338 -0.01 0
0.218715 0.71536 -0.01 0
0.218717 0.715359 -0.009 0
0.218717 0.715358 -0.009 0
0.218717 0.715359 -0.0092 0
0.218717 0.715358 -0.0092 0
0.21881 0.712358 -0.0093 0
0.218717 0.715356 -0.0093 0
0.218718 0.715355 -0.0092 0
0.218749 0.714355 -0.0092 0
0.218719 0.715353 -0.0092 0
0.218719 0.715352 -0.0095 0
0.21872 0.715352 -0.0095 0
0.218721 0.715353 -0.0091 0
0.218721 0.715352 -0.0091 0
0.218722 0.715351 -0.0091 0
0.218722 0.71535 -0.0091 0
0.218722 0.71535 -0.0095 0
0.218723 0.715348 -0.0095 0
0.218723 0.715346 -0.0095 0
0.218847 0.715321 -0.009 0
0.218847 0.715321 -0.009 0
0.218847 0.715319 -0.0092 0
0.218848 0.715317 -0.0092 0
0.218848 0.715316 -0.0096 0
0.21888 0.714316 -0.0096 0
0.218849 0.715314 -0.0097 0
0.218849 0.715314 -0.0097 0
0.218849 0.715313 -0.0097 0
0.218849 0.715312 -0.0095 0
0.218848 0.715311 -0.0095 0
0.218847 0.71531 -0.0095 0
0.218847 0.715309 -0.0095 0
0.218847 0.715308 -0.0095 0
0.218846 0.715309 -0.0095 0
0.218846 0.715308 -0.0093 0
0.218845 0.715308 -0.0093 0
0.218845 0.715307 -0.0093 0
0.218844 0.715306 -0.0097 0
0.218844 0.715305 -0.009 0
0.218843 0.715305 -0.009 0
0.218842 0.715305 -0.009 0
0.218718 0.715328 -0.0097 0
0.218717 0.715328 -0.009 0
0.218718 0.715328 -0.009 0
0.218718 0.715328 -0.009 0
0.218718 0.715327 -0.0095 0
0.218717 0.715326 -0.0092 0
0.218841 0.715302 -0.0092 0
0.218841 0.715302 -0.0092 0
0.218716 0.715325 -0.0094 0
0.218715 0.715325 -0.0095 0
0.218715 0.715323 -0.0095 0
0.218715 0.715323 -0.0093 0
0.218715 0.715322 -0.0093 0
0.218839 0.715297 -0.0095 0
0.218838 0.715297 -0.0095 0
0.218838 0.715296 -0.0092 0
0.218837 0.715295 -0.0092 0
0.218712 0.715318 -0.0089 0
0.218834 0.715294 -0.0089 0
0.218833 0.715294 -0.0095 0
0.218833 0.715294 -0.0095 0
0.218832 0.715293 -0.0095 0
0.218832 0.715292 -0.0095 0
0.218831 0.71529 -0.0095 0
0.218924 0.71229 -0.0095 0
0.218832 0.715288 -0.0095 0
0.218832 0.715288 -0.0091 0
0.218834 0.715286 -0.0091 0
0.218835 0.715285 -0.0098 0
0.218835 0.715284 -0.0098 0
0.218835 0.715283 -0.0087 0
0.218835 0.715282 -0.0087 0
0.218834 0.71528 -0.0093 0
0.218834 0.71528 -0.0093 0
0.218833 0.71528 -0.0099 0
0.218833 0.715279 -0.0099 0
0.218833 0.715278 -0.0099 0
0.218834 0.715276 -0.0089 0
0.218834 0.715275 -0.0097 0
0.218834 0.715275 -0.0097 0
0.218834 0.715274 -0.0097 0
0.218833 0.715274 -0.0096 0
0.218709 0.715296 -0.0096 0
0.218708 0.715295 -0.0092 0
0.218708 0.715293 -0.0092 0
0.218708 0.715291 -0.0092 0
0.218708 0.71529 -0.0095 0
0.218708 0.715288 -0.0091 0
0.218708 0.715288 -0.0091 0
0.218707 0.715286 -0.0091 0
0.218707 0.715285 -0.0093 0
0.218707 0.715283 -0.0093 0
0.218707 0.715282 -0.0092 0
0.218707 0.71528 -0.0092 0
0.218707 0.715279 -0.0093 0
0.218707 0.715278 -0.0093 0
0.218707 0.715277 -0.0096 0
0.218707 0.715276 -0.0096 0
0.218707 0.715275 -0.0096 0
0.2188 0.712275 -0.009 0
0.218706 0.715273 -0.009 0
0.218707 0.715272 -0.0094 0
0.218706 0.715271 -0.0094 0
0.218706 0.71527 -0.0096 0
0.218706 0.715269 -0.0096 0
0.218706 0.715268 -0.0094 0
0.218707 0.715266 -0.0094 0
0.218707 0.715265 -0.0094 0
0.218831 0.715242 -0.0097 0
0.218863 0.714241 -0.0089 0
0.218832 0.715239 -0.0089 0
0.218832 0.715237 -0.0089 0
0.218832 0.715236 -0.0097 0
0.218832 0.715234 -0.0097 0
0.218831 0.715233 -0.0093 0
0.21883 0.715231 -0.0093 0
0.218706 0.715254 -0.0093 0
0.218706 0.715253 -0.0096 0
0.218831 0.715229 -0.0095 0
0.218831 0.715228 -0.0095 0
0.218831 0.715227 -0.0095 0
0.218831 0.715226 -0.0092 0
0.218832 0.715226 -0.0092 0
0.218924 0.712226 -0.0094 0
0.218832 0.715222 -0.0094 0
0.218832 0.71522 -0.0095 0
0.218832 0.715219 -0.0095 0
0.218831 0.715218 -0.0092 0
0.218831 0.715217 -0.0092 0
0.21883 0.715217 -0.0098 0
0.218831 0.715215 -0.0098 0
0.218831 0.715214 -0.0092 0
0.218831 0.715212 -0.0092 0
0.218831 0.71521 -0.0092 0
0.218831 0.715209 -0.0091 0
0.21883 0.715208 -0.0095 0
0.218829 0.715206 -0.0095 0
0.218828 0.715206 -0.0095 0
0.218828 0.715204 -0.0092 0
0.218828 0.715204 -0.0092 0
0.218828 0.715204 -0.0097 0
0.218827 0.715203 -0.0097 0
0.218827 0.715202 -0.0093 0
0.218827 0.715201 -0.0093 0
0.218827 0.715201 -0.0093 0
0.218826 0.715201 -0.0093 0
0.218826 0.7152 -0.0093 0
0.218826 0.715199 -0.0093 0
0.218825 0.715199 -0.0093 0
0.218824 0.715198 -0.0095 0
0.218823 0.715197 -0.0095 0
0.218822 0.715196 -0.0094 0
0.218822 0.715195 -0.0094 0
0.218822 0.715195 -0.0094 0
0.218822 0.715194 -0.0094 0
0.218821 0.715192 -0.0094 0
0.21882 0.715191 -0.0095 0
0.21882 0.71519 -0.0095 0
0.218819 0.715189 -0.0092 0
0.21882 0.715188 -0.0092 0
0.218819 0.715187 -0.0091 0
0.218819 0.715186 -0.0091 0
0.218819 0.715185 -0.0101 0
0.218818 0.715183 -0.0101 0
0.218818 0.715182 -0.0095 0
0.218818 0.715181 -0.0095 0
0.218817 0.715179 -0.0092 0
0.218817 0.715178 -0.0092 0
0.218818 0.715177 -0.0095 0
0.218818 0.715176 -0.0095 0
0.218787 0.712201 -0.0089 0
0.218694 0.715199 -0.0089 0
0.218818 0.715175 -0.0094 0
0.218819 0.715175 -0.0094 0
0.218818 0.715173 -0.0093 0
0.218818 0.715172 -0.0093 0
0.218818 0.715171 -0.0093 0
0.218818 0.71517 -0.0096 0
0.218818 0.71517 -0.0096 0
0.218819 0.715169 -0.0094 0
0.218819 0.715168 -0.0094 0
0.218818 0.715167 -0.0092 0
0.218818 0.715166 -0.0092 0
0.218817 0.715164 -0.0095 0
0.218817 0.715163 -0.0095 0
0.218817 0.715163 -0.0092 0
0.218817 0.715162 -0.0092 0
0.218817 0.715161 -0.0096 0
0.218816 0.71516 -0.0096 0
0.218816 0.71516 -0.0093 0
0.218816 0.715159 -0.0095 0
0.218816 0.715158 -0.0095 0
0.218816 0.715158 -0.0095 0
0.218816 0.715157 -0.009 0
0.218816 0.715157 -0.009 0
0.218817 0.715156 -0.0091 0
0.218818 0.715155 -0.0091 0
0.218817 0.715154 -0.0096 0
0.218909 0.712154 -0.0096 0
0.218817 0.715149 -0.0095 0
0.218817 0.715148 -0.0095 0
0.218817 0.715147 -0.0088 0
0.218818 0.715147 -0.0088 0
0.218818 0.715146 -0.0096 0
0.218818 0.715143 -0.0096 0
0.218818 0.715142 -0.0092 0
0.218818 0.715141 -0.0092 0
0.218819 0.71514 -0.0098 0
0.218819 0.71514 -0.0098 0
0.218819 0.715139 -0.0098 0
0.218818 0.715138 -0.0089 0
0.218818 0.715137 -0.0089 0
0.218818 0.715135 -0.0095 0
0.218818 0.715133 -0.0095 0
0.218817 0.715132 -0.0091 0
0.218817 0.71513 -0.0091 0
0.218817 0.715129 -0.0092 0
0.218817 0.715127 -0.0092 0
0.218815 0.715125 -0.0095 0
0.218814 0.715123 -0.0095 0
0.218813 0.715123 -0.0094 0
0.218813 0.715121 -0.0094 0
0.218812 0.71512 -0.0095 0
0.218812 0.715119 -0.0095 0
0.218812 0.715118 -0.0092 0
0.218811 0.715117 -0.0092 0
0.21881 0.715117 -0.0092 0
0.21881 0.715117 -0.0096 0
0.21881 0.715116 -0.0096 0
0.21881 0.715114 -0.009 0
0.21881 0.715114 -0.009 0
0.21881 0.715114 -0.0096 0
0.21881 0.715113 -0.0096 0
0.21881 0.715113 -0.0091 0
0.21881 0.715113 -0.0091 0
0.21881 0.715113 -0.0093 0
0.21881 0.715113 -0.0093 0
0.21881 0.715113 -0.0092 0
0.21881 0.715112 -0.0092 0
0.21881 0.715111 -0.0092 0
0.218811 0.71511 -0.0092 0
0.218812 0.715108 -0.0092 0
0.218812 0.715106 -0.0092 0
0.218813 0.715105 -0.0092 0
0.218812 0.715103 -0.0092 0
0.218812 0.715101 -0.0091 0
0.218811 0.7151 -0.0091 0
0.218811 0.715099 -0.0091 0
0.218687 0.715121 -0.0095 0
0.218687 0.71512 -0.0095 0
0.218687 0.715119 -0.0095 0
0.218624 0.717116 -0.0091 0
0.218686 0.715116 -0.0091 0
0.218686 0.715115 -0.0091 0
0.218686 0.715115 -0.0091 0
0.218686 0.715114 -0.0091 0
0.218685 0.715113 -0.0091 0
0.218808 0.715089 -0.0097 0
0.218684 0.715113 -0.0097 0
0.218684 0.715112 -0.0097 0
0.218684 0.71511 -0.0092 0
0.218804 0.715085 -0.0098 0
0.218811 0.715084 -0.0098 0
0.218956 0.71506 -0.0098 0
0.219603 0.714941 0.0042 0
0.219828 0.714888 0.0407 0
0.220171 0.714811 0.0407 0
0.220454 0.713734 -0.0091 0
0.220485 0.71371 -0.0091 0
0.220517 0.713689 0.0262 0
0.220396 0.713711 0.0262 0
0.22025 0.713769 0.0262 0
0.219765 0.713908 -0.0037 0
0.219627 0.713944 0.0014 0
0.21964 0.712954 0.0014 0
0.219626 0.71296 0.0014 0
0.219611 0.712974 -0.0124 0
0.219608 0.712979 -0.0104 0
0.219485 0.713006 -0.0104 0
0.219361 0.713028 -0.01 0
0.219398 0.712029 -0.01 0
0.219132 0.713076 -0.0038 0
0.21905 0.712096 -0.0038 0
0.2188 0.712136 0.0027 0
0.218641 0.713152 0.0027 0
0.218666 0.712146 -0.0079 0
0.218173 0.712225 -0.0079 0
0.218145 0.713213 -0.0024 0
0.218029 0.713225 -0.0024 0
0.218038 0.713221 -0.0075 0
0.21807 0.712229 -0.0075 0
0.218069 0.712239 -0.0084 0
0.218071 0.712247 -0.0084 0
0.218071 0.712252 -0.0039 0
0.218069 0.712256 -0.0039 0
0.218068 0.712256 -0.0074 0
0.218069 0.712255 -0.0074 0
0.21807 0.712253 -0.0065 0
0.218074 0.712256 -0.0065 0
0.218075 0.712256 -0.0035 0
0.218077 0.712256 -0.0035 0
0.21808 0.712255 -0.0059 0
0.21808 0.712253 -0.0059 0
0.218049 0.713253 -0.0063 0
0.218082 0.712255 -0.0063 0
0.218081 0.712255 -0.0039 0
0.21808 0.712257 -0.0039 0
0.218078 0.712257 -0.0039 0
0.218043 0.713257 -0.0062 0
0.218072 0.712258 -0.0062 0
0.218074 0.712261 -0.0089 0
0.218076 0.712264 -0.0089 0
0.218075 0.712264 -0.0042 0
0.218077 0.712263 -0.0042 0
0.218079 0.712261 -0.0059 0
0.218081 0.712258 -0.0059 0
0.218082 0.712257 -0.0059 0
0.218082 0.712253 -0.0058 0
0.218081 0.712252 -0.0037 0
0.21808 0.712251 -0.0037 0
0.218079 0.71225 -0.0037 0
0.218079 0.712247 -0.0096 0
0.218079 0.712248 -0.0067 0
0.218079 0.712249 -0.0067 0
0.21808 0.712249 -0.0067 0
0.21808 0.712249 -0.0079 0
0.21808 0.712246 -0.0084 0
0.218081 0.712244 -0.0084 0
0.218082 0.712243 -0.0084 0
0.218083 0.712243 -0.004 0
0.218085 0.712243 -0.0069 0
0.218086 0.712244 -0.0069 0
0.218085 0.712243 -0.0069 0
0.218054 0.713242 -0.0072 0
0.218087 0.712242 -0.0072 0
0.218088 0.712239 -0.0058 0
0.218088 0.712239 -0.0058 0
0.218089 0.712238 -0.0083 0
0.218089 0.712238 -0.0083 0
0.218088 0.712238 -0.0057 0
0.21809 0.712237 -0.0057 0
0.218089 0.712236 -0.0054 0
0.218089 0.712235 -0.0054 0
0.218089 0.712235 -0.0068 0
0.21809 0.712232 -0.0068 0
0.21809 0.712232 -0.0075 0
0.218089 0.712231 -0.0075 0
0.218087 0.71223 -0.007 0
0.218088 0.712233 -0.007 0
0.218089 0.712234 -0.0083 0
0.218087 0.712232 -0.0054 0
0.218085 0.71223 -0.0054 0
0.218048 0.713225 -0.0054 0
0.21808 0.712222 -0.0043 0
0.21808 0.71222 -0.0043 0
0.218087 0.712223 -0.0059 0
0.218056 0.713223 -0.0059 0
0.218088 0.712223 -0.0079 0
0.218056 0.713218 -0.0038 0
0.218089 0.712218 -0.0038 0
0.218088 0.712216 -0.0038 0
0.218086 0.712215 -0.005 0
0.218052 0.713213 -0.005 0
0.218053 0.71321 -0.0086 0
0.218085 0.71221 -0.0086 0
0.218085 0.71221 -0.0052 0
0.218053 0.713209 -0.0052 0
0.218051 0.713208 -0.0058 0
0.218149 0.710209 -0.0058 0
0.218084 0.712206 -0.0064 0
0.218083 0.712206 -0.0064 0
0.218049 0.713204 -0.0085 0
0.21808 0.712204 -0.0085 0
0.217956 0.712227 -0.0092 0
0.21808 0.712202 -0.0092 0
0.218049 0.713201 -0.0039 0
0.218083 0.712203 -0.0039 0
0.218085 0.712203 -0.0039 0
0.218093 0.712205 -0.0055 0
0.218094 0.712204 -0.0077 0
0.218095 0.712203 -0.0077 0
0.218091 0.7122 -0.0063 0
0.21809 0.712201 -0.0063 0
0.21809 0.712198 -0.0072 0
0.218088 0.712197 -0.0072 0
0.218086 0.712196 -0.0041 0
0.218055 0.713195 -0.0041 0
0.218089 0.712194 -0.0082 0
0.218086 0.712194 -0.0082 0
0.218085 0.712195 -0.0023 0
0.218085 0.712194 -0.0023 0
0.218085 0.712193 -0.0071 0
0.218083 0.712189 -0.0071 0
0.218083 0.712188 -0.0056 0
0.218083 0.712188 -0.0056 0
0.218083 0.712187 -0.007 0
0.218051 0.713185 -0.007 0
0.218082 0.712186 -0.0038 0
0.218081 0.712185 -0.0038 0
0.218081 0.712184 -0.0044 0
0.218046 0.713182 -0.0044 0
0.22352 0.542269 -0.0044 0
0.218078 0.712181 -0.0031 0
0.218077 0.712179 -0.0031 0
0.218078 0.712178 -0.0046 0
0.218079 0.712176 -0.0046 0
0.21808 0.712175 -0.0061 0
0.218082 0.712176 -0.0061 0
0.218083 0.712177 -0.0078 0
0.218148 0.710178 -0.0078 0
0.218084 0.712176 -0.0078 0
0.218086 0.712175 -0.0071 0
0.218087 0.712176 -0.0071 0
0.218087 0.712176 -0.0064 0
0.218088 0.712175 -0.0064 0
0.218086 0.712174 -0.0064 0
0.218085 0.712172 -0.0085 0
0.218083 0.71217 -0.0085 0
0.21808 0.712168 -0.0052 0
0.218079 0.712167 -0.0052 0
0.218081 0.712166 -0.0052 0
0.218079 0.712165 -0.0028 0
0.218079 0.712162 -0.0028 0
0.218079 0.712162 -0.0075 0
0.218078 0.712162 -0.0075 0
0.218081 0.712163 -0.0051 0
0.218079 0.71216 -0.0051 0
0.218072 0.712157 -0.0056 0
0.219408 0.670176 -0.0056 0
0.218057 0.712154 -0.0056 0
0.217996 0.712151 -0.0054 0
0.217838 0.713146 -0.0054 0
0.217715 0.712141 -0.0088 0
0.217491 0.713132 -0.0088 0
0.21727 0.712122 -0.0088 0
0.216621 0.712124 -0.0067 0
0.216319 0.712111 -0.0083 0
0.215993 0.712097 -0.0083 0
0.216013 0.701092 -0.0083 0
0.215317 0.712075 -0.0089 0
0.214659 0.710132 -0.0089 0
0.214087 0.712142 -0.0085 0
0.213552 0.712151 -0.0085 0
0.212567 0.71214 -0.0063 0
0.211751 0.712193 -0.0063 0
0.211293 0.712177 -0.0083 0
0.210685 0.712185 -0.0083 0
0.209442 0.7122 -0.0079 0
0.208833 0.711206 -0.0079 0
0.208144 0.712213 -0.0093 0
0.20749 0.712222 -0.0093 0
0.206725 0.71126 -0.0093 0
0.204952 0.711353 -0.0037 0
0.204226 0.71136 -0.0049 0
0.203382 0.710385 -0.0049 0
0.202599 0.710385 -0.0049 0
0.201048 0.70938 -0.0048 0
0.200182 0.710371 -0.0093 0
0.199331 0.710363 -0.0093 0
0.198628 0.709331 -0.0093 0
0.197816 0.707322 -0.004 0
0.196154 0.709249 -0.0062 0
0.195336 0.709224 -0.0062 0
0.194115 0.709266 -0.0062 0
0.193243 0.671347 -0.0046 0
0.192164 0.670361 -0.0014 0
0.191176 0.669354 -0.0014 0
0.188644 0.668436 -0.0047 0
0.187436 0.668443 -0.0047 0
0.186217 0.668446 -0.0083 0
0.183828 0.668418 -0.0083 0
0.18273 0.667387 -0.0078 0
0.181647 0.667332 -0.0078 0
0.180426 0.667301 -0.0065 0
0.178064 0.666217 -0.0065 0
0.176822 0.66519 -0.0057 0
0.175583 0.666135 -0.0057 0
0.173169 0.665022 -0.004 0
0.171882 0.66497 -0.004 0
0.170422 0.663967 -0.0043 0
0.16895 0.662964 -0.0043 0
0.165968 0.662929 -0.0042 0
0.164374 0.662917 -0.0042 0
0.16267 0.661923 -0.0053 0
0.159468 0.661852 -0.0086 0
0.157827 0.660822 -0.0086 0
0.156242 0.660765 -0.0086 0
0.154622 0.660706 -0.0082 0
0.153137 0.659618 -0.0082 0
0.15154 0.659554 -0.0101 0
0.14999 0.659475 -0.0101 0
0.148568 0.65937 -0.0101 0
0.145775 0.659124 -0.0045 0
0.144523 0.658967 -0.0017 0
0.143242 0.658812 -0.0017 0
0.140926 0.65843 -0.0042 0
0.139725 0.659226 -0.0042 0
0.138482 0.658044 -0.0052 0
0.137288 0.65884 -0.0052 0
0.135286 0.658338 -0.0058 0
0.133945 0.660136 -0.0058 0
0.132421 0.659986 -0.0042 0
0.130869 0.659843 -0.0042 0
0.130215 0.659531 -0.0042 0
0.127224 0.659227 -0.0103 0
0.125668 0.66007 -0.0113 0
0.124018 0.659934 -0.0113 0
0.122542 0.659782 -0.0113 0
0.119163 0.659514 -0.0056 0
0.117398 0.659415 -0.0115 0
0.115562 0.658318 -0.0115 0
0.113746 0.659194 -0.0115 0
0.109982 0.658949 -0.0077 0
0.108252 0.65878 -0.0057 0
0.106585 0.658581 -0.0057 0
0.104372 0.659503 -0.0057 0
0.100671 0.696981 -0.0041 0
0.0989099 0.698802 -0.0037 0
0.0971483 0.699623 -0.0037 0
0.0938401 0.699215 -0.0087 0
0.0920664 0.698039 -0.0087 0
0.0902467 0.698865 -0.0061 0
0.0884252 0.698695 -0.0061 0
0.0846921 0.698363 -0.0096 0
0.0827324 0.698228 -0.0096 0
0.0805535 0.699116 -0.0105 0
0.0784831 0.698971 -0.0105 0
0.0766107 0.697807 -0.0105 0
0.0752913 0.620699 -0.003 0
0.0722523 0.69755 -0.003 0
0.0697258 0.69749 -0.011 0
0.0676567 0.698325 -0.011 0
0.0654639 0.697187 -0.011 0
0.062857 0.698128 -0.0079 0
0.0581133 0.696908 -0.0058 0
0.0555716 0.696834 -0.0058 0
0.053004 0.697762 -0.0058 0
0.0505221 0.697694 -0.0056 0
0.0479476 0.697623 -0.0056 0
0.0456256 0.696496 0.0016 0
0.0424436 0.697027 0.0016 0
0.041034 0.69682 -0.0069 0
0.0395096 0.696667 -0.0069 0
0.0380207 0.697536 -0.0011 0
0.034599 0.69649 -0.0011 0
0.0329781 0.696504 -0.0009 0
0.0316018 0.696494 -0.0009 0
0.0304592 0.696459 -0.0052 0
0.0282288 0.696453 -0.0052 0
0.027251 0.696451 -0.0037 0
0.0262353 0.697478 -0.0037 0
0.0254093 0.697475 -0.0042 0
0.0246554 0.69647 -0.0042 0
0.0239593 0.697467 -0.0042 0
0.0226206 0.697489 -0.0053 0
0.0220912 0.696484 -0.003 0
0.0216071 0.696478 -0.003 0
0.0208822 0.696443 -0.0067 0
0.0205091 0.69644 -0.0067 0
0.020169 0.696438 -0.0068 0
0.0198593 0.697437 -0.0068 0
0.0195752 0.696435 -0.0068 0
0.0193119 0.697434 -0.0045 0
0.0190716 0.697431 -0.0045 0
0.0188539 0.697428 -0.008 0
0.0186555 0.696425 -0.008 0
0.0184758 0.69642 -0.008 0
0.0183181 0.697416 -0.0092 0
0.018165 0.696414 -0.0092 0
0.017899 0.696406 -0.0082 0
0.0177842 0.696402 -0.0082 0
0.0177001 0.657397 -0.0042 0
0.0175864 0.696393 -0.0042 0
0.0176053 0.518392 -0.0034 0
0.0174283 0.69739 -0.0034 0
0.0173624 0.696388 -0.0034 0
0.0172985 0.697385 -0.0045 0
0.0172515 0.696384 -0.0045 0
0.0172069 0.696382 -0.0062 0
0.0171635 0.695379 -0.0062 0
0.0170746 0.696372 -0.0054 0
0.0170473 0.696371 -0.0054 0
