ply
format ascii 1.0
element vertex 1732
property float x
property float y
property float z
property float intensity
end_header
0.157359 0.70562 -0.0023 0
0.157359 0.705619 -0.002 0
0.157359 0.705617 -0.002 0
0.157358 0.705615 -0.002 0
0.157358 0.705614 -0.0023 0
0.157358 0.705611 -0.0023 0
0.157357 0.70561 -0.0015 0
0.157357 0.70561 -0.0015 0
0.157356 0.705609 -0.0019 0
0.157356 0.705607 -0.0019 0
0.157356 0.705607 -0.0019 0
0.157355 0.705606 -0.0019 0
0.157355 0.705605 -0.0012 0
0.157355 0.705604 -0.0012 0
0.157355 0.705603 -0.0019 0
0.157356 0.705601 -0.0019 0
0.157356 0.7056 -0.0023 0
0.157356 0.705598 -0.0023 0
0.157355 0.705597 -0.0019 0
0.157355 0.705596 -0.0019 0
0.157355 0.705595 -0.0017 0
0.157355 0.705595 -0.0017 0
0.157354 0.705595 -0.002 0
0.157355 0.705592 -0.002 0
0.157351 0.702591 -0.0022 0
0.157357 0.70559 -0.0022 0
0.157358 0.705589 -0.0016 0
0.157358 0.705588 -0.0016 0
0.157357 0.705587 -0.0016 0
0.157358 0.705586 -0.0019 0
0.157358 0.705586 -0.0019 0
0.157481 0.705557 -0.0017 0
0.157359 0.705584 -0.0017 0
0.15736 0.705584 -0.0019 0
0.157484 0.705556 -0.0019 0
0.157485 0.705555 -0.0017 0
0.157362 0.705581 -0.0017 0
0.157363 0.70558 -0.0017 0
0.157363 0.70558 -0.0013 0
0.157363 0.70558 -0.0013 0
0.157363 0.705579 -0.0018 0
0.157485 0.70555 -0.0018 0
0.157485 0.705549 -0.0018 0
0.157362 0.705575 -0.002 0
0.157362 0.705574 -0.002 0
0.157362 0.705573 -0.0016 0
0.157361 0.705571 -0.0016 0
0.157483 0.705542 -0.0022 0
0.157483 0.705541 -0.0022 0
0.157483 0.705541 -0.0022 0
0.157483 0.70554 -0.0013 0
0.157483 0.705539 -0.0013 0
0.157483 0.705538 -0.0017 0
0.157483 0.705537 -0.0017 0
0.157361 0.705564 -0.0015 0
0.157361 0.705563 -0.0015 0
0.157362 0.705563 -0.0015 0
0.157362 0.705562 -0.0021 0
0.157361 0.70556 -0.0018 0
0.157362 0.705558 -0.0018 0
0.157361 0.705557 -0.0018 0
0.157361 0.705556 -0.002 0
0.157361 0.705555 -0.002 0
0.157483 0.705527 -0.002 0
0.157482 0.705527 -0.0019 0
0.157359 0.705553 -0.0015 0
0.157359 0.705551 -0.0015 0
0.157359 0.70555 -0.001 0
0.157359 0.705549 -0.001 0
0.157359 0.705548 -0.001 0
0.15736 0.705547 -0.0023 0
0.157361 0.705546 -0.0023 0
0.157361 0.705546 -0.0022 0
0.157362 0.705546 -0.0022 0
0.157361 0.705545 -0.0009 0
0.157361 0.705545 -0.0009 0
0.157361 0.705544 -0.0021 0
0.157361 0.705544 -0.0021 0
0.157361 0.705542 -0.0021 0
0.157361 0.705541 -0.0017 0
0.157361 0.705539 -0.0017 0
0.15736 0.705537 -0.0019 0
0.157359 0.705535 -0.0019 0
0.157359 0.705534 -0.0019 0
0.157358 0.705531 -0.002 0
0.157357 0.70553 -0.002 0
0.157356 0.705529 -0.0021 0
0.157355 0.705528 -0.0021 0
0.157355 0.705527 -0.0021 0
0.157356 0.705524 -0.0017 0
0.157355 0.705524 -0.0028 0
0.157354 0.705523 -0.0028 0
0.157354 0.705521 -0.0028 0
0.157354 0.70552 -0.0014 0
0.157352 0.705519 -0.0014 0
0.157475 0.70549 -0.0018 0
0.157476 0.70549 -0.0018 0
0.157476 0.705489 -0.0018 0
0.157476 0.705488 -0.002 0
0.157477 0.705487 -0.002 0
0.157477 0.705485 -0.0017 0
0.157477 0.705485 -0.0017 0
0.157477 0.705484 -0.0017 0
0.157476 0.705483 -0.0022 0
0.157475 0.705482 -0.0022 0
0.157475 0.705482 -0.0021 0
0.157474 0.70548 -0.0021 0
0.157474 0.705479 -0.0018 0
0.157475 0.705478 -0.0018 0
0.157352 0.705506 -0.0022 0
0.157352 0.705505 -0.0022 0
0.157352 0.705505 -0.0022 0
0.15735 0.705503 -0.0016 0
0.157349 0.705502 -0.0016 0
0.157349 0.705502 -0.0016 0
0.157348 0.7055 -0.0016 0
0.157348 0.705498 -0.0016 0
0.157347 0.705497 -0.002 0
0.157348 0.705497 -0.002 0
0.157348 0.705495 -0.0021 0
0.157348 0.705495 -0.0021 0
0.157472 0.705468 -0.002 0
0.157472 0.705467 -0.002 0
0.157473 0.705466 -0.002 0
0.157472 0.705464 -0.0019 0
0.157473 0.705464 -0.0019 0
0.15735 0.705488 -0.0014 0
0.15735 0.705486 -0.0014 0
0.157349 0.705485 -0.0018 0
0.157471 0.705456 -0.0018 0
0.157471 0.705454 -0.0023 0
0.157471 0.705452 -0.0023 0
0.15747 0.705451 -0.0023 0
0.15747 0.705449 -0.0024 0
0.15747 0.705448 -0.0024 0
0.157469 0.705446 -0.0018 0
0.157469 0.705444 -0.0018 0
0.15747 0.70544 -0.0017 0
0.157469 0.705439 -0.0017 0
0.157468 0.705438 -0.0026 0
0.157468 0.705436 -0.0026 0
0.157467 0.705435 -0.0026 0
0.157467 0.705435 -0.0016 0
0.157466 0.705433 -0.0016 0
0.157465 0.705431 -0.0023 0
0.157342 0.705457 -0.0023 0
0.157341 0.705456 -0.0018 0
0.157463 0.705427 -0.0018 0
0.157339 0.705453 -0.0022 0
0.157339 0.705452 -0.0022 0
0.157338 0.705451 -0.0022 0
0.157338 0.70545 -0.002 0
0.157337 0.70545 -0.002 0
0.157337 0.705448 -0.0017 0
0.157337 0.705447 -0.0017 0
0.157336 0.705445 -0.0022 0
0.157337 0.705444 -0.0022 0
0.157336 0.705443 -0.0017 0
0.157336 0.705441 -0.0017 0
0.157336 0.705439 -0.0018 0
0.157337 0.705438 -0.0018 0
0.157336 0.705436 -0.0018 0
0.157336 0.705435 -0.0021 0
0.157335 0.705434 -0.0021 0
0.157334 0.705433 -0.002 0
0.157455 0.705403 -0.0019 0
0.157327 0.70243 -0.0019 0
0.157332 0.705428 -0.0019 0
0.157331 0.705428 -0.0019 0
0.157331 0.705426 -0.0019 0
0.15733 0.705425 -0.0017 0
0.15733 0.705424 -0.0017 0
0.15733 0.705423 -0.0017 0
0.15733 0.705421 -0.0024 0
0.15733 0.70542 -0.0022 0
0.15733 0.705419 -0.0022 0
0.157329 0.705418 -0.0022 0
0.157329 0.705417 -0.0013 0
0.157329 0.705415 -0.0013 0
0.157329 0.705414 -0.0024 0
0.15733 0.705413 -0.0024 0
0.15733 0.705413 -0.0021 0
0.157329 0.705413 -0.0021 0
0.157329 0.705413 -0.0021 0
0.157329 0.705413 -0.0012 0
0.157329 0.705412 -0.0012 0
0.157328 0.705412 -0.0021 0
0.157329 0.705411 -0.0021 0
0.157329 0.70541 -0.0018 0
0.157329 0.705409 -0.0018 0
0.15733 0.705409 -0.0017 0
0.15733 0.705407 -0.0017 0
0.15733 0.705408 -0.0016 0
0.157331 0.705408 -0.0016 0
0.15733 0.705408 -0.0021 0
0.15733 0.705408 -0.0021 0
0.15733 0.705408 -0.0018 0
0.157329 0.705406 -0.0018 0
0.157328 0.705406 -0.0021 0
0.157325 0.704405 -0.0021 0
0.157327 0.705403 -0.0021 0
0.157327 0.705401 -0.0021 0
0.157326 0.7054 -0.0019 0
0.157326 0.705398 -0.0019 0
0.157325 0.705398 -0.0019 0
0.157325 0.705398 -0.0017 0
0.157325 0.705396 -0.0017 0
0.157324 0.705396 -0.0017 0
0.157324 0.705395 -0.0017 0
0.157324 0.705395 -0.0017 0
0.157324 0.705394 -0.0017 0
0.157323 0.705392 -0.0018 0
0.157324 0.705391 -0.0018 0
0.157324 0.70539 -0.0019 0
0.157324 0.705388 -0.0019 0
0.157323 0.705387 -0.0019 0
0.157323 0.705386 -0.0023 0
0.157323 0.705384 -0.0023 0
0.157322 0.705383 -0.0017 0
0.157322 0.705382 -0.0017 0
0.157322 0.70538 -0.0021 0
0.157322 0.705379 -0.0021 0
0.157322 0.705378 -0.0015 0
0.157322 0.705377 -0.0015 0
0.157322 0.705377 -0.0015 0
0.15732 0.704375 -0.0018 0
0.157322 0.705374 -0.0018 0
0.157322 0.705374 -0.0022 0
0.157322 0.705373 -0.0022 0
0.157445 0.705344 -0.0017 0
0.157445 0.705343 -0.0017 0
0.157445 0.705342 -0.0016 0
0.157444 0.705341 -0.0016 0
0.157444 0.70534 -0.0016 0
0.157444 0.705339 -0.002 0
0.157444 0.705338 -0.002 0
0.157444 0.705336 -0.0017 0
0.157445 0.705335 -0.0017 0
0.157445 0.705335 -0.002 0
0.157445 0.705334 -0.002 0
0.157444 0.705334 -0.002 0
0.157444 0.705333 -0.0021 0
0.157439 0.703331 -0.0021 0
0.157443 0.70533 -0.0017 0
0.157443 0.705329 -0.0022 0
0.157443 0.705328 -0.0022 0
0.157442 0.705327 -0.0022 0
0.157441 0.705326 -0.0015 0
0.157441 0.705325 -0.0015 0
0.15744 0.705324 -0.002 0
0.157438 0.705322 -0.002 0
0.157438 0.705321 -0.0019 0
0.157439 0.705321 -0.0019 0
0.157439 0.70532 -0.0019 0
0.157439 0.705318 -0.0019 0
0.157439 0.705318 -0.0019 0
0.157439 0.705317 -0.0022 0
0.157438 0.705316 -0.0022 0
0.157315 0.705342 -0.0015 0
0.157315 0.705342 -0.0015 0
0.157315 0.705341 -0.0015 0
0.157313 0.70434 -0.0021 0
0.157315 0.70534 -0.0021 0
0.157315 0.705338 -0.0008 0
0.157314 0.704338 -0.0008 0
0.157316 0.705337 -0.0008 0
0.157317 0.705336 -0.0026 0
0.157318 0.705335 -0.0026 0
0.157319 0.705333 -0.0021 0
0.157319 0.705332 -0.0021 0
0.157319 0.705332 -0.002 0
0.157319 0.70533 -0.002 0
0.157318 0.70533 -0.0019 0
0.157318 0.705327 -0.0019 0
0.157318 0.705326 -0.0012 0
0.157318 0.705326 -0.0012 0
0.157318 0.705325 -0.0014 0
0.157318 0.705325 -0.0014 0
0.157318 0.705323 -0.0014 0
0.157318 0.705323 -0.0024 0
0.157318 0.705322 -0.0024 0
0.157318 0.705321 -0.0024 0
0.157318 0.70532 -0.0023 0
0.157319 0.705318 -0.0021 0
0.157319 0.705317 -0.0021 0
0.157319 0.705317 -0.0017 0
0.157318 0.705315 -0.0017 0
0.157318 0.705314 -0.0017 0
0.157317 0.705314 -0.0017 0
0.157316 0.705313 -0.002 0
0.157315 0.705313 -0.002 0
0.157315 0.705312 -0.002 0
0.157315 0.705311 -0.0024 0
0.157314 0.705311 -0.0024 0
0.157314 0.705311 -0.0019 0
0.157314 0.70531 -0.0019 0
0.157313 0.705309 -0.0019 0
0.157313 0.705308 -0.0018 0
0.157313 0.705306 -0.0018 0
0.157313 0.705305 -0.0014 0
0.157313 0.705305 -0.0014 0
0.157313 0.705304 -0.0018 0
0.157312 0.705303 -0.0018 0
0.15731 0.704303 -0.0016 0
0.157312 0.705302 -0.0016 0
0.157312 0.705301 -0.0016 0
0.157311 0.7053 -0.002 0
0.15731 0.705299 -0.002 0
0.15731 0.705298 -0.0016 0
0.157308 0.705297 -0.0016 0
0.157307 0.705297 -0.0015 0
0.157307 0.705297 -0.0015 0
0.157306 0.705296 -0.0019 0
0.157302 0.703296 -0.0019 0
0.157306 0.705295 -0.0019 0
0.157306 0.705294 -0.002 0
0.157305 0.705293 -0.002 0
0.157305 0.705291 -0.0018 0
0.157304 0.705291 -0.0018 0
0.157303 0.705291 -0.002 0
0.157303 0.705291 -0.002 0
0.157302 0.705291 -0.0015 0
0.157302 0.705289 -0.0015 0
0.157302 0.705289 -0.0017 0
0.157302 0.705288 -0.0017 0
0.157302 0.705287 -0.0022 0
0.157301 0.705286 -0.0022 0
0.157423 0.705258 -0.0018 0
0.157422 0.705258 -0.0018 0
0.157415 0.702258 -0.0019 0
0.157299 0.705283 -0.0019 0
0.157299 0.705282 -0.0019 0
0.157422 0.705253 -0.0019 0
0.157422 0.705252 -0.0015 0
0.157422 0.705251 -0.0015 0
0.157422 0.70525 -0.0015 0
0.157422 0.705248 -0.0021 0
0.157422 0.705246 -0.0017 0
0.157422 0.705245 -0.0017 0
0.157423 0.705243 -0.0017 0
0.157423 0.705242 -0.002 0
0.157424 0.705241 -0.002 0
0.157425 0.705239 -0.0018 0
0.157425 0.705239 -0.0018 0
0.157425 0.705236 -0.0019 0
0.157425 0.705235 -0.0019 0
0.157425 0.705234 -0.0017 0
0.157425 0.705233 -0.0017 0
0.157427 0.705231 -0.0018 0
0.157427 0.70523 -0.0018 0
0.157428 0.705229 -0.0021 0
0.157428 0.705228 -0.0021 0
0.157428 0.705226 -0.0024 0
0.157427 0.705224 -0.0024 0
0.157427 0.705223 -0.002 0
0.157428 0.705221 -0.002 0
0.157428 0.70522 -0.0018 0
0.157428 0.70522 -0.0018 0
0.157429 0.705219 -0.0019 0
0.157306 0.705243 -0.0019 0
0.157306 0.705241 -0.0019 0
0.157306 0.70524 -0.0019 0
0.157306 0.705239 -0.0022 0
0.157306 0.705236 -0.0022 0
0.157306 0.705235 -0.002 0
0.157306 0.705234 -0.002 0
0.157306 0.705233 -0.002 0
0.157305 0.70523 -0.0018 0
0.157305 0.705229 -0.0015 0
0.157305 0.705228 -0.0015 0
0.157306 0.705226 -0.0018 0
0.157306 0.705225 -0.0018 0
0.157306 0.705224 -0.0018 0
0.157306 0.705223 -0.0018 0
0.157307 0.705223 -0.0018 0
0.157307 0.705223 -0.0017 0
0.157307 0.705222 -0.0017 0
0.157307 0.70522 -0.0017 0
0.157306 0.70522 -0.0016 0
0.157428 0.705191 -0.0016 0
0.157305 0.705218 -0.0021 0
0.157305 0.705218 -0.0021 0
0.157306 0.705217 -0.002 0
0.157306 0.705218 -0.002 0
0.157306 0.705217 -0.0021 0
0.157429 0.705189 -0.0021 0
0.157429 0.705189 -0.0021 0
0.157429 0.705189 -0.002 0
0.157306 0.705216 -0.002 0
0.157305 0.705217 -0.002 0
0.157305 0.705217 -0.002 0
0.157305 0.705217 -0.0021 0
0.157427 0.705189 -0.0021 0
0.157428 0.705189 -0.0017 0
0.157428 0.705188 -0.0017 0
0.157428 0.705188 -0.0017 0
0.15743 0.705186 -0.002 0
0.157428 0.704185 -0.002 0
0.15743 0.705185 -0.0016 0
0.15743 0.705184 -0.0016 0
0.15743 0.705182 -0.0017 0
0.157431 0.70518 -0.0022 0
0.157431 0.705179 -0.0022 0
0.15731 0.705206 -0.0013 0
0.157311 0.705205 -0.0013 0
0.157311 0.705204 -0.0013 0
0.15731 0.705203 -0.0018 0
0.157309 0.705201 -0.0022 0
0.157308 0.7052 -0.0022 0
0.157308 0.705199 -0.002 0
0.15743 0.70517 -0.002 0
0.157428 0.705168 -0.0021 0
0.157426 0.704168 -0.0021 0
0.157427 0.705167 -0.0021 0
0.157427 0.705164 -0.0021 0
0.157427 0.705163 -0.002 0
0.157427 0.705161 -0.002 0
0.157426 0.705159 -0.0017 0
0.157426 0.705157 -0.0017 0
0.157424 0.705153 -0.0018 0
0.157423 0.705151 -0.0018 0
0.157422 0.705149 -0.0017 0
0.157422 0.705146 -0.0017 0
0.157421 0.705145 -0.0016 0
0.157421 0.705143 -0.0016 0
0.15742 0.705142 -0.0015 0
0.15742 0.70514 -0.0015 0
0.157419 0.705139 -0.0015 0
0.157295 0.705165 -0.0016 0
0.157294 0.705162 -0.0016 0
0.157294 0.70516 -0.0018 0
0.157294 0.705157 -0.0018 0
0.157294 0.705155 -0.0019 0
0.157293 0.705154 -0.0019 0
0.157416 0.705123 -0.002 0
0.157416 0.705122 -0.002 0
0.157416 0.705121 -0.0017 0
0.157416 0.705119 -0.0017 0
0.157416 0.705118 -0.0011 0
0.157417 0.705116 -0.0011 0
0.157417 0.705115 -0.0019 0
0.157417 0.705115 -0.0019 0
0.157417 0.705114 -0.002 0
0.157417 0.705114 -0.002 0
0.157294 0.70514 -0.0016 0
0.157294 0.705139 -0.0018 0
0.157295 0.705138 -0.0018 0
0.157295 0.705137 -0.0018 0
0.157295 0.705135 -0.0021 0
0.157418 0.705107 -0.0018 0
0.157417 0.705106 -0.0018 0
0.157416 0.705106 -0.0018 0
0.157416 0.705105 -0.002 0
0.157416 0.705103 -0.002 0
0.157415 0.705102 -0.002 0
0.157415 0.7051 -0.002 0
0.157416 0.7051 -0.002 0
0.157415 0.705099 -0.0018 0
0.157416 0.705098 -0.0018 0
0.157416 0.705096 -0.0018 0
0.157415 0.705095 -0.0017 0
0.157416 0.705095 -0.0017 0
0.157415 0.705094 -0.0017 0
0.157414 0.705094 -0.002 0
0.157414 0.705093 -0.002 0
0.157414 0.705092 -0.002 0
0.157414 0.70509 -0.002 0
0.157414 0.705086 -0.0017 0
0.157414 0.705086 -0.0017 0
0.157414 0.705086 -0.0021 0
0.157413 0.705085 -0.0021 0
0.157413 0.705084 -0.0013 0
0.157413 0.705084 -0.0013 0
0.157412 0.705083 -0.0013 0
0.157411 0.705083 -0.0016 0
0.157411 0.705082 -0.0016 0
0.157411 0.705081 -0.0017 0
0.157411 0.70508 -0.0017 0
0.15741 0.705079 -0.0021 0
0.157409 0.705078 -0.0021 0
0.157409 0.705077 -0.0021 0
0.157408 0.705077 -0.0019 0
0.157407 0.705076 -0.0019 0
0.157405 0.705075 -0.0019 0
0.157404 0.705074 -0.0019 0
0.157404 0.705073 -0.0017 0
0.157403 0.705072 -0.0017 0
0.157402 0.705071 -0.0016 0
0.157401 0.70507 -0.0016 0
0.1574 0.70507 -0.0021 0
0.157399 0.705069 -0.0021 0
0.157398 0.705068 -0.0019 0
0.157398 0.705067 -0.0019 0
0.157397 0.705065 -0.0019 0
0.157397 0.705065 -0.0019 0
0.157397 0.705064 -0.0018 0
0.157272 0.705089 -0.0015 0
0.157271 0.705088 -0.0015 0
0.15727 0.705086 -0.0015 0
0.15725 0.694086 -0.0021 0
0.15727 0.705085 -0.0021 0
0.157269 0.705084 -0.0021 0
0.157268 0.705083 -0.0022 0
0.157268 0.705082 -0.0022 0
0.157267 0.705081 -0.0016 0
0.157267 0.70508 -0.0016 0
0.157267 0.705079 -0.0021 0
0.157267 0.705078 -0.0021 0
0.157267 0.705078 -0.0025 0
0.157267 0.705077 -0.0025 0
0.157267 0.705076 -0.0018 0
0.157267 0.705074 -0.0018 0
0.157268 0.705072 -0.0018 0
0.157269 0.705071 -0.0019 0
0.15727 0.705071 -0.0019 0
0.157271 0.705072 -0.0027 0
0.157272 0.705071 -0.0027 0
0.157272 0.705071 -0.0016 0
0.157272 0.705071 -0.0016 0
0.157272 0.705071 -0.0016 0
0.157272 0.70507 -0.0016 0
0.157395 0.70504 -0.0014 0
0.157395 0.705039 -0.0014 0
0.157394 0.705038 -0.0014 0
0.157394 0.705037 -0.0023 0
0.157395 0.705037 -0.0023 0
0.157395 0.705036 -0.002 0
0.157394 0.705035 -0.002 0
0.157271 0.705062 -0.0015 0
0.15727 0.705061 -0.0015 0
0.15727 0.705062 -0.0019 0
0.15727 0.705061 -0.0019 0
0.15727 0.705061 -0.0019 0
0.157271 0.70506 -0.0017 0
0.157271 0.705059 -0.0017 0
0.157272 0.705058 -0.0023 0
0.157395 0.705029 -0.0018 0
0.157395 0.705027 -0.0018 0
0.157271 0.705053 -0.0018 0
0.157272 0.705052 -0.0016 0
0.157272 0.705052 -0.0016 0
0.157273 0.705051 -0.0022 0
0.157272 0.705048 -0.0022 0
0.157273 0.705046 -0.0018 0
0.157274 0.705045 -0.0018 0
0.157274 0.705043 -0.0018 0
0.157275 0.705042 -0.0018 0
0.157397 0.705014 -0.0018 0
0.157275 0.705041 -0.0024 0
0.1574 0.706013 -0.0024 0
0.157275 0.70504 -0.0024 0
0.157398 0.705012 -0.0023 0
0.157398 0.705011 -0.0023 0
0.157398 0.705008 -0.0021 0
0.157398 0.705008 -0.0017 0
0.157394 0.703007 -0.0017 0
0.157398 0.705006 -0.0017 0
0.157398 0.705006 -0.0017 0
0.157398 0.705004 -0.0017 0
0.157275 0.705031 -0.0017 0
0.157398 0.705003 -0.0019 0
0.157398 0.705002 -0.002 0
0.157275 0.705029 -0.002 0
0.157275 0.705028 -0.002 0
0.157275 0.705026 -0.0016 0
0.157275 0.705023 -0.0022 0
0.157398 0.704993 -0.0022 0
0.157398 0.704992 -0.0014 0
0.157399 0.704992 -0.0014 0
0.157399 0.704991 -0.0014 0
0.1574 0.704989 -0.0026 0
0.157399 0.704988 -0.0026 0
0.157399 0.704987 -0.002 0
0.157399 0.704983 -0.002 0
0.157398 0.704982 -0.0018 0
0.157398 0.704982 -0.0018 0
0.157398 0.704982 -0.0022 0
0.157397 0.704982 -0.0022 0
0.157273 0.705008 -0.0022 0
0.157273 0.705008 -0.0017 0
0.157271 0.705006 -0.0017 0
0.157271 0.705005 -0.0018 0
0.157271 0.705004 -0.0018 0
0.15727 0.705003 -0.0022 0
0.157271 0.705003 -0.0022 0
0.157271 0.705003 -0.0022 0
0.157271 0.705003 -0.0018 0
0.157271 0.705002 -0.002 0
0.157271 0.705001 -0.002 0
0.157271 0.704999 -0.002 0
0.157272 0.704998 -0.0016 0
0.157271 0.704997 -0.0016 0
0.157271 0.704995 -0.002 0
0.157271 0.704994 -0.0021 0
0.15727 0.704992 -0.0021 0
0.15727 0.704991 -0.0019 0
0.15727 0.70499 -0.0019 0
0.15727 0.704989 -0.0018 0
0.15727 0.704986 -0.0018 0
0.15727 0.704984 -0.0015 0
0.15727 0.704983 -0.0015 0
0.15727 0.704983 -0.0019 0
0.15727 0.704981 -0.0019 0
0.15727 0.70498 -0.0019 0
0.15727 0.704978 -0.0019 0
0.15727 0.704977 -0.0015 0
0.157271 0.704977 -0.0015 0
0.157271 0.704975 -0.0016 0
0.157271 0.704975 -0.0016 0
0.157271 0.704973 -0.0019 0
0.15727 0.704973 -0.0019 0
0.15727 0.704973 -0.0016 0
0.15727 0.704972 -0.0016 0
0.15727 0.704972 -0.0021 0
0.15727 0.704972 -0.0021 0
0.157269 0.704971 -0.0015 0
0.157269 0.70497 -0.0015 0
0.157269 0.704971 -0.0015 0
0.157269 0.70497 -0.0015 0
0.157269 0.70497 -0.002 0
0.15727 0.704969 -0.002 0
0.15727 0.704968 -0.002 0
0.15727 0.704968 -0.0019 0
0.15727 0.704967 -0.0019 0
0.15727 0.704965 -0.0015 0
0.15727 0.704962 -0.0015 0
0.15727 0.704961 -0.0017 0
0.157271 0.70496 -0.0017 0
0.157271 0.704959 -0.0017 0
0.157271 0.704958 -0.0016 0
0.157271 0.704957 -0.0016 0
0.157271 0.704956 -0.0016 0
0.157271 0.704955 -0.002 0
0.157266 0.701953 -0.002 0
0.157273 0.704952 -0.002 0
0.157273 0.704952 -0.002 0
0.157273 0.704951 -0.0019 0
0.157273 0.70495 -0.0019 0
0.157273 0.704949 -0.0019 0
0.157273 0.704949 -0.0022 0
0.157273 0.704947 -0.0022 0
0.157274 0.704947 -0.0016 0
0.157274 0.704945 -0.0022 0
0.157274 0.704944 -0.0022 0
0.157274 0.704944 -0.0022 0
0.157274 0.704944 -0.0023 0
0.157274 0.704943 -0.0023 0
0.157274 0.704943 -0.0023 0
0.157273 0.704942 -0.0019 0
0.157273 0.70494 -0.0019 0
0.157273 0.704939 -0.0017 0
0.157273 0.704938 -0.0017 0
0.157272 0.704938 -0.002 0
0.157273 0.704938 -0.002 0
0.157272 0.704936 -0.0016 0
0.157272 0.704936 -0.0016 0
0.157271 0.704936 -0.0023 0
0.157271 0.704935 -0.0023 0
0.157271 0.704935 -0.0023 0
0.157272 0.704934 -0.0017 0
0.157272 0.704934 -0.0017 0
0.157272 0.704933 -0.0019 0
0.157272 0.704933 -0.0019 0
0.157271 0.704932 -0.0019 0
0.157271 0.704931 -0.002 0
0.157272 0.704931 -0.002 0
0.157273 0.70493 -0.0018 0
0.157273 0.704929 -0.0018 0
0.157274 0.704929 -0.0018 0
0.157274 0.704928 -0.0014 0
0.157275 0.704927 -0.0018 0
0.157275 0.704927 -0.0018 0
0.157275 0.704926 -0.0018 0
0.157271 0.701925 -0.0017 0
0.157277 0.704925 -0.0017 0
0.157277 0.704924 -0.0017 0
0.157278 0.704923 -0.0017 0
0.157278 0.704923 -0.0017 0
0.157278 0.704922 -0.0018 0
0.157278 0.704921 -0.0018 0
0.157278 0.704919 -0.0015 0
0.157278 0.704918 -0.0015 0
0.157278 0.704917 -0.0013 0
0.157278 0.704916 -0.0013 0
0.157278 0.704917 -0.0016 0
0.157278 0.704917 -0.0016 0
0.157278 0.704916 -0.0016 0
0.157279 0.704914 -0.0019 0
0.157278 0.704913 -0.0016 0
0.157279 0.704911 -0.0016 0
0.157279 0.70491 -0.0016 0
0.157277 0.703909 -0.0019 0
0.15728 0.704908 -0.0019 0
0.15728 0.704907 -0.0017 0
0.157281 0.704907 -0.0017 0
0.157281 0.704907 -0.0019 0
0.157281 0.704906 -0.0019 0
0.157281 0.704906 -0.0018 0
0.157281 0.704905 -0.0018 0
0.157281 0.704904 -0.0018 0
0.15728 0.704904 -0.0016 0
0.157279 0.704903 -0.0023 0
0.157278 0.704902 -0.0023 0
0.157277 0.704901 -0.0023 0
0.157277 0.704899 -0.0017 0
0.157277 0.704899 -0.0017 0
0.157277 0.704899 -0.0022 0
0.157271 0.701899 -0.0022 0
0.157278 0.704898 -0.0022 0
0.157278 0.704897 -0.0019 0
0.157278 0.704896 -0.0019 0
0.157278 0.704894 -0.0019 0
0.157277 0.704892 -0.002 0
0.157276 0.704891 -0.0017 0
0.157275 0.704889 -0.0017 0
0.157274 0.704888 -0.0021 0
0.157273 0.704887 -0.0021 0
0.157273 0.704886 -0.0018 0
0.157272 0.704885 -0.0018 0
0.157272 0.704883 -0.0019 0
0.157271 0.704883 -0.0019 0
0.157271 0.704881 -0.0022 0
0.15727 0.704881 -0.0022 0
0.157269 0.70488 -0.0018 0
0.157269 0.704879 -0.0018 0
0.157267 0.704878 -0.0018 0
0.157263 0.702877 -0.0024 0
0.157266 0.704877 -0.0024 0
0.157263 0.702876 -0.0021 0
0.157267 0.704875 -0.0021 0
0.157267 0.704874 -0.0018 0
0.157267 0.704872 -0.0018 0
0.157267 0.70487 -0.0023 0
0.157267 0.704869 -0.0023 0
0.157266 0.704868 -0.0023 0
0.157388 0.704839 -0.0014 0
0.157389 0.704838 -0.0018 0
0.157388 0.704838 -0.0018 0
0.157388 0.704838 -0.0018 0
0.157266 0.704866 -0.0019 0
0.157265 0.704864 -0.0018 0
0.157388 0.704835 -0.0018 0
0.157389 0.704834 -0.0018 0
0.157267 0.704858 -0.0017 0
0.157269 0.704857 -0.0018 0
0.157269 0.704857 -0.0018 0
0.157346 0.745856 -0.0018 0
0.15727 0.704857 -0.002 0
0.157269 0.703856 -0.002 0
0.15727 0.704856 -0.002 0
0.157269 0.704856 -0.002 0
0.157392 0.704828 -0.0017 0
0.157391 0.704827 -0.0017 0
0.15739 0.704826 -0.0019 0
0.157391 0.704825 -0.0019 0
0.157391 0.704824 -0.0017 0
0.157392 0.704824 -0.0017 0
0.157392 0.704823 -0.002 0
0.157393 0.704822 -0.002 0
0.157392 0.704821 -0.0015 0
0.157392 0.70482 -0.0015 0
0.157392 0.70482 -0.0015 0
0.157391 0.704817 -0.002 0
0.157391 0.704815 -0.0019 0
0.15739 0.704814 -0.0019 0
0.15739 0.704814 -0.0019 0
0.157389 0.704813 -0.0015 0
0.157389 0.704812 -0.0015 0
0.157389 0.704811 -0.0021 0
0.157389 0.704809 -0.002 0
0.15739 0.704809 -0.002 0
0.15739 0.704809 -0.002 0
0.15739 0.704808 -0.0021 0
0.157391 0.704807 -0.0021 0
0.157391 0.704806 -0.0017 0
0.157391 0.704805 -0.0017 0
0.157391 0.704804 -0.0017 0
0.157391 0.704803 -0.0016 0
0.15739 0.704803 -0.0016 0
0.15739 0.704802 -0.0018 0
0.15739 0.704801 -0.0018 0
0.157389 0.704799 -0.0017 0
0.157389 0.704799 -0.0017 0
0.157389 0.704798 -0.0015 0
0.15739 0.704797 -0.0015 0
0.15739 0.704797 -0.0015 0
0.15739 0.704797 -0.0021 0
0.15739 0.704797 -0.0021 0
0.15739 0.704794 -0.0018 0
0.157389 0.704793 -0.0018 0
0.157389 0.704791 -0.0023 0
0.157389 0.70479 -0.0023 0
0.157266 0.704816 -0.0023 0
0.157266 0.704813 -0.0019 0
0.157262 0.702811 -0.0019 0
0.157266 0.70481 -0.0019 0
0.157266 0.704808 -0.0021 0
0.157266 0.704807 -0.0021 0
0.157265 0.704806 -0.0021 0
0.157265 0.704805 -0.0018 0
0.157265 0.704803 -0.0018 0
0.157265 0.704802 -0.002 0
0.157387 0.704773 -0.002 0
0.157264 0.704799 -0.002 0
0.15726 0.702798 -0.002 0
0.157387 0.704769 -0.002 0
0.157263 0.704795 -0.0017 0
0.157263 0.704793 -0.0017 0
0.157262 0.704792 -0.0015 0
0.157262 0.704792 -0.0015 0
0.157262 0.704789 -0.002 0
0.157262 0.704789 -0.002 0
0.157262 0.704788 -0.0016 0
0.157261 0.704787 -0.0016 0
0.157383 0.704759 -0.0016 0
0.157257 0.702785 -0.0016 0
0.157261 0.704784 -0.0016 0
0.157261 0.704783 -0.002 0
0.157384 0.704752 -0.002 0
0.157384 0.704751 -0.0018 0
0.157385 0.704749 -0.0018 0
0.157385 0.704748 -0.0019 0
0.157385 0.704747 -0.0019 0
0.157385 0.704745 -0.0019 0
0.157385 0.704744 -0.0014 0
0.157386 0.704743 -0.0014 0
0.157386 0.704742 -0.0019 0
0.157386 0.704742 -0.0019 0
0.157386 0.704742 -0.0022 0
0.157386 0.704741 -0.0022 0
0.157386 0.70474 -0.0015 0
0.157385 0.70474 -0.0015 0
0.157384 0.704739 -0.0023 0
0.157384 0.70474 -0.0023 0
0.157383 0.704741 -0.0019 0
0.157383 0.704741 -0.0019 0
0.157382 0.704741 -0.0023 0
0.157381 0.70474 -0.0023 0
0.157381 0.70474 -0.0017 0
0.157381 0.704738 -0.0021 0
0.157381 0.704736 -0.0021 0
0.157381 0.704735 -0.0021 0
0.157381 0.704733 -0.0021 0
0.15738 0.70473 -0.0021 0
0.15738 0.704728 -0.0014 0
0.15738 0.704727 -0.0014 0
0.157381 0.704725 -0.0018 0
0.15738 0.704723 -0.0019 0
0.15738 0.704721 -0.0019 0
0.15738 0.70472 -0.0019 0
0.157381 0.704719 -0.002 0
0.15738 0.704717 -0.002 0
0.157379 0.704715 -0.0016 0
0.157379 0.704714 -0.0016 0
0.157377 0.704712 -0.0021 0
0.157377 0.704712 -0.0021 0
0.157377 0.704711 -0.0021 0
0.157376 0.704709 -0.0021 0
0.157376 0.704707 -0.0015 0
0.157375 0.704706 -0.0015 0
0.157374 0.704705 -0.0021 0
0.157374 0.704704 -0.0021 0
0.157374 0.704702 -0.0015 0
0.157374 0.7047 -0.002 0
0.157374 0.704698 -0.002 0
0.157374 0.704696 -0.002 0
0.157373 0.704694 -0.0019 0
0.157373 0.704693 -0.0019 0
0.157372 0.704692 -0.0019 0
0.157371 0.704691 -0.0019 0
0.157371 0.70469 -0.0021 0
0.15737 0.704689 -0.0021 0
0.157369 0.704688 -0.0021 0
0.157369 0.704688 -0.0024 0
0.157369 0.704687 -0.0024 0
0.157369 0.704686 -0.0019 0
0.157368 0.704686 -0.0019 0
0.157368 0.704686 -0.0018 0
0.157367 0.704685 -0.0018 0
0.157366 0.704682 -0.0023 0
0.157366 0.704681 -0.0023 0
0.157366 0.704679 -0.002 0
0.157365 0.704675 -0.002 0
0.157366 0.704675 -0.0023 0
0.157366 0.704674 -0.0023 0
0.157366 0.704673 -0.0018 0
0.157366 0.704673 -0.0018 0
0.157367 0.704672 -0.0018 0
0.157368 0.704671 -0.0018 0
0.157368 0.70467 -0.0017 0
0.157368 0.704669 -0.0017 0
0.157368 0.704668 -0.0017 0
0.157367 0.704666 -0.002 0
0.157368 0.704664 -0.002 0
0.157367 0.704662 -0.0024 0
0.157367 0.704662 -0.0024 0
0.157367 0.704661 -0.0018 0
0.157368 0.704661 -0.0018 0
0.157368 0.70466 -0.0019 0
0.157369 0.704659 -0.0019 0
0.157369 0.704658 -0.0019 0
0.157369 0.704658 -0.0018 0
0.157369 0.704658 -0.0018 0
0.157369 0.704657 -0.0018 0
0.157369 0.704657 -0.0011 0
0.157368 0.704654 -0.0015 0
0.157369 0.704653 -0.0015 0
0.157369 0.704651 -0.0016 0
0.15737 0.70465 -0.0016 0
0.15737 0.704649 -0.0016 0
0.157371 0.704648 -0.0018 0
0.157371 0.704647 -0.0018 0
0.157372 0.704645 -0.0017 0
0.157373 0.704645 -0.0017 0
0.157373 0.704644 -0.0017 0
0.157373 0.704644 -0.0022 0
0.157373 0.704643 -0.0022 0
0.157373 0.704641 -0.002 0
0.157372 0.704637 -0.002 0
0.157372 0.704636 -0.002 0
0.157371 0.704636 -0.002 0
0.157371 0.704635 -0.002 0
0.157371 0.704634 -0.0019 0
0.157369 0.704633 -0.0019 0
0.157369 0.704632 -0.002 0
0.157369 0.704631 -0.002 0
0.15737 0.70463 -0.002 0
0.157369 0.704628 -0.0015 0
0.157369 0.704627 -0.0019 0
0.157369 0.704626 -0.0019 0
0.157369 0.704625 -0.002 0
0.157369 0.704624 -0.002 0
0.157368 0.704622 -0.002 0
0.157367 0.70462 -0.0023 0
0.157366 0.704617 -0.0023 0
0.157365 0.704615 -0.0018 0
0.157364 0.704614 -0.0018 0
0.157363 0.704612 -0.0018 0
0.157362 0.704612 -0.0018 0
0.157361 0.704611 -0.0018 0
0.15736 0.704609 -0.0018 0
0.157359 0.704607 -0.002 0
0.157358 0.704605 -0.002 0
0.157357 0.704604 -0.002 0
0.157356 0.704602 -0.002 0
0.157355 0.704601 -0.002 0
0.157355 0.7046 -0.0013 0
0.157354 0.7046 -0.0013 0
0.157354 0.704599 -0.0017 0
0.157354 0.704598 -0.0017 0
0.157352 0.703597 -0.0017 0
0.157353 0.704595 -0.0019 0
0.157353 0.704594 -0.0019 0
0.157353 0.704594 -0.0019 0
0.157353 0.704593 -0.0019 0
0.157352 0.704591 -0.0021 0
0.157352 0.70459 -0.0021 0
0.157352 0.704589 -0.0019 0
0.157351 0.704587 -0.0019 0
0.157351 0.704585 -0.0019 0
0.157351 0.704584 -0.0019 0
0.15735 0.704584 -0.0013 0
0.15735 0.704583 -0.0013 0
0.15735 0.704583 -0.0013 0
0.157345 0.702581 -0.0019 0
0.157348 0.70458 -0.0019 0
0.157348 0.70458 -0.0018 0
0.157348 0.704578 -0.0018 0
0.157348 0.704578 -0.0018 0
0.157348 0.704576 -0.002 0
0.157348 0.704576 -0.002 0
0.157348 0.704575 -0.0014 0
0.157348 0.704573 -0.0014 0
0.157348 0.704572 -0.0016 0
0.157348 0.704572 -0.0016 0
0.157348 0.704571 -0.0015 0
0.157347 0.704571 -0.0015 0
0.157347 0.70457 -0.0015 0
0.157346 0.70457 -0.002 0
0.157346 0.704569 -0.002 0
0.157345 0.703568 -0.0016 0
0.157344 0.703567 -0.0016 0
0.157347 0.704566 -0.0016 0
0.157346 0.704565 -0.0017 0
0.157321 0.692565 -0.0021 0
0.157344 0.704564 -0.0021 0
0.157344 0.704563 -0.0021 0
0.157343 0.704562 -0.0016 0
0.157343 0.704561 -0.0016 0
0.157343 0.704561 -0.002 0
0.157343 0.704559 -0.002 0
0.157342 0.704559 -0.0018 0
0.157218 0.704586 -0.0018 0
0.157218 0.704586 -0.0014 0
0.157218 0.704585 -0.0014 0
0.157218 0.704585 -0.0014 0
0.157218 0.704584 -0.002 0
0.157218 0.704583 -0.002 0
0.157218 0.704583 -0.0014 0
0.157218 0.704582 -0.0014 0
0.157218 0.704582 -0.0015 0
0.157218 0.704581 -0.0015 0
0.157217 0.704581 -0.0017 0
0.157218 0.70458 -0.0017 0
0.157341 0.704551 -0.0017 0
0.157341 0.70455 -0.002 0
0.15734 0.70455 -0.002 0
0.157339 0.704549 -0.0022 0
0.157215 0.704574 -0.0022 0
0.157215 0.704572 -0.0019 0
0.157338 0.704544 -0.0019 0
0.157338 0.704542 -0.002 0
0.157332 0.701541 -0.002 0
0.157338 0.704541 -0.002 0
0.157336 0.704539 -0.002 0
0.157335 0.704539 -0.0026 0
0.157334 0.704537 -0.0026 0
0.157334 0.704536 -0.0024 0
0.157333 0.704535 -0.0014 0
0.157334 0.704534 -0.0014 0
0.157334 0.704533 -0.0014 0
0.157334 0.704532 -0.002 0
0.157334 0.704531 -0.0022 0
0.157335 0.70453 -0.0022 0
0.157335 0.704529 -0.0022 0
0.157335 0.704527 -0.002 0
0.157335 0.704525 -0.0019 0
0.157335 0.704525 -0.0019 0
0.157336 0.704523 -0.0022 0
0.157336 0.704522 -0.0022 0
0.157337 0.704522 -0.0016 0
0.157338 0.704521 -0.0016 0
0.157339 0.70452 -0.0016 0
0.157339 0.704518 -0.0023 0
0.15734 0.704517 -0.0018 0
0.15734 0.704516 -0.0018 0
0.15734 0.704516 -0.0018 0
0.157217 0.704541 -0.0016 0
0.157217 0.70454 -0.0017 0
0.157217 0.704539 -0.0017 0
0.157218 0.704538 -0.002 0
0.157218 0.704538 -0.002 0
0.157218 0.704538 -0.0016 0
0.157218 0.704538 -0.0016 0
0.157219 0.704539 -0.0019 0
0.157219 0.704539 -0.0018 0
0.157219 0.704538 -0.0018 0
0.157219 0.704538 -0.0018 0
0.157219 0.704535 -0.0018 0
0.157218 0.704533 -0.0018 0
0.157218 0.704532 -0.0018 0
0.157144 0.664532 -0.0018 0
0.157219 0.704531 -0.0017 0
0.157219 0.704531 -0.0017 0
0.157219 0.70453 -0.0021 0
0.157219 0.704529 -0.0021 0
0.157219 0.704527 -0.0021 0
0.157219 0.704526 -0.0018 0
0.157219 0.704526 -0.0018 0
0.157219 0.704525 -0.0022 0
0.157219 0.704524 -0.0022 0
0.157219 0.704523 -0.0017 0
0.157219 0.704521 -0.0017 0
0.157219 0.704521 -0.0019 0
0.157216 0.704518 -0.0019 0
0.157216 0.704517 -0.0019 0
0.157215 0.704516 -0.0019 0
0.157214 0.704514 -0.0018 0
0.157213 0.704512 -0.0018 0
0.157213 0.704511 -0.0018 0
0.157213 0.70451 -0.0018 0
0.157213 0.704509 -0.0018 0
0.157214 0.704507 -0.0019 0
0.157214 0.704506 -0.0019 0
0.157215 0.704504 -0.0019 0
0.157216 0.704502 -0.0019 0
0.157217 0.704501 -0.002 0
0.157217 0.7045 -0.002 0
0.157216 0.704499 -0.002 0
0.157216 0.704498 -0.0013 0
0.157215 0.704497 -0.0013 0
0.157215 0.704496 -0.0021 0
0.157215 0.704495 -0.0021 0
0.157215 0.704495 -0.0021 0
0.157215 0.704495 -0.0016 0
0.157215 0.704494 -0.0016 0
0.157215 0.704493 -0.0017 0
0.157217 0.704489 -0.0017 0
0.157218 0.704487 -0.0017 0
0.157218 0.704485 -0.0017 0
0.157219 0.704483 -0.0021 0
0.157219 0.704481 -0.0021 0
0.157219 0.70448 -0.0021 0
0.157219 0.704478 -0.0019 0
0.157219 0.704477 -0.0014 0
0.157219 0.704476 -0.0014 0
0.15722 0.704474 -0.0018 0
0.15722 0.704473 -0.0018 0
0.157221 0.704473 -0.0018 0
0.157221 0.704472 -0.0018 0
0.157221 0.704472 -0.0017 0
0.157216 0.701471 -0.0017 0
0.157222 0.704471 -0.0022 0
0.157221 0.704468 -0.0022 0
0.157221 0.704467 -0.0017 0
0.157221 0.704467 -0.0017 0
0.157217 0.702466 -0.0021 0
0.15722 0.704464 -0.0021 0
0.157221 0.704464 -0.002 0
0.157221 0.704463 -0.002 0
0.157221 0.704463 -0.0012 0
0.157221 0.704461 -0.0012 0
0.157221 0.70446 -0.0018 0
0.15722 0.704459 -0.0018 0
0.157343 0.704429 -0.0019 0
0.157342 0.704426 -0.0019 0
0.157341 0.704425 -0.0021 0
0.157341 0.704425 -0.0021 0
0.157341 0.704423 -0.0021 0
0.157218 0.704449 -0.0021 0
0.157217 0.704446 -0.0017 0
0.157216 0.704445 -0.0017 0
0.157215 0.704444 -0.002 0
0.157214 0.704441 -0.002 0
0.157208 0.70144 -0.0019 0
0.157214 0.704439 -0.0019 0
0.157214 0.704438 -0.0018 0
0.157214 0.704437 -0.0018 0
0.157215 0.704438 -0.0018 0
0.157194 0.692437 -0.0019 0
0.157216 0.704436 -0.0019 0
0.157339 0.704408 -0.002 0
0.157338 0.704407 -0.002 0
0.157215 0.704434 -0.002 0
0.157215 0.704433 -0.0017 0
0.157215 0.704432 -0.0017 0
0.157215 0.704431 -0.0017 0
0.157215 0.70443 -0.0017 0
0.157214 0.704429 -0.002 0
0.157214 0.704428 -0.002 0
0.157213 0.704426 -0.0015 0
0.157213 0.704426 -0.0015 0
0.157213 0.704425 -0.0016 0
0.157212 0.704424 -0.0016 0
0.157211 0.704423 -0.0018 0
0.157211 0.704422 -0.0018 0
0.157211 0.70442 -0.0013 0
0.157211 0.70442 -0.0013 0
0.157333 0.704389 -0.0019 0
0.157333 0.704388 -0.0019 0
0.157333 0.704386 -0.0019 0
0.157334 0.704386 -0.0019 0
0.157211 0.704411 -0.0015 0
0.157334 0.704383 -0.0015 0
0.157334 0.704381 -0.002 0
0.157334 0.70438 -0.002 0
0.157335 0.704378 -0.002 0
0.157212 0.704405 -0.002 0
0.157211 0.704404 -0.0017 0
0.157211 0.704401 -0.002 0
0.157211 0.704399 -0.002 0
0.157211 0.704398 -0.002 0
0.157211 0.704397 -0.0015 0
0.157211 0.704395 -0.0018 0
0.157212 0.704394 -0.0018 0
0.157212 0.704393 -0.0018 0
0.157211 0.704392 -0.0021 0
0.157211 0.704391 -0.0018 0
0.157211 0.704391 -0.0018 0
0.157213 0.70439 -0.0018 0
0.157336 0.704361 -0.0018 0
0.157335 0.704358 -0.0019 0
0.157335 0.704357 -0.0019 0
0.157335 0.704356 -0.0022 0
0.157335 0.704355 -0.0016 0
0.157335 0.704353 -0.0016 0
0.157334 0.704353 -0.0016 0
0.157335 0.704352 -0.0021 0
0.157335 0.704351 -0.0021 0
0.157335 0.70435 -0.0018 0
0.157336 0.704346 -0.0018 0
0.157336 0.704345 -0.0023 0
0.157336 0.704343 -0.0023 0
0.157335 0.704341 -0.0019 0
0.157212 0.704366 -0.0019 0
0.157212 0.704365 -0.0019 0
0.157212 0.704363 -0.0017 0
0.157211 0.704362 -0.0016 0
0.157211 0.704362 -0.0016 0
0.157211 0.704361 -0.0016 0
0.15721 0.704358 -0.0017 0
0.15721 0.704356 -0.0024 0
0.157209 0.704355 -0.0024 0
0.157209 0.704354 -0.0024 0
0.157209 0.704354 -0.0022 0
0.157208 0.704353 -0.002 0
0.157208 0.704352 -0.002 0
0.157208 0.704352 -0.002 0
0.157208 0.704351 -0.0015 0
0.15721 0.704349 -0.0014 0
0.15721 0.704349 -0.0014 0
0.15721 0.704349 -0.0014 0
0.15721 0.704348 -0.0016 0
0.15721 0.704347 -0.0019 0
0.15721 0.704347 -0.0019 0
0.15721 0.704347 -0.0019 0
0.157208 0.704345 -0.0024 0
0.157208 0.704344 -0.0019 0
0.157207 0.704343 -0.0019 0
0.157327 0.704315 -0.0017 0
0.157327 0.704314 -0.0017 0
0.157327 0.704313 -0.0015 0
0.157327 0.704311 -0.0015 0
0.157326 0.70431 -0.002 0
0.157326 0.70431 -0.002 0
0.157325 0.704309 -0.0014 0
0.157325 0.704309 -0.0014 0
0.157325 0.704307 -0.0021 0
0.157321 0.702305 -0.0021 0
0.157325 0.704304 -0.0021 0
0.157326 0.704303 -0.0021 0
0.157326 0.704299 -0.0013 0
0.157326 0.7043 -0.0013 0
0.157326 0.7043 -0.0015 0
0.157326 0.704298 -0.0015 0
0.157203 0.704324 -0.0021 0
0.157203 0.704323 -0.0021 0
0.157203 0.704323 -0.0023 0
0.157203 0.704322 -0.0023 0
0.157203 0.704322 -0.0023 0
0.157203 0.704321 -0.0019 0
0.157203 0.704321 -0.0019 0
0.157203 0.70432 -0.0022 0
0.157203 0.704319 -0.0022 0
0.157203 0.704318 -0.0024 0
0.157204 0.704317 -0.0024 0
0.157204 0.704316 -0.0019 0
0.157204 0.704315 -0.0019 0
0.157327 0.704286 -0.0019 0
0.157205 0.70431 -0.0018 0
0.157205 0.704309 -0.0023 0
0.157205 0.704309 -0.0023 0
0.157205 0.704309 -0.0023 0
0.157205 0.704308 -0.0019 0
0.157206 0.704307 -0.0019 0
0.157205 0.704306 -0.0022 0
0.157205 0.704305 -0.0022 0
0.157205 0.704304 -0.0022 0
0.157327 0.704275 -0.0021 0
0.157327 0.704274 -0.0018 0
0.157327 0.704274 -0.0018 0
0.157327 0.704272 -0.0018 0
0.157326 0.70427 -0.0021 0
0.157325 0.704268 -0.0016 0
0.157324 0.704267 -0.0016 0
0.157324 0.704266 -0.0016 0
0.157325 0.704265 -0.0017 0
0.157325 0.704265 -0.0017 0
0.157325 0.704264 -0.0021 0
0.157324 0.704263 -0.0021 0
0.157324 0.704262 -0.0021 0
0.157324 0.704261 -0.0019 0
0.157324 0.70426 -0.0019 0
0.157324 0.704259 -0.0019 0
0.157317 0.701258 -0.0019 0
0.157324 0.704258 -0.0019 0
0.157323 0.704257 -0.0017 0
0.157323 0.704257 -0.0017 0
0.157323 0.704255 -0.0021 0
0.157321 0.704252 -0.0021 0
0.157316 0.70225 -0.0017 0
0.157319 0.704249 -0.0017 0
0.157319 0.704247 -0.0019 0
0.157318 0.704246 -0.0019 0
0.157317 0.704244 -0.0017 0
0.157317 0.704244 -0.0017 0
0.157316 0.704243 -0.0019 0
0.157315 0.704242 -0.0019 0
0.15717 0.692268 -0.0019 0
0.157192 0.704267 -0.0019 0
0.157192 0.704266 -0.0023 0
0.157192 0.704265 -0.0023 0
0.157192 0.704264 -0.002 0
0.157191 0.704263 -0.002 0
0.157314 0.704235 -0.0016 0
0.157313 0.704234 -0.0016 0
0.15719 0.704261 -0.0025 0
0.15719 0.704259 -0.0025 0
0.157189 0.704257 -0.0012 0
0.157189 0.704255 -0.0012 0
0.157188 0.704254 -0.0017 0
0.157188 0.704253 -0.0019 0
0.157189 0.704252 -0.0019 0
0.157189 0.704251 -0.0019 0
0.15719 0.704249 -0.0018 0
0.15719 0.704248 -0.0016 0
0.157189 0.704247 -0.0016 0
0.157189 0.704246 -0.0016 0
0.15719 0.704244 -0.0018 0
0.157189 0.704243 -0.0014 0
0.157189 0.704242 -0.0014 0
0.157311 0.704213 -0.0014 0
0.157311 0.704212 -0.0022 0
0.157187 0.704238 -0.0022 0
0.157187 0.704237 -0.0016 0
0.157187 0.705235 -0.0016 0
0.157307 0.704207 -0.0016 0
0.157307 0.704205 -0.0019 0
0.157307 0.704203 -0.0021 0
0.157307 0.704202 -0.0021 0
0.157307 0.704201 -0.0021 0
0.157308 0.7042 -0.0018 0
0.157308 0.704198 -0.0018 0
0.157308 0.704194 -0.0021 0
0.157309 0.704194 -0.0021 0
0.157309 0.704193 -0.0018 0
0.15731 0.704193 -0.0018 0
0.15731 0.704193 -0.0023 0
0.15731 0.704193 -0.0023 0
0.15731 0.704192 -0.0023 0
0.157311 0.704191 -0.0015 0
0.157311 0.704191 -0.0015 0
0.157311 0.70419 -0.0015 0
0.157311 0.70419 -0.002 0
0.157311 0.704189 -0.002 0
0.157312 0.704186 -0.0017 0
0.157313 0.704184 -0.0017 0
0.157313 0.704183 -0.0019 0
0.157311 0.703182 -0.0018 0
0.157313 0.704181 -0.0018 0
0.157312 0.70418 -0.0018 0
0.157312 0.704179 -0.0022 0
0.157312 0.704178 -0.0022 0
0.157311 0.704177 -0.0018 0
0.157311 0.704176 -0.0018 0
0.157311 0.704176 -0.0018 0
0.157311 0.704175 -0.0017 0
0.157311 0.704171 -0.0017 0
0.157311 0.704169 -0.0017 0
0.157312 0.704167 -0.0017 0
0.157312 0.704165 -0.0015 0
0.157312 0.704165 -0.0015 0
0.157313 0.704165 -0.002 0
0.157314 0.704165 -0.002 0
0.157313 0.704163 -0.0014 0
0.157313 0.704163 -0.0014 0
0.157312 0.704162 -0.0015 0
0.157313 0.704163 -0.0015 0
0.157313 0.704162 -0.0015 0
0.157314 0.70416 -0.0025 0
0.157314 0.704159 -0.0014 0
0.157312 0.703157 -0.0014 0
0.157314 0.704156 -0.0014 0
0.157314 0.704155 -0.002 0
0.157314 0.704154 -0.002 0
0.157313 0.704151 -0.0015 0
0.157313 0.70415 -0.0015 0
0.157309 0.702148 -0.0015 0
0.157313 0.704146 -0.0015 0
0.157312 0.704146 -0.0015 0
0.157311 0.703144 -0.0015 0
0.157313 0.704142 -0.0015 0
0.157313 0.70414 -0.0019 0
0.157313 0.704139 -0.0022 0
0.157395 0.745139 -0.0022 0
0.157312 0.704139 -0.0022 0
0.157312 0.70414 -0.0016 0
0.157311 0.704139 -0.0016 0
0.157311 0.704139 -0.0017 0
0.157312 0.704138 -0.0017 0
0.157311 0.704138 -0.0017 0
0.157312 0.704135 -0.0018 0
0.157311 0.704134 -0.0021 0
0.157311 0.704133 -0.0021 0
0.157311 0.704132 -0.0021 0
0.157311 0.704132 -0.0017 0
0.157311 0.704131 -0.0017 0
0.15731 0.70413 -0.0018 0
0.157186 0.704156 -0.0018 0
0.157187 0.704154 -0.0021 0
0.157187 0.704154 -0.0021 0
0.157263 0.745152 -0.0023 0
0.157186 0.70415 -0.0023 0
0.157186 0.704149 -0.0017 0
0.157186 0.704148 -0.0017 0
0.157186 0.704146 -0.0018 0
0.157186 0.704145 -0.0018 0
0.157185 0.704144 -0.0023 0
0.157182 0.702143 -0.0023 0
0.157184 0.704142 -0.0016 0
0.157183 0.704141 -0.0016 0
0.157183 0.704141 -0.0017 0
0.157306 0.704112 -0.0017 0
0.157306 0.704111 -0.0026 0
0.157307 0.70411 -0.0026 0
0.157307 0.704109 -0.0026 0
0.157307 0.704108 -0.0023 0
0.157306 0.704107 -0.0023 0
0.157305 0.704106 -0.0017 0
0.157304 0.704105 -0.0017 0
0.157304 0.704104 -0.0016 0
0.157302 0.704104 -0.0016 0
0.157302 0.704103 -0.002 0
0.157302 0.704102 -0.002 0
0.157302 0.704101 -0.002 0
0.157301 0.7041 -0.0013 0
0.1573 0.704099 -0.0013 0
0.157296 0.703098 -0.0017 0
0.157297 0.704096 -0.0017 0
0.157297 0.704096 -0.0026 0
0.157296 0.704095 -0.0026 0
0.157295 0.704095 -0.0011 0
0.157294 0.704094 -0.0011 0
0.157294 0.704092 -0.0017 0
0.157294 0.704092 -0.0017 0
0.157294 0.70409 -0.0022 0
0.157293 0.70409 -0.0022 0
0.157293 0.704086 -0.0017 0
0.157293 0.704085 -0.0017 0
0.157292 0.704085 -0.0012 0
0.157292 0.704085 -0.0012 0
0.157168 0.70411 -0.0016 0
0.157291 0.704081 -0.0016 0
0.157291 0.70408 -0.0025 0
0.157168 0.704106 -0.0025 0
0.15717 0.704104 -0.0015 0
0.15717 0.704104 -0.0015 0
0.15717 0.704105 -0.0017 0
0.15717 0.704103 -0.0017 0
0.157164 0.701103 -0.0018 0
0.15717 0.704102 -0.0018 0
0.15717 0.704101 -0.0017 0
0.157169 0.7031 -0.0017 0
0.157172 0.704099 -0.0017 0
0.157171 0.704098 -0.002 0
0.157173 0.704098 -0.002 0
0.157174 0.704098 -0.0016 0
0.157174 0.704098 -0.0016 0
0.157174 0.704097 -0.0016 0
0.157174 0.704096 -0.0016 0
0.157175 0.704095 -0.002 0
0.157175 0.704094 -0.002 0
0.157175 0.704091 -0.002 0
0.157299 0.704063 -0.0015 0
0.157298 0.704062 -0.0015 0
0.157299 0.70406 -0.0017 0
0.1573 0.704059 -0.0017 0
0.1573 0.704058 -0.0021 0
0.157298 0.703057 -0.0021 0
0.1573 0.704056 -0.0022 0
0.1573 0.704055 -0.0022 0
0.1573 0.704054 -0.0022 0
0.1573 0.704053 -0.002 0
0.1573 0.704053 -0.002 0
0.157299 0.704051 -0.002 0
0.157298 0.704051 -0.002 0
0.157298 0.70405 -0.002 0
0.157297 0.70405 -0.002 0
0.157297 0.70405 -0.0018 0
0.157296 0.704049 -0.0018 0
0.157296 0.704048 -0.0018 0
0.157295 0.704047 -0.0022 0
0.157295 0.704047 -0.0015 0
0.157295 0.704047 -0.0015 0
0.157294 0.704047 -0.0015 0
0.15717 0.704073 -0.0022 0
0.157169 0.704074 -0.0015 0
0.15717 0.704074 -0.0015 0
0.15717 0.704074 -0.0015 0
0.15717 0.704072 -0.002 0
0.157169 0.704072 -0.0017 0
0.157292 0.704043 -0.0017 0
0.157292 0.704043 -0.0017 0
0.157167 0.704071 -0.0019 0
0.157167 0.70407 -0.002 0
0.157167 0.704069 -0.002 0
0.157167 0.704068 -0.0018 0
0.157167 0.704068 -0.0018 0
0.15729 0.704039 -0.002 0
0.157289 0.704038 -0.002 0
0.157289 0.704037 -0.0017 0
0.157288 0.704037 -0.0017 0
0.157164 0.704064 -0.0014 0
0.157285 0.704036 -0.0014 0
0.157284 0.704036 -0.002 0
0.157283 0.704036 -0.002 0
0.157283 0.704035 -0.002 0
0.157283 0.704034 -0.002 0
0.157282 0.704032 -0.002 0
0.157276 0.701031 -0.002 0
0.157282 0.70403 -0.002 0
0.157283 0.70403 -0.0016 0
0.157285 0.704028 -0.0016 0
0.157285 0.704027 -0.0023 0
0.157285 0.704025 -0.0023 0
0.157285 0.704025 -0.0012 0
0.157285 0.704024 -0.0012 0
0.157284 0.704022 -0.0018 0
0.157284 0.704022 -0.0018 0
0.157284 0.704021 -0.0024 0
0.157284 0.704021 -0.0024 0
0.157283 0.70402 -0.0024 0
0.157284 0.704018 -0.0014 0
0.157284 0.704017 -0.0022 0
0.157284 0.704017 -0.0022 0
0.157284 0.704016 -0.0022 0
0.157283 0.704016 -0.0021 0
0.15716 0.704042 -0.0021 0
0.157159 0.704041 -0.0017 0
0.157159 0.704039 -0.0017 0
0.157159 0.704037 -0.0017 0
0.157159 0.704036 -0.002 0
0.157159 0.704034 -0.0016 0
0.157158 0.704034 -0.0016 0
0.157158 0.704032 -0.0016 0
0.157158 0.704031 -0.0018 0
0.157158 0.704029 -0.0018 0
0.157158 0.704028 -0.0017 0
0.157158 0.704026 -0.0017 0
0.157158 0.704025 -0.0018 0
0.157157 0.704024 -0.0018 0
0.157157 0.704023 -0.0021 0
0.157157 0.704022 -0.0021 0
0.157157 0.704021 -0.0021 0
0.157151 0.70102 -0.0015 0
0.157156 0.704019 -0.0015 0
0.157157 0.704018 -0.0019 0
0.157156 0.704017 -0.0019 0
0.157156 0.704016 -0.0021 0
0.157156 0.704015 -0.0021 0
0.157156 0.704014 -0.0019 0
0.157157 0.704012 -0.0019 0
0.157157 0.704011 -0.0019 0
0.15728 0.703984 -0.0022 0
0.157279 0.702982 -0.0014 0
0.157281 0.703981 -0.0014 0
0.157281 0.703979 -0.0014 0
0.157281 0.703978 -0.0022 0
0.157281 0.703976 -0.0022 0
0.15728 0.703975 -0.0018 0
0.157279 0.703973 -0.0018 0
0.157156 0.704 -0.0018 0
0.157156 0.703999 -0.0021 0
0.157279 0.703971 -0.002 0
0.15728 0.70397 -0.002 0
0.15728 0.703969 -0.002 0
0.15728 0.703968 -0.0017 0
0.15728 0.703968 -0.0017 0
0.157274 0.700966 -0.0019 0
0.157281 0.703964 -0.0019 0
0.15728 0.703962 -0.002 0
0.15728 0.703961 -0.002 0
0.15728 0.70396 -0.0017 0
0.157279 0.703959 -0.0017 0
0.157278 0.703959 -0.0023 0
0.157279 0.703957 -0.0023 0
0.157279 0.703956 -0.0017 0
0.157279 0.703954 -0.0017 0
0.157279 0.703952 -0.0017 0
0.157279 0.703951 -0.0016 0
0.157278 0.70395 -0.002 0
0.157277 0.703948 -0.002 0
0.157276 0.703948 -0.002 0
0.157275 0.703947 -0.0017 0
0.157276 0.703946 -0.0017 0
0.157275 0.703946 -0.0022 0
0.157275 0.703945 -0.0022 0
0.157275 0.703944 -0.0018 0
0.157275 0.703943 -0.0018 0
0.157274 0.703943 -0.0018 0
0.157274 0.703943 -0.0018 0
0.157274 0.703942 -0.0018 0
0.157273 0.703941 -0.0018 0
0.157272 0.703941 -0.0018 0
0.157271 0.70394 -0.002 0
0.15727 0.703939 -0.002 0
0.15727 0.703938 -0.0019 0
0.15727 0.703938 -0.0019 0
0.15727 0.703937 -0.0019 0
0.157269 0.703936 -0.0019 0
0.157269 0.703935 -0.0019 0
0.157268 0.703934 -0.002 0
0.157268 0.703933 -0.002 0
0.157267 0.703931 -0.0017 0
0.157267 0.70393 -0.0017 0
0.157266 0.703929 -0.0016 0
0.157266 0.703929 -0.0016 0
0.157266 0.703927 -0.0026 0
0.157265 0.703926 -0.0026 0
0.157265 0.703925 -0.002 0
0.157265 0.703923 -0.002 0
0.157264 0.703921 -0.0017 0
0.157264 0.70392 -0.0017 0
0.157265 0.703919 -0.002 0
0.157265 0.703918 -0.002 0
0.157137 0.700946 -0.0014 0
0.157142 0.703945 -0.0014 0
0.157265 0.703917 -0.0019 0
0.157265 0.703917 -0.0019 0
0.157265 0.703916 -0.0018 0
0.157265 0.703915 -0.0018 0
0.157265 0.703914 -0.0018 0
0.157264 0.703913 -0.0021 0
0.157265 0.703912 -0.0021 0
0.157265 0.703911 -0.0019 0
0.157265 0.70391 -0.0019 0
0.157265 0.703909 -0.0017 0
0.157264 0.703909 -0.0017 0
0.157264 0.703906 -0.002 0
0.157263 0.703906 -0.002 0
0.157263 0.703905 -0.0017 0
0.157264 0.703905 -0.0017 0
0.157263 0.703904 -0.0021 0
0.157263 0.703903 -0.0021 0
0.157263 0.703902 -0.0018 0
0.157262 0.703901 -0.002 0
0.157262 0.703901 -0.002 0
0.157262 0.7039 -0.002 0
0.157262 0.7039 -0.0015 0
0.157262 0.703899 -0.0015 0
0.157263 0.703898 -0.0016 0
0.157264 0.703898 -0.0021 0
0.157264 0.703897 -0.0021 0
0.157257 0.700896 -0.0021 0
0.157263 0.703892 -0.002 0
0.157263 0.703891 -0.002 0
0.157263 0.703889 -0.0013 0
0.157264 0.703889 -0.0013 0
0.157264 0.703888 -0.0021 0
0.157264 0.703885 -0.0021 0
0.157264 0.703884 -0.0017 0
0.157264 0.703883 -0.0017 0
0.157264 0.703882 -0.0023 0
0.157264 0.703882 -0.0023 0
0.157264 0.703881 -0.0023 0
0.157264 0.70388 -0.0014 0
0.157264 0.70388 -0.0014 0
0.157263 0.703877 -0.002 0
0.157263 0.703876 -0.002 0
0.157263 0.703874 -0.0016 0
0.157262 0.703873 -0.0016 0
0.157263 0.703871 -0.0017 0
0.157262 0.70387 -0.0017 0
0.157261 0.703867 -0.002 0
0.157259 0.703866 -0.002 0
0.157258 0.703865 -0.0019 0
0.157258 0.703863 -0.0019 0
0.157257 0.703862 -0.002 0
0.157257 0.703861 -0.002 0
0.157257 0.70386 -0.0017 0
0.157256 0.70386 -0.0017 0
0.157255 0.70386 -0.0017 0
0.157255 0.70386 -0.0021 0
0.157255 0.703859 -0.0021 0
0.157255 0.703857 -0.0015 0
0.157255 0.703857 -0.0015 0
0.157255 0.703856 -0.0021 0
0.157255 0.703856 -0.0021 0
0.157255 0.703856 -0.0016 0
0.157255 0.703855 -0.0016 0
0.157255 0.703856 -0.0018 0
0.157255 0.703856 -0.0018 0
0.157255 0.703855 -0.0017 0
0.157254 0.703855 -0.0017 0
0.157255 0.703854 -0.0017 0
0.157256 0.703853 -0.0017 0
0.157257 0.703851 -0.0017 0
0.157257 0.703849 -0.0017 0
0.157257 0.703848 -0.0017 0
0.157257 0.703845 -0.0017 0
0.157257 0.703843 -0.0016 0
0.157256 0.703843 -0.0016 0
0.157256 0.703842 -0.0016 0
0.157132 0.703868 -0.002 0
0.157132 0.703867 -0.002 0
0.157132 0.703866 -0.002 0
0.157135 0.705864 -0.0016 0
0.157131 0.703863 -0.0016 0
0.157131 0.703862 -0.0016 0
0.157131 0.703861 -0.0016 0
0.157131 0.703861 -0.0016 0
0.15713 0.70386 -0.0016 0
0.157252 0.703832 -0.0022 0
0.157129 0.703859 -0.0022 0
0.157129 0.703859 -0.0022 0
0.157129 0.703857 -0.0017 0
0.157248 0.703828 -0.0023 0
0.157255 0.703827 -0.0023 0
0.157399 0.703798 -0.0023 0
0.158041 0.703658 0.0117 0
0.158265 0.703598 0.0482 0
0.158605 0.703509 0.0482 0
0.158852 0.702424 -0.0016 0
0.158883 0.702399 -0.0016 0
0.158914 0.702377 0.0337 0
0.158795 0.702403 0.0337 0
0.15865 0.702466 0.0337 0
0.15817 0.70262 0.0038 0
0.158034 0.702661 0.0089 0
0.158013 0.70167 0.0089 0
0.158 0.701677 0.0089 0
0.157985 0.701691 -0.0049 0
0.157983 0.701696 -0.0029 0
0.15786 0.701727 -0.0029 0
0.157737 0.701754 -0.0025 0
0.157741 0.700755 -0.0025 0
0.15751 0.701809 0.0037 0
0.157396 0.700832 0.0037 0
0.157147 0.70088 0.0102 0
0.157022 0.701901 0.0102 0
0.157014 0.700895 -0.000399999 0
0.156523 0.70099 -0.000399999 0
0.156528 0.701979 0.0051 0
0.156412 0.701995 0.0051 0
0.156422 0.70199 6.98492e-10 0
0.156421 0.700997 6.98492e-10 0
0.15642 0.701007 -0.000899999 0
0.156422 0.701016 -0.000899999 0
0.156423 0.70102 0.0036 0
0.15642 0.701024 0.0036 0
0.15642 0.701024 0.000100001 0
0.156421 0.701023 0.000100001 0
0.156422 0.701022 0.001 0
0.156425 0.701025 0.001 0
0.156427 0.701025 0.004 0
0.156428 0.701025 0.004 0
0.156431 0.701023 0.0016 0
0.156431 0.701021 0.0016 0
0.156433 0.702022 0.0012 0
0.156434 0.701023 0.0012 0
0.156433 0.701024 0.0036 0
0.156432 0.701025 0.0036 0
