ply
format ascii 1.0
element vertex 1726
property float x
property float y
property float z
property float intensity
end_header
-1.29417 0.105189 -0.0049 0
-1.29416 0.105188 -0.0049 0
-1.29416 0.105186 -0.0045 0
-1.29416 0.105185 -0.0045 0
-1.29416 0.105185 -0.0043 0
-1.29416 0.105185 -0.0043 0
-1.29416 0.105184 -0.0046 0
-1.29416 0.105183 -0.0046 0
-1.29206 0.103038 -0.0048 0
-1.29416 0.105183 -0.0048 0
-1.29416 0.105182 -0.0042 0
-1.29416 0.105182 -0.0042 0
-1.29416 0.105181 -0.0042 0
-1.29416 0.105181 -0.0045 0
-1.29415 0.10518 -0.0045 0
-1.29405 0.105246 -0.0043 0
-1.29415 0.10518 -0.0043 0
-1.29415 0.10518 -0.0045 0
-1.29404 0.105247 -0.0045 0
-1.29404 0.105247 -0.0043 0
-1.29415 0.10518 -0.0043 0
-1.29415 0.105179 -0.0043 0
-1.29415 0.105179 -0.0039 0
-1.29415 0.105179 -0.0039 0
-1.29415 0.105179 -0.0039 0
-1.29404 0.105244 -0.0044 0
-1.29404 0.105243 -0.0044 0
-1.29414 0.105176 -0.0046 0
-1.29414 0.105175 -0.0046 0
-1.29414 0.105173 -0.0042 0
-1.29414 0.105172 -0.0042 0
-1.29403 0.105237 -0.0048 0
-1.29403 0.105236 -0.0048 0
-1.29403 0.105235 -0.0048 0
-1.29403 0.105235 -0.0039 0
-1.29403 0.105234 -0.0039 0
-1.29403 0.105233 -0.0043 0
-1.29403 0.105233 -0.0043 0
-1.29414 0.105166 -0.0041 0
-1.29414 0.105166 -0.0041 0
-1.29414 0.105166 -0.0041 0
-1.29413 0.105166 -0.0047 0
-1.29413 0.105164 -0.0044 0
-1.29413 0.105163 -0.0044 0
-1.29413 0.105162 -0.0044 0
-1.29413 0.105161 -0.0046 0
-1.29413 0.10516 -0.0046 0
-1.29402 0.105226 -0.0046 0
-1.29402 0.105225 -0.0045 0
-1.29413 0.105157 -0.0041 0
-1.29413 0.105156 -0.0041 0
-1.29413 0.105155 -0.0036 0
-1.29413 0.105154 -0.0036 0
-1.29413 0.105154 -0.0036 0
-1.29413 0.105154 -0.0049 0
-1.29412 0.105154 -0.0049 0
-1.29412 0.105154 -0.0048 0
-1.29412 0.105154 -0.0048 0
-1.29412 0.105153 -0.0035 0
-1.29412 0.105153 -0.0035 0
-1.29412 0.105153 -0.0047 0
-1.29412 0.105153 -0.0047 0
-1.29412 0.105151 -0.0047 0
-1.29412 0.10515 -0.0043 0
-1.29412 0.105149 -0.0043 0
-1.29412 0.105147 -0.0045 0
-1.29412 0.105145 -0.0045 0
-1.29412 0.105144 -0.0045 0
-1.29412 0.105141 -0.0046 0
-1.29412 0.105139 -0.0046 0
-1.29412 0.105138 -0.0047 0
-1.29412 0.105137 -0.0047 0
-1.29411 0.105136 -0.0047 0
-1.29411 0.105135 -0.0043 0
-1.29411 0.105134 -0.0054 0
-1.29411 0.105133 -0.0054 0
-1.29411 0.105131 -0.0054 0
-1.29411 0.10513 -0.004 0
-1.29411 0.105129 -0.004 0
-1.294 0.105194 -0.0044 0
-1.294 0.105194 -0.0044 0
-1.294 0.105194 -0.0044 0
-1.294 0.105193 -0.0046 0
-1.294 0.105193 -0.0046 0
-1.294 0.105192 -0.0043 0
-1.294 0.105191 -0.0043 0
-1.294 0.10519 -0.0043 0
-1.294 0.105189 -0.0048 0
-1.294 0.105188 -0.0048 0
-1.294 0.105188 -0.0047 0
-1.294 0.105186 -0.0047 0
-1.294 0.105186 -0.0044 0
-1.294 0.105185 -0.0044 0
-1.2941 0.105119 -0.0048 0
-1.2941 0.105118 -0.0048 0
-1.2941 0.105118 -0.0048 0
-1.2941 0.105115 -0.0042 0
-1.2941 0.105115 -0.0042 0
-1.2941 0.105113 -0.0042 0
-1.2941 0.105112 -0.0042 0
-1.2941 0.10511 -0.0042 0
-1.2941 0.105109 -0.0046 0
-1.2941 0.10511 -0.0046 0
-1.2941 0.105109 -0.0047 0
-1.2941 0.105108 -0.0047 0
-1.29399 0.105175 -0.0046 0
-1.29399 0.105175 -0.0046 0
-1.29399 0.105175 -0.0046 0
-1.29399 0.105174 -0.0045 0
-1.29399 0.105174 -0.0045 0
-1.29409 0.105105 -0.004 0
-1.29409 0.105103 -0.004 0
-1.29409 0.105102 -0.0044 0
-1.29398 0.105167 -0.0044 0
-1.29398 0.105165 -0.0049 0
-1.29398 0.105164 -0.0049 0
-1.29398 0.105162 -0.0049 0
-1.29398 0.105161 -0.005 0
-1.29398 0.10516 -0.005 0
-1.29398 0.105159 -0.0044 0
-1.29398 0.105157 -0.0044 0
-1.29397 0.105154 -0.0043 0
-1.29397 0.105153 -0.0043 0
-1.29397 0.105152 -0.0052 0
-1.29397 0.10515 -0.0052 0
-1.29397 0.105149 -0.0052 0
-1.29397 0.105148 -0.0042 0
-1.29397 0.105147 -0.0042 0
-1.29397 0.105145 -0.0049 0
-1.29408 0.105077 -0.0049 0
-1.29408 0.105075 -0.0044 0
-1.29397 0.10514 -0.0044 0
-1.29407 0.105073 -0.0048 0
-1.29407 0.105071 -0.0048 0
-1.29407 0.10507 -0.0048 0
-1.29407 0.105069 -0.0046 0
-1.29407 0.105069 -0.0046 0
-1.29407 0.105067 -0.0043 0
-1.29407 0.105066 -0.0043 0
-1.29407 0.105065 -0.0048 0
-1.29407 0.105064 -0.0048 0
-1.29407 0.105063 -0.0043 0
-1.29407 0.105062 -0.0043 0
-1.29407 0.10506 -0.0044 0
-1.29407 0.105059 -0.0044 0
-1.29406 0.105058 -0.0044 0
-1.29406 0.105057 -0.0047 0
-1.29406 0.105056 -0.0047 0
-1.29406 0.105054 -0.0046 0
-1.29396 0.105118 -0.0045 0
-1.29197 0.102906 -0.0045 0
-1.29406 0.10505 -0.0045 0
-1.29406 0.105049 -0.0045 0
-1.29406 0.105047 -0.0045 0
-1.29406 0.105046 -0.0043 0
-1.29406 0.105045 -0.0043 0
-1.29406 0.105044 -0.0043 0
-1.29406 0.105043 -0.005 0
-1.29406 0.105042 -0.0048 0
-1.29406 0.105042 -0.0048 0
-1.29406 0.10504 -0.0048 0
-1.29406 0.105039 -0.0039 0
-1.29406 0.105038 -0.0039 0
-1.29405 0.105038 -0.005 0
-1.29405 0.105037 -0.005 0
-1.29405 0.105037 -0.0047 0
-1.29405 0.105037 -0.0047 0
-1.29405 0.105036 -0.0047 0
-1.29405 0.105037 -0.0038 0
-1.29405 0.105036 -0.0038 0
-1.29405 0.105035 -0.0047 0
-1.29405 0.105035 -0.0047 0
-1.29405 0.105034 -0.0044 0
-1.29405 0.105034 -0.0044 0
-1.29405 0.105034 -0.0043 0
-1.29405 0.105033 -0.0043 0
-1.29405 0.105034 -0.0042 0
-1.29405 0.105034 -0.0042 0
-1.29405 0.105034 -0.0047 0
-1.29405 0.105033 -0.0047 0
-1.29405 0.105033 -0.0044 0
-1.29405 0.105032 -0.0044 0
-1.29405 0.105031 -0.0047 0
-1.29335 0.104314 -0.0047 0
-1.29405 0.105028 -0.0047 0
-1.29405 0.105027 -0.0047 0
-1.29405 0.105025 -0.0045 0
-1.29405 0.105024 -0.0045 0
-1.29405 0.105023 -0.0043 0
-1.29405 0.105023 -0.0043 0
-1.29405 0.105021 -0.0043 0
-1.29404 0.105021 -0.0043 0
-1.29405 0.105021 -0.0043 0
-1.29404 0.10502 -0.0043 0
-1.29404 0.105019 -0.0043 0
-1.29404 0.105018 -0.0044 0
-1.29404 0.105017 -0.0044 0
-1.29404 0.105016 -0.0045 0
-1.29404 0.105015 -0.0045 0
-1.29404 0.105014 -0.0045 0
-1.29404 0.105013 -0.0049 0
-1.29404 0.105012 -0.0049 0
-1.29404 0.105011 -0.0043 0
-1.29404 0.10501 -0.0043 0
-1.29404 0.105008 -0.0047 0
-1.29403 0.105007 -0.0047 0
-1.29403 0.105007 -0.0041 0
-1.29403 0.105006 -0.0041 0
-1.29403 0.105006 -0.0041 0
-1.29333 0.10429 -0.0044 0
-1.29403 0.105004 -0.0044 0
-1.29403 0.105004 -0.0048 0
-1.29403 0.105003 -0.0048 0
-1.29392 0.105069 -0.0043 0
-1.29392 0.105068 -0.0043 0
-1.29392 0.105067 -0.0042 0
-1.29392 0.105066 -0.0042 0
-1.29392 0.105065 -0.0042 0
-1.29392 0.105064 -0.0046 0
-1.29392 0.105064 -0.0046 0
-1.29392 0.105062 -0.0043 0
-1.29392 0.105062 -0.0043 0
-1.29392 0.105062 -0.0046 0
-1.29392 0.105061 -0.0046 0
-1.29392 0.105061 -0.0046 0
-1.29392 0.10506 -0.0047 0
-1.29252 0.103629 -0.0047 0
-1.29391 0.105057 -0.0043 0
-1.29391 0.105056 -0.0043 0
-1.29391 0.105056 -0.0048 0
-1.29391 0.105055 -0.0048 0
-1.29391 0.105053 -0.0041 0
-1.29391 0.105052 -0.0041 0
-1.29391 0.105051 -0.0046 0
-1.29391 0.105048 -0.0046 0
-1.29391 0.105047 -0.0045 0
-1.29391 0.105048 -0.0045 0
-1.29391 0.105047 -0.0045 0
-1.29391 0.105046 -0.0045 0
-1.29391 0.105046 -0.0045 0
-1.29391 0.105045 -0.0048 0
-1.29391 0.105044 -0.0048 0
-1.29401 0.104977 -0.0041 0
-1.29401 0.104976 -0.0041 0
-1.29401 0.104975 -0.0041 0
-1.29331 0.10426 -0.0047 0
-1.29401 0.104974 -0.0047 0
-1.29401 0.104974 -0.0034 0
-1.29331 0.104259 -0.0034 0
-1.29401 0.104973 -0.0034 0
-1.29401 0.104973 -0.0052 0
-1.29401 0.104973 -0.0052 0
-1.29401 0.104972 -0.0047 0
-1.294 0.104972 -0.0047 0
-1.294 0.104971 -0.0046 0
-1.294 0.10497 -0.0046 0
-1.294 0.104969 -0.0045 0
-1.294 0.104968 -0.0045 0
-1.294 0.104967 -0.0038 0
-1.294 0.104967 -0.0038 0
-1.294 0.104966 -0.004 0
-1.294 0.104966 -0.004 0
-1.294 0.104965 -0.004 0
-1.294 0.104964 -0.005 0
-1.294 0.104964 -0.005 0
-1.294 0.104963 -0.005 0
-1.294 0.104963 -0.0049 0
-1.29399 0.104961 -0.0047 0
-1.29399 0.104961 -0.0047 0
-1.29399 0.10496 -0.0047 0
-1.29399 0.104959 -0.0043 0
-1.29399 0.104959 -0.0043 0
-1.29399 0.104957 -0.0043 0
-1.29399 0.104956 -0.0046 0
-1.29399 0.104955 -0.0046 0
-1.29399 0.104954 -0.0046 0
-1.29399 0.104954 -0.005 0
-1.29399 0.104953 -0.005 0
-1.29399 0.104953 -0.0045 0
-1.29399 0.104952 -0.0045 0
-1.29399 0.104952 -0.0045 0
-1.29399 0.104951 -0.0044 0
-1.29399 0.104949 -0.0044 0
-1.29399 0.104948 -0.004 0
-1.29399 0.104948 -0.004 0
-1.29399 0.104947 -0.0044 0
-1.29399 0.104947 -0.0044 0
-1.29329 0.104231 -0.0042 0
-1.29399 0.104945 -0.0042 0
-1.29399 0.104944 -0.0042 0
-1.29399 0.104943 -0.0046 0
-1.29399 0.104942 -0.0046 0
-1.29399 0.104941 -0.0046 0
-1.29399 0.104939 -0.0042 0
-1.29399 0.104939 -0.0041 0
-1.29399 0.104938 -0.0041 0
-1.29399 0.104937 -0.0045 0
-1.29259 0.103507 -0.0045 0
-1.29399 0.104937 -0.0045 0
-1.29399 0.104936 -0.0046 0
-1.29399 0.104934 -0.0046 0
-1.29399 0.104933 -0.0044 0
-1.29399 0.104932 -0.0044 0
-1.29399 0.104932 -0.0046 0
-1.29399 0.104931 -0.0046 0
-1.29399 0.10493 -0.0041 0
-1.29399 0.104929 -0.0041 0
-1.29399 0.104929 -0.0043 0
-1.29399 0.104929 -0.0043 0
-1.29399 0.104928 -0.0048 0
-1.29399 0.104926 -0.0048 0
-1.29388 0.104992 -0.0044 0
-1.29388 0.104991 -0.0044 0
-1.29178 0.102846 -0.0045 0
-1.29398 0.104923 -0.0045 0
-1.29398 0.104922 -0.0045 0
-1.29388 0.104987 -0.0045 0
-1.29387 0.104986 -0.0041 0
-1.29387 0.104986 -0.0041 0
-1.29387 0.104985 -0.0041 0
-1.29387 0.104984 -0.0047 0
-1.29387 0.104983 -0.0043 0
-1.29387 0.104982 -0.0043 0
-1.29387 0.104981 -0.0043 0
-1.29387 0.10498 -0.0046 0
-1.29387 0.10498 -0.0046 0
-1.29386 0.10498 -0.0044 0
-1.29386 0.104979 -0.0044 0
-1.29386 0.104978 -0.0045 0
-1.29386 0.104977 -0.0045 0
-1.29386 0.104977 -0.0043 0
-1.29386 0.104976 -0.0043 0
-1.29386 0.104975 -0.0044 0
-1.29386 0.104975 -0.0044 0
-1.29385 0.104974 -0.0047 0
-1.29385 0.104974 -0.0047 0
-1.29385 0.104972 -0.005 0
-1.29385 0.104971 -0.005 0
-1.29385 0.10497 -0.0046 0
-1.29385 0.104969 -0.0046 0
-1.29385 0.104968 -0.0044 0
-1.29385 0.104968 -0.0044 0
-1.29385 0.104968 -0.0045 0
-1.29395 0.104899 -0.0045 0
-1.29395 0.104898 -0.0045 0
-1.29395 0.104897 -0.0045 0
-1.29395 0.104896 -0.0048 0
-1.29395 0.104894 -0.0048 0
-1.29395 0.104894 -0.0046 0
-1.29395 0.104893 -0.0046 0
-1.29394 0.104892 -0.0046 0
-1.29394 0.104889 -0.0044 0
-1.29394 0.104888 -0.0041 0
-1.29394 0.104887 -0.0041 0
-1.29394 0.104887 -0.0044 0
-1.29394 0.104886 -0.0044 0
-1.29394 0.104886 -0.0044 0
-1.29394 0.104885 -0.0044 0
-1.29394 0.104885 -0.0044 0
-1.29394 0.104885 -0.0043 0
-1.29394 0.104885 -0.0043 0
-1.29393 0.104884 -0.0043 0
-1.29393 0.104882 -0.0042 0
-1.29383 0.104948 -0.0042 0
-1.29393 0.104881 -0.0047 0
-1.29393 0.10488 -0.0047 0
-1.29393 0.104881 -0.0046 0
-1.29393 0.104881 -0.0046 0
-1.29393 0.10488 -0.0047 0
-1.29383 0.104947 -0.0047 0
-1.29383 0.104947 -0.0047 0
-1.29383 0.104946 -0.0046 0
-1.29393 0.10488 -0.0046 0
-1.29393 0.10488 -0.0046 0
-1.29393 0.10488 -0.0046 0
-1.29393 0.10488 -0.0047 0
-1.29383 0.104945 -0.0047 0
-1.29383 0.104946 -0.0043 0
-1.29383 0.104945 -0.0043 0
-1.29383 0.104945 -0.0043 0
-1.29382 0.104945 -0.0046 0
-1.29312 0.10423 -0.0046 0
-1.29382 0.104944 -0.0042 0
-1.29382 0.104944 -0.0042 0
-1.29382 0.104942 -0.0043 0
-1.29382 0.104942 -0.0048 0
-1.29382 0.104941 -0.0048 0
-1.29392 0.104875 -0.0039 0
-1.29392 0.104875 -0.0039 0
-1.29392 0.104874 -0.0039 0
-1.29392 0.104873 -0.0044 0
-1.29392 0.104871 -0.0048 0
-1.29392 0.10487 -0.0048 0
-1.29392 0.104869 -0.0046 0
-1.29381 0.104934 -0.0046 0
-1.29381 0.104932 -0.0047 0
-1.29311 0.104216 -0.0047 0
-1.29381 0.10493 -0.0047 0
-1.29381 0.104928 -0.0047 0
-1.29381 0.104926 -0.0046 0
-1.29381 0.104925 -0.0046 0
-1.29381 0.104923 -0.0043 0
-1.29381 0.104921 -0.0043 0
-1.2938 0.104918 -0.0044 0
-1.2938 0.104916 -0.0044 0
-1.2938 0.104914 -0.0043 0
-1.2938 0.104911 -0.0043 0
-1.2938 0.10491 -0.0042 0
-1.2938 0.104909 -0.0042 0
-1.2938 0.104907 -0.0041 0
-1.2938 0.104906 -0.0041 0
-1.2938 0.104904 -0.0041 0
-1.2939 0.104836 -0.0042 0
-1.2939 0.104833 -0.0042 0
-1.2939 0.104832 -0.0044 0
-1.2939 0.104829 -0.0044 0
-1.2939 0.104828 -0.0045 0
-1.2939 0.104826 -0.0045 0
-1.29379 0.10489 -0.0046 0
-1.29379 0.10489 -0.0046 0
-1.29379 0.104889 -0.0043 0
-1.29379 0.104888 -0.0043 0
-1.29379 0.104887 -0.0037 0
-1.29378 0.104886 -0.0037 0
-1.29378 0.104886 -0.0045 0
-1.29378 0.104885 -0.0045 0
-1.29378 0.104885 -0.0046 0
-1.29378 0.104885 -0.0046 0
-1.29389 0.104817 -0.0042 0
-1.29389 0.104817 -0.0044 0
-1.29389 0.104816 -0.0044 0
-1.29389 0.104816 -0.0044 0
-1.29388 0.104814 -0.0047 0
-1.29378 0.10488 -0.0044 0
-1.29378 0.10488 -0.0044 0
-1.29378 0.104879 -0.0044 0
-1.29378 0.104878 -0.0046 0
-1.29377 0.104876 -0.0046 0
-1.29377 0.104875 -0.0046 0
-1.29377 0.104874 -0.0046 0
-1.29377 0.104874 -0.0046 0
-1.29377 0.104873 -0.0044 0
-1.29377 0.104872 -0.0044 0
-1.29377 0.104871 -0.0044 0
-1.29377 0.10487 -0.0043 0
-1.29377 0.10487 -0.0043 0
-1.29377 0.104869 -0.0043 0
-1.29377 0.104869 -0.0046 0
-1.29377 0.104868 -0.0046 0
-1.29377 0.104867 -0.0046 0
-1.29377 0.104866 -0.0046 0
-1.29376 0.104863 -0.0043 0
-1.29376 0.104863 -0.0043 0
-1.29376 0.104862 -0.0047 0
-1.29376 0.104862 -0.0047 0
-1.29376 0.104861 -0.0039 0
-1.29376 0.10486 -0.0039 0
-1.29376 0.104859 -0.0039 0
-1.29376 0.104859 -0.0042 0
-1.29376 0.104858 -0.0042 0
-1.29376 0.104857 -0.0043 0
-1.29376 0.104856 -0.0043 0
-1.29376 0.104855 -0.0047 0
-1.29376 0.104854 -0.0047 0
-1.29376 0.104853 -0.0047 0
-1.29376 0.104852 -0.0045 0
-1.29376 0.104851 -0.0045 0
-1.29376 0.104849 -0.0045 0
-1.29376 0.104847 -0.0045 0
-1.29376 0.104847 -0.0043 0
-1.29376 0.104846 -0.0043 0
-1.29376 0.104844 -0.0042 0
-1.29376 0.104843 -0.0042 0
-1.29376 0.104841 -0.0047 0
-1.29376 0.10484 -0.0047 0
-1.29376 0.104838 -0.0045 0
-1.29376 0.104838 -0.0045 0
-1.29376 0.104836 -0.0045 0
-1.29376 0.104836 -0.0045 0
-1.29376 0.104835 -0.0044 0
-1.29387 0.104766 -0.0041 0
-1.29387 0.104764 -0.0041 0
-1.29387 0.104762 -0.0041 0
-1.28617 0.096899 -0.0047 0
-1.29387 0.104761 -0.0047 0
-1.29387 0.10476 -0.0047 0
-1.29387 0.104759 -0.0048 0
-1.29387 0.104758 -0.0048 0
-1.29387 0.104757 -0.0042 0
-1.29386 0.104756 -0.0042 0
-1.29386 0.104755 -0.0047 0
-1.29386 0.104755 -0.0047 0
-1.29386 0.104754 -0.0051 0
-1.29386 0.104754 -0.0051 0
-1.29386 0.104753 -0.0044 0
-1.29386 0.104751 -0.0044 0
-1.29386 0.10475 -0.0044 0
-1.29386 0.10475 -0.0045 0
-1.29386 0.104751 -0.0045 0
-1.29386 0.104753 -0.0053 0
-1.29386 0.104753 -0.0053 0
-1.29385 0.104753 -0.0042 0
-1.29385 0.104753 -0.0042 0
-1.29385 0.104753 -0.0042 0
-1.29385 0.104752 -0.0042 0
-1.29375 0.104816 -0.004 0
-1.29375 0.104816 -0.004 0
-1.29375 0.104815 -0.0049 0
-1.29374 0.104814 -0.0049 0
-1.29374 0.104814 -0.0049 0
-1.29374 0.104813 -0.0046 0
-1.29374 0.104813 -0.0046 0
-1.29385 0.104746 -0.0041 0
-1.29385 0.104745 -0.0041 0
-1.29385 0.104745 -0.0045 0
-1.29385 0.104744 -0.0045 0
-1.29385 0.104744 -0.0045 0
-1.29385 0.104744 -0.0043 0
-1.29385 0.104744 -0.0043 0
-1.29385 0.104743 -0.0049 0
-1.29374 0.104808 -0.0044 0
-1.29374 0.104807 -0.0044 0
-1.29384 0.104739 -0.0044 0
-1.29384 0.104739 -0.0042 0
-1.29384 0.104739 -0.0042 0
-1.29384 0.104738 -0.0048 0
-1.29384 0.104736 -0.0048 0
-1.29384 0.104736 -0.0044 0
-1.29384 0.104735 -0.0044 0
-1.29383 0.104734 -0.0044 0
-1.29383 0.104734 -0.0044 0
-1.29373 0.104799 -0.0044 0
-1.29383 0.104733 -0.005 0
-1.29442 0.105514 -0.005 0
-1.29383 0.104732 -0.005 0
-1.29372 0.104799 -0.0049 0
-1.29372 0.104798 -0.0049 0
-1.29372 0.104796 -0.0047 0
-1.29372 0.104796 -0.0043 0
-1.29232 0.103366 -0.0043 0
-1.29372 0.104795 -0.0043 0
-1.29372 0.104795 -0.0043 0
-1.29372 0.104793 -0.0043 0
-1.29383 0.104726 -0.0043 0
-1.29372 0.104792 -0.0045 0
-1.29372 0.104792 -0.0046 0
-1.29382 0.104724 -0.0046 0
-1.29382 0.104724 -0.0046 0
-1.29382 0.104723 -0.0042 0
-1.29382 0.10472 -0.0048 0
-1.29371 0.104785 -0.0048 0
-1.29371 0.104785 -0.004 0
-1.29371 0.104785 -0.004 0
-1.29371 0.104785 -0.004 0
-1.29371 0.104784 -0.0052 0
-1.29371 0.104783 -0.0052 0
-1.29371 0.104782 -0.0046 0
-1.2937 0.104779 -0.0046 0
-1.2937 0.104778 -0.0044 0
-1.2937 0.104777 -0.0044 0
-1.2937 0.104777 -0.0048 0
-1.2937 0.104777 -0.0048 0
-1.29381 0.104709 -0.0048 0
-1.29381 0.104708 -0.0043 0
-1.29381 0.104706 -0.0044 0
-1.29381 0.104704 -0.0044 0
-1.29381 0.104704 -0.0044 0
-1.29381 0.104703 -0.0048 0
-1.29381 0.104703 -0.0048 0
-1.29381 0.104703 -0.0048 0
-1.29381 0.104703 -0.0044 0
-1.29381 0.104703 -0.0046 0
-1.29381 0.104702 -0.0046 0
-1.29381 0.104701 -0.0046 0
-1.2938 0.1047 -0.0042 0
-1.2938 0.104699 -0.0042 0
-1.2938 0.104698 -0.0046 0
-1.2938 0.104697 -0.0047 0
-1.2938 0.104695 -0.0047 0
-1.2938 0.104694 -0.0045 0
-1.2938 0.104693 -0.0045 0
-1.2938 0.104692 -0.0044 0
-1.2938 0.10469 -0.0044 0
-1.2938 0.104689 -0.0041 0
-1.29379 0.104689 -0.0041 0
-1.29379 0.104689 -0.0045 0
-1.29379 0.104687 -0.0045 0
-1.29379 0.104686 -0.0045 0
-1.29379 0.104685 -0.0045 0
-1.29379 0.104685 -0.0041 0
-1.29379 0.104684 -0.0041 0
-1.29379 0.104683 -0.0042 0
-1.29379 0.104683 -0.0042 0
-1.29379 0.104682 -0.0045 0
-1.29379 0.104681 -0.0045 0
-1.29379 0.104681 -0.0042 0
-1.29379 0.104681 -0.0042 0
-1.29379 0.10468 -0.0047 0
-1.29379 0.10468 -0.0047 0
-1.29379 0.104679 -0.0041 0
-1.29379 0.104679 -0.0041 0
-1.29379 0.104679 -0.0041 0
-1.29379 0.104679 -0.0041 0
-1.29379 0.104679 -0.0046 0
-1.29379 0.104679 -0.0046 0
-1.29378 0.104678 -0.0046 0
-1.29378 0.104677 -0.0045 0
-1.29378 0.104677 -0.0045 0
-1.29378 0.104676 -0.0041 0
-1.29378 0.104674 -0.0041 0
-1.29378 0.104673 -0.0043 0
-1.29378 0.104672 -0.0043 0
-1.29378 0.104672 -0.0043 0
-1.29378 0.104671 -0.0042 0
-1.29378 0.104671 -0.0042 0
-1.29378 0.10467 -0.0042 0
-1.29377 0.10467 -0.0046 0
-1.29167 0.102524 -0.0046 0
-1.29377 0.104668 -0.0046 0
-1.29377 0.104668 -0.0046 0
-1.29377 0.104668 -0.0045 0
-1.29377 0.104667 -0.0045 0
-1.29377 0.104667 -0.0045 0
-1.29377 0.104666 -0.0048 0
-1.29377 0.104665 -0.0048 0
-1.29377 0.104665 -0.0042 0
-1.29377 0.104664 -0.0048 0
-1.29376 0.104664 -0.0048 0
-1.29376 0.104664 -0.0048 0
-1.29376 0.104663 -0.0049 0
-1.29376 0.104663 -0.0049 0
-1.29376 0.104662 -0.0049 0
-1.29376 0.104661 -0.0045 0
-1.29376 0.10466 -0.0045 0
-1.29376 0.104659 -0.0043 0
-1.29376 0.104658 -0.0043 0
-1.29376 0.104658 -0.0046 0
-1.29376 0.104658 -0.0046 0
-1.29376 0.104657 -0.0042 0
-1.29376 0.104656 -0.0042 0
-1.29376 0.104656 -0.0049 0
-1.29376 0.104655 -0.0049 0
-1.29376 0.104655 -0.0049 0
-1.29376 0.104655 -0.0043 0
-1.29376 0.104655 -0.0043 0
-1.29376 0.104654 -0.0045 0
-1.29376 0.104654 -0.0045 0
-1.29376 0.104653 -0.0045 0
-1.29376 0.104652 -0.0046 0
-1.29376 0.104653 -0.0046 0
-1.29376 0.104653 -0.0044 0
-1.29375 0.104652 -0.0044 0
-1.29375 0.104652 -0.0044 0
-1.29375 0.104652 -0.004 0
-1.29375 0.104652 -0.0044 0
-1.29375 0.104652 -0.0044 0
-1.29375 0.104652 -0.0044 0
-1.29165 0.102507 -0.0043 0
-1.29375 0.104651 -0.0043 0
-1.29375 0.104651 -0.0043 0
-1.29375 0.104651 -0.0043 0
-1.29375 0.104651 -0.0043 0
-1.29375 0.10465 -0.0044 0
-1.29375 0.10465 -0.0044 0
-1.29374 0.104649 -0.0041 0
-1.29374 0.104648 -0.0041 0
-1.29374 0.104647 -0.0039 0
-1.29374 0.104647 -0.0039 0
-1.29374 0.104647 -0.0042 0
-1.29374 0.104647 -0.0042 0
-1.29374 0.104647 -0.0042 0
-1.29374 0.104645 -0.0045 0
-1.29374 0.104644 -0.0042 0
-1.29374 0.104643 -0.0042 0
-1.29374 0.104642 -0.0042 0
-1.29304 0.103927 -0.0045 0
-1.29374 0.104642 -0.0045 0
-1.29373 0.104642 -0.0043 0
-1.29373 0.104642 -0.0043 0
-1.29373 0.104642 -0.0045 0
-1.29373 0.104642 -0.0045 0
-1.29373 0.104641 -0.0044 0
-1.29373 0.104641 -0.0044 0
-1.29373 0.10464 -0.0044 0
-1.29373 0.104639 -0.0042 0
-1.29373 0.104638 -0.0049 0
-1.29373 0.104636 -0.0049 0
-1.29373 0.104635 -0.0049 0
-1.29373 0.104634 -0.0043 0
-1.29373 0.104634 -0.0043 0
-1.29373 0.104634 -0.0048 0
-1.29163 0.102489 -0.0048 0
-1.29373 0.104633 -0.0048 0
-1.29373 0.104633 -0.0045 0
-1.29373 0.104632 -0.0045 0
-1.29373 0.10463 -0.0045 0
-1.29373 0.104628 -0.0046 0
-1.29373 0.104627 -0.0043 0
-1.29373 0.104625 -0.0043 0
-1.29373 0.104624 -0.0047 0
-1.29373 0.104622 -0.0047 0
-1.29372 0.104621 -0.0044 0
-1.29372 0.10462 -0.0044 0
-1.29372 0.104618 -0.0045 0
-1.29372 0.104618 -0.0045 0
-1.29372 0.104617 -0.0048 0
-1.29372 0.104615 -0.0048 0
-1.29372 0.104614 -0.0044 0
-1.29372 0.104613 -0.0044 0
-1.29372 0.104612 -0.0044 0
-1.29232 0.103181 -0.005 0
-1.29372 0.10461 -0.005 0
-1.29232 0.10318 -0.0047 0
-1.29372 0.10461 -0.0047 0
-1.29372 0.104609 -0.0044 0
-1.29372 0.104608 -0.0044 0
-1.29372 0.104606 -0.0049 0
-1.29372 0.104605 -0.0049 0
-1.29372 0.104604 -0.0049 0
-1.29361 0.104668 -0.004 0
-1.29361 0.104668 -0.0044 0
-1.29361 0.104668 -0.0044 0
-1.29361 0.104668 -0.0044 0
-1.29372 0.104601 -0.0045 0
-1.29371 0.1046 -0.0044 0
-1.29361 0.104666 -0.0044 0
-1.29361 0.104665 -0.0044 0
-1.29371 0.104598 -0.0043 0
-1.29371 0.104598 -0.0044 0
-1.29371 0.104598 -0.0044 0
-1.32238 0.133904 -0.0044 0
-1.29371 0.104599 -0.0046 0
-1.29301 0.103884 -0.0046 0
-1.29371 0.104597 -0.0046 0
-1.29371 0.104597 -0.0046 0
-1.2936 0.104663 -0.0043 0
-1.2936 0.104662 -0.0043 0
-1.2936 0.10466 -0.0045 0
-1.2936 0.10466 -0.0045 0
-1.2936 0.10466 -0.0043 0
-1.2936 0.10466 -0.0043 0
-1.2936 0.10466 -0.0046 0
-1.29359 0.10466 -0.0046 0
-1.29359 0.104658 -0.0041 0
-1.29359 0.104658 -0.0041 0
-1.29359 0.104657 -0.0041 0
-1.29359 0.104655 -0.0046 0
-1.29359 0.104654 -0.0045 0
-1.29359 0.104652 -0.0045 0
-1.29359 0.104652 -0.0045 0
-1.29359 0.10465 -0.0041 0
-1.29359 0.10465 -0.0041 0
-1.29359 0.104649 -0.0047 0
-1.29359 0.104648 -0.0046 0
-1.29359 0.104648 -0.0046 0
-1.29359 0.104648 -0.0046 0
-1.29359 0.104648 -0.0047 0
-1.29358 0.104647 -0.0047 0
-1.29358 0.104646 -0.0043 0
-1.29358 0.104646 -0.0043 0
-1.29358 0.104646 -0.0043 0
-1.29358 0.104645 -0.0042 0
-1.29358 0.104644 -0.0042 0
-1.29358 0.104643 -0.0044 0
-1.29358 0.104642 -0.0044 0
-1.29358 0.104641 -0.0043 0
-1.29358 0.10464 -0.0043 0
-1.29358 0.10464 -0.0041 0
-1.29358 0.10464 -0.0041 0
-1.29358 0.10464 -0.0041 0
-1.29358 0.10464 -0.0047 0
-1.29358 0.104639 -0.0047 0
-1.29358 0.104638 -0.0044 0
-1.29358 0.104636 -0.0044 0
-1.29358 0.104635 -0.0049 0
-1.29357 0.104634 -0.0049 0
-1.29368 0.104567 -0.0049 0
-1.29368 0.104564 -0.0045 0
-1.29228 0.103134 -0.0045 0
-1.29368 0.104562 -0.0045 0
-1.29367 0.104561 -0.0047 0
-1.29367 0.104559 -0.0047 0
-1.29367 0.104559 -0.0047 0
-1.29367 0.104558 -0.0044 0
-1.29367 0.104557 -0.0044 0
-1.29367 0.104556 -0.0046 0
-1.29356 0.10462 -0.0046 0
-1.29367 0.104553 -0.0046 0
-1.29227 0.103122 -0.0046 0
-1.29356 0.104617 -0.0043 0
-1.29367 0.10455 -0.0043 0
-1.29367 0.104548 -0.0043 0
-1.29367 0.104547 -0.0041 0
-1.29367 0.104547 -0.0041 0
-1.29366 0.104544 -0.0046 0
-1.29366 0.104545 -0.0046 0
-1.29366 0.104544 -0.0042 0
-1.29366 0.104542 -0.0042 0
-1.29356 0.104608 -0.0042 0
-1.29226 0.103111 -0.0042 0
-1.29366 0.10454 -0.0042 0
-1.29366 0.104539 -0.0046 0
-1.29355 0.104603 -0.0046 0
-1.29355 0.104602 -0.0044 0
-1.29355 0.104602 -0.0044 0
-1.29355 0.104601 -0.0045 0
-1.29355 0.1046 -0.0045 0
-1.29355 0.104599 -0.0045 0
-1.29355 0.104599 -0.004 0
-1.29354 0.104598 -0.004 0
-1.29354 0.104598 -0.0045 0
-1.29354 0.104598 -0.0045 0
-1.29354 0.104598 -0.0048 0
-1.29354 0.104597 -0.0048 0
-1.29354 0.104596 -0.0041 0
-1.29354 0.104595 -0.0041 0
-1.29354 0.104595 -0.0049 0
-1.29354 0.104595 -0.0049 0
-1.29354 0.104595 -0.0045 0
-1.29354 0.104594 -0.0045 0
-1.29355 0.104594 -0.0049 0
-1.29355 0.104593 -0.0049 0
-1.29355 0.104592 -0.0043 0
-1.29354 0.104591 -0.0047 0
-1.29354 0.10459 -0.0047 0
-1.29354 0.104589 -0.0047 0
-1.29354 0.104588 -0.0047 0
-1.29354 0.104585 -0.0047 0
-1.29354 0.104584 -0.004 0
-1.29354 0.104583 -0.004 0
-1.29353 0.104582 -0.0044 0
-1.29353 0.10458 -0.0045 0
-1.29353 0.104579 -0.0045 0
-1.29353 0.104578 -0.0045 0
-1.29353 0.104577 -0.0046 0
-1.29353 0.104575 -0.0042 0
-1.29353 0.104574 -0.0042 0
-1.29353 0.104573 -0.0042 0
-1.29353 0.10457 -0.0047 0
-1.29353 0.10457 -0.0047 0
-1.29353 0.104569 -0.0047 0
-1.29353 0.104567 -0.0047 0
-1.29353 0.104566 -0.0041 0
-1.29353 0.104564 -0.0041 0
-1.29353 0.104563 -0.0047 0
-1.29352 0.104562 -0.0047 0
-1.29352 0.104561 -0.0041 0
-1.29352 0.104559 -0.0046 0
-1.29352 0.104558 -0.0046 0
-1.29352 0.104557 -0.0046 0
-1.29352 0.104554 -0.0045 0
-1.29352 0.104553 -0.0045 0
-1.29352 0.104552 -0.0045 0
-1.29352 0.104551 -0.0045 0
-1.29352 0.10455 -0.0047 0
-1.29352 0.104549 -0.0047 0
-1.29352 0.104548 -0.0047 0
-1.29352 0.104547 -0.005 0
-1.29352 0.104547 -0.005 0
-1.29352 0.104546 -0.0045 0
-1.29352 0.104545 -0.0045 0
-1.29352 0.104545 -0.0044 0
-1.29352 0.104543 -0.0044 0
-1.29352 0.104542 -0.0049 0
-1.29351 0.10454 -0.0049 0
-1.29351 0.104538 -0.0046 0
-1.29351 0.104535 -0.0046 0
-1.29351 0.104535 -0.0049 0
-1.29351 0.104535 -0.0049 0
-1.29351 0.104535 -0.0044 0
-1.29351 0.104535 -0.0044 0
-1.29351 0.104535 -0.0044 0
-1.29351 0.104534 -0.0044 0
-1.29351 0.104534 -0.0043 0
-1.29351 0.104533 -0.0043 0
-1.2935 0.104532 -0.0043 0
-1.2935 0.10453 -0.0046 0
-1.2935 0.104529 -0.0046 0
-1.2935 0.104527 -0.005 0
-1.2935 0.104527 -0.005 0
-1.2935 0.104527 -0.0044 0
-1.2935 0.104527 -0.0044 0
-1.2935 0.104527 -0.0045 0
-1.2935 0.104527 -0.0045 0
-1.2935 0.104526 -0.0045 0
-1.2935 0.104526 -0.0044 0
-1.2935 0.104526 -0.0044 0
-1.2935 0.104525 -0.0044 0
-1.2935 0.104525 -0.0037 0
-1.29349 0.104523 -0.0041 0
-1.29349 0.104522 -0.0041 0
-1.29349 0.104521 -0.0042 0
-1.29349 0.104521 -0.0042 0
-1.29349 0.10452 -0.0042 0
-1.29349 0.10452 -0.0044 0
-1.29349 0.104519 -0.0044 0
-1.29349 0.104519 -0.0043 0
-1.29348 0.104519 -0.0043 0
-1.29348 0.104519 -0.0043 0
-1.29348 0.104518 -0.0048 0
-1.29348 0.104518 -0.0048 0
-1.29348 0.104516 -0.0046 0
-1.29348 0.104513 -0.0046 0
-1.29348 0.104512 -0.0046 0
-1.29348 0.104512 -0.0046 0
-1.29348 0.104511 -0.0045 0
-1.29348 0.10451 -0.0045 0
-1.29348 0.104508 -0.0045 0
-1.29348 0.104507 -0.0046 0
-1.29348 0.104507 -0.0046 0
-1.29348 0.104506 -0.0046 0
-1.29347 0.104504 -0.0041 0
-1.29347 0.104504 -0.0045 0
-1.29347 0.104503 -0.0045 0
-1.29347 0.104502 -0.0046 0
-1.29347 0.104501 -0.0046 0
-1.29347 0.1045 -0.0046 0
-1.29347 0.104497 -0.0049 0
-1.29347 0.104494 -0.0049 0
-1.29347 0.104492 -0.0044 0
-1.29347 0.10449 -0.0044 0
-1.29347 0.104489 -0.0044 0
-1.29347 0.104488 -0.0044 0
-1.29347 0.104487 -0.0044 0
-1.29347 0.104484 -0.0044 0
-1.29347 0.104483 -0.0046 0
-1.29347 0.104481 -0.0046 0
-1.29347 0.104479 -0.0046 0
-1.29347 0.104477 -0.0046 0
-1.29347 0.104475 -0.0046 0
-1.29347 0.104475 -0.0039 0
-1.29347 0.104474 -0.0039 0
-1.29347 0.104473 -0.0043 0
-1.29347 0.104473 -0.0043 0
-1.29277 0.103757 -0.0043 0
-1.29346 0.10447 -0.0045 0
-1.29346 0.10447 -0.0045 0
-1.29346 0.104469 -0.0045 0
-1.29346 0.104468 -0.0045 0
-1.29346 0.104467 -0.0047 0
-1.29346 0.104466 -0.0047 0
-1.29346 0.104465 -0.0045 0
-1.29346 0.104463 -0.0045 0
-1.29346 0.104461 -0.0045 0
-1.29346 0.104461 -0.0045 0
-1.29346 0.10446 -0.0039 0
-1.29346 0.104459 -0.0039 0
-1.29346 0.104458 -0.0039 0
-1.29206 0.103027 -0.0045 0
-1.29346 0.104456 -0.0045 0
-1.29346 0.104455 -0.0044 0
-1.29346 0.104455 -0.0044 0
-1.29346 0.104454 -0.0044 0
-1.29345 0.104453 -0.0046 0
-1.29345 0.104452 -0.0046 0
-1.29345 0.104452 -0.004 0
-1.29345 0.10445 -0.004 0
-1.29345 0.10445 -0.0042 0
-1.29345 0.10445 -0.0042 0
-1.29345 0.104449 -0.0041 0
-1.29345 0.104448 -0.0041 0
-1.29345 0.104448 -0.0041 0
-1.29345 0.104447 -0.0046 0
-1.29345 0.104447 -0.0046 0
-1.29275 0.103731 -0.0042 0
-1.29275 0.10373 -0.0042 0
-1.29345 0.104444 -0.0042 0
-1.29345 0.104444 -0.0043 0
-1.28506 0.095864 -0.0047 0
-1.29345 0.104441 -0.0047 0
-1.29345 0.10444 -0.0047 0
-1.29345 0.104439 -0.0042 0
-1.29345 0.104439 -0.0042 0
-1.29345 0.104438 -0.0046 0
-1.29345 0.104437 -0.0046 0
-1.29345 0.104436 -0.0044 0
-1.29355 0.104369 -0.0044 0
-1.29355 0.104369 -0.004 0
-1.29355 0.104368 -0.004 0
-1.29355 0.104368 -0.0046 0
-1.29355 0.104367 -0.0046 0
-1.29355 0.104367 -0.0046 0
-1.29355 0.104367 -0.004 0
-1.29355 0.104366 -0.004 0
-1.29355 0.104366 -0.0041 0
-1.29355 0.104365 -0.0041 0
-1.29355 0.104364 -0.0043 0
-1.29355 0.104364 -0.0043 0
-1.29344 0.10443 -0.0043 0
-1.29344 0.104429 -0.0046 0
-1.29344 0.104428 -0.0046 0
-1.29344 0.104427 -0.0048 0
-1.29355 0.104358 -0.0048 0
-1.29355 0.104357 -0.0045 0
-1.29344 0.104423 -0.0045 0
-1.29344 0.104422 -0.0046 0
-1.29134 0.102276 -0.0046 0
-1.29344 0.10442 -0.0046 0
-1.29344 0.104418 -0.0046 0
-1.29344 0.104417 -0.0052 0
-1.29344 0.104415 -0.0052 0
-1.29344 0.104414 -0.005 0
-1.29344 0.104413 -0.004 0
-1.29343 0.104412 -0.004 0
-1.29343 0.104412 -0.004 0
-1.29343 0.104411 -0.0046 0
-1.29343 0.104411 -0.0048 0
-1.29343 0.10441 -0.0048 0
-1.29343 0.10441 -0.0048 0
-1.29343 0.104409 -0.0046 0
-1.29343 0.104407 -0.0045 0
-1.29343 0.104407 -0.0045 0
-1.29343 0.104406 -0.0048 0
-1.29342 0.104406 -0.0048 0
-1.29342 0.104406 -0.0042 0
-1.29342 0.104406 -0.0042 0
-1.29342 0.104406 -0.0042 0
-1.29342 0.104405 -0.0049 0
-1.29342 0.104405 -0.0044 0
-1.29342 0.104404 -0.0044 0
-1.29342 0.104404 -0.0044 0
-1.29352 0.104336 -0.0042 0
-1.29352 0.104335 -0.0043 0
-1.29352 0.104334 -0.0043 0
-1.29352 0.104334 -0.0046 0
-1.29352 0.104335 -0.0046 0
-1.29352 0.104335 -0.0042 0
-1.29352 0.104335 -0.0042 0
-1.29352 0.104336 -0.0045 0
-1.29352 0.104335 -0.0044 0
-1.29352 0.104335 -0.0044 0
-1.29352 0.104335 -0.0044 0
-1.29352 0.104333 -0.0044 0
-1.29352 0.104331 -0.0044 0
-1.29352 0.10433 -0.0044 0
-1.26554 0.0757387 -0.0044 0
-1.29351 0.10433 -0.0043 0
-1.29351 0.10433 -0.0043 0
-1.29351 0.104329 -0.0047 0
-1.29351 0.104329 -0.0047 0
-1.29351 0.104328 -0.0047 0
-1.29351 0.104327 -0.0044 0
-1.29351 0.104327 -0.0044 0
-1.29351 0.104326 -0.0048 0
-1.29351 0.104325 -0.0048 0
-1.29351 0.104324 -0.0043 0
-1.29351 0.104323 -0.0043 0
-1.29351 0.104322 -0.0045 0
-1.29351 0.104319 -0.0045 0
-1.29351 0.104318 -0.0045 0
-1.29351 0.104316 -0.0045 0
-1.29351 0.104314 -0.0044 0
-1.29351 0.104313 -0.0044 0
-1.2935 0.104312 -0.0044 0
-1.2935 0.104311 -0.0044 0
-1.2935 0.10431 -0.0044 0
-1.2935 0.10431 -0.0045 0
-1.2935 0.104309 -0.0045 0
-1.2935 0.104308 -0.0045 0
-1.2935 0.104308 -0.0045 0
-1.2935 0.104307 -0.0046 0
-1.29349 0.104307 -0.0046 0
-1.29349 0.104305 -0.0046 0
-1.29349 0.104304 -0.0039 0
-1.29349 0.104303 -0.0039 0
-1.29349 0.104303 -0.0047 0
-1.29349 0.104302 -0.0047 0
-1.29349 0.104302 -0.0047 0
-1.29349 0.104301 -0.0042 0
-1.29349 0.104301 -0.0042 0
-1.29349 0.104301 -0.0043 0
-1.29349 0.104299 -0.0043 0
-1.29348 0.104298 -0.0043 0
-1.29348 0.104296 -0.0043 0
-1.29348 0.104296 -0.0047 0
-1.29348 0.104295 -0.0047 0
-1.29348 0.104294 -0.0047 0
-1.29348 0.104292 -0.0045 0
-1.29348 0.104291 -0.004 0
-1.29348 0.104291 -0.004 0
-1.29347 0.10429 -0.0044 0
-1.29347 0.10429 -0.0044 0
-1.29347 0.10429 -0.0044 0
-1.29347 0.10429 -0.0044 0
-1.29347 0.10429 -0.0043 0
-1.29137 0.102145 -0.0043 0
-1.29347 0.10429 -0.0048 0
-1.29347 0.104287 -0.0048 0
-1.29347 0.104286 -0.0043 0
-1.29347 0.104286 -0.0043 0
-1.29207 0.102856 -0.0047 0
-1.29347 0.104284 -0.0047 0
-1.29347 0.104283 -0.0046 0
-1.29347 0.104283 -0.0046 0
-1.29347 0.104283 -0.0038 0
-1.29346 0.104282 -0.0038 0
-1.29346 0.104281 -0.0044 0
-1.29346 0.10428 -0.0044 0
-1.29335 0.104345 -0.0045 0
-1.29335 0.104341 -0.0045 0
-1.29335 0.10434 -0.0047 0
-1.29335 0.10434 -0.0047 0
-1.29335 0.104338 -0.0047 0
-1.29346 0.10427 -0.0047 0
-1.29346 0.104268 -0.0043 0
-1.29346 0.104266 -0.0043 0
-1.29346 0.104265 -0.0046 0
-1.29346 0.104263 -0.0046 0
-1.29136 0.102117 -0.0045 0
-1.29345 0.104261 -0.0045 0
-1.29345 0.104261 -0.0044 0
-1.29345 0.10426 -0.0044 0
-1.29345 0.104261 -0.0044 0
-1.28506 0.0956836 -0.0045 0
-1.29345 0.104261 -0.0045 0
-1.29334 0.104326 -0.0046 0
-1.29334 0.104326 -0.0046 0
-1.29345 0.104258 -0.0046 0
-1.29345 0.104257 -0.0043 0
-1.29345 0.104257 -0.0043 0
-1.29345 0.104256 -0.0043 0
-1.29345 0.104255 -0.0043 0
-1.29345 0.104254 -0.0046 0
-1.29345 0.104253 -0.0046 0
-1.29345 0.104251 -0.0041 0
-1.29345 0.104251 -0.0041 0
-1.29344 0.10425 -0.0042 0
-1.29344 0.104249 -0.0042 0
-1.29344 0.104247 -0.0044 0
-1.29344 0.104246 -0.0044 0
-1.29344 0.104246 -0.0039 0
-1.29344 0.104245 -0.0039 0
-1.29333 0.104309 -0.0045 0
-1.29333 0.104307 -0.0045 0
-1.29333 0.104307 -0.0045 0
-1.29333 0.104307 -0.0045 0
-1.29344 0.104239 -0.0041 0
-1.29333 0.104305 -0.0041 0
-1.29333 0.104304 -0.0046 0
-1.29333 0.104303 -0.0046 0
-1.29332 0.104302 -0.0046 0
-1.29343 0.104235 -0.0046 0
-1.29343 0.104234 -0.0043 0
-1.29343 0.104232 -0.0046 0
-1.29343 0.104231 -0.0046 0
-1.29343 0.10423 -0.0046 0
-1.29343 0.104229 -0.0041 0
-1.29342 0.104228 -0.0044 0
-1.29342 0.104227 -0.0044 0
-1.29342 0.104227 -0.0044 0
-1.29342 0.104225 -0.0047 0
-1.29342 0.104225 -0.0044 0
-1.29342 0.104224 -0.0044 0
-1.29342 0.104225 -0.0044 0
-1.29331 0.104291 -0.0044 0
-1.29331 0.104288 -0.0045 0
-1.29331 0.104288 -0.0045 0
-1.29331 0.104287 -0.0048 0
-1.29331 0.104286 -0.0042 0
-1.29331 0.104284 -0.0042 0
-1.29331 0.104284 -0.0042 0
-1.29331 0.104283 -0.0047 0
-1.29331 0.104283 -0.0047 0
-1.2933 0.104282 -0.0044 0
-1.2933 0.104281 -0.0044 0
-1.2933 0.104279 -0.0049 0
-1.2933 0.104278 -0.0049 0
-1.2933 0.104276 -0.0045 0
-1.2934 0.104208 -0.0045 0
-1.2934 0.104207 -0.0045 0
-1.2934 0.104205 -0.0043 0
-1.2934 0.104205 -0.0042 0
-1.2934 0.104204 -0.0042 0
-1.2934 0.104203 -0.0042 0
-1.2934 0.104201 -0.0043 0
-1.2934 0.104199 -0.005 0
-1.2934 0.104198 -0.005 0
-1.2934 0.104196 -0.005 0
-1.2934 0.104196 -0.0048 0
-1.2934 0.104195 -0.0046 0
-1.2934 0.104195 -0.0046 0
-1.2934 0.104194 -0.0046 0
-1.2934 0.104194 -0.0041 0
-1.29339 0.104194 -0.004 0
-1.29339 0.104194 -0.004 0
-1.29339 0.104194 -0.004 0
-1.29339 0.104193 -0.0042 0
-1.29339 0.104193 -0.0045 0
-1.29339 0.104193 -0.0045 0
-1.29339 0.104192 -0.0045 0
-1.29339 0.10419 -0.005 0
-1.29339 0.104189 -0.0045 0
-1.29339 0.104187 -0.0045 0
-1.29329 0.104252 -0.0043 0
-1.29329 0.104251 -0.0043 0
-1.29328 0.10425 -0.0041 0
-1.29328 0.104249 -0.0041 0
-1.29328 0.104248 -0.0046 0
-1.29328 0.104247 -0.0046 0
-1.29328 0.104246 -0.004 0
-1.29328 0.104246 -0.004 0
-1.29328 0.104244 -0.0047 0
-1.29188 0.102814 -0.0047 0
-1.29328 0.104243 -0.0047 0
-1.29328 0.104242 -0.0047 0
-1.29328 0.10424 -0.0039 0
-1.29328 0.10424 -0.0039 0
-1.29328 0.10424 -0.0041 0
-1.29327 0.104239 -0.0041 0
-1.29338 0.104171 -0.0047 0
-1.29338 0.104171 -0.0047 0
-1.29338 0.10417 -0.0049 0
-1.29338 0.10417 -0.0049 0
-1.29338 0.10417 -0.0049 0
-1.29338 0.10417 -0.0045 0
-1.29338 0.104169 -0.0045 0
-1.29338 0.104169 -0.0048 0
-1.29338 0.104168 -0.0048 0
-1.29338 0.104167 -0.005 0
-1.29338 0.104167 -0.005 0
-1.29337 0.104166 -0.0045 0
-1.29337 0.104165 -0.0045 0
-1.29327 0.104231 -0.0045 0
-1.29337 0.104163 -0.0044 0
-1.29337 0.104162 -0.0049 0
-1.29337 0.104162 -0.0049 0
-1.29337 0.104162 -0.0049 0
-1.29337 0.104162 -0.0045 0
-1.29337 0.104161 -0.0045 0
-1.29337 0.10416 -0.0048 0
-1.29337 0.104159 -0.0048 0
-1.29337 0.104159 -0.0048 0
-1.29326 0.104223 -0.0047 0
-1.29326 0.104223 -0.0044 0
-1.29326 0.104222 -0.0044 0
-1.29326 0.104221 -0.0044 0
-1.29326 0.104219 -0.0047 0
-1.29325 0.104217 -0.0042 0
-1.29325 0.104215 -0.0042 0
-1.29325 0.104215 -0.0042 0
-1.29325 0.104215 -0.0043 0
-1.29325 0.104214 -0.0043 0
-1.29325 0.104214 -0.0047 0
-1.29325 0.104213 -0.0047 0
-1.29325 0.104212 -0.0047 0
-1.29325 0.104211 -0.0045 0
-1.29325 0.10421 -0.0045 0
-1.29325 0.104209 -0.0045 0
-1.29115 0.102064 -0.0045 0
-1.29325 0.104208 -0.0045 0
-1.29325 0.104208 -0.0043 0
-1.29325 0.104207 -0.0043 0
-1.29325 0.104206 -0.0047 0
-1.29325 0.104202 -0.0047 0
-1.29185 0.102771 -0.0043 0
-1.29325 0.104199 -0.0043 0
-1.29324 0.104197 -0.0045 0
-1.29324 0.104196 -0.0045 0
-1.29324 0.104194 -0.0043 0
-1.29324 0.104194 -0.0043 0
-1.29324 0.104193 -0.0045 0
-1.29324 0.104191 -0.0045 0
-1.28496 0.0955467 -0.0045 0
-1.29335 0.104123 -0.0045 0
-1.29335 0.104122 -0.0049 0
-1.29335 0.104121 -0.0049 0
-1.29335 0.10412 -0.0046 0
-1.29335 0.10412 -0.0046 0
-1.29324 0.104185 -0.0042 0
-1.29324 0.104184 -0.0042 0
-1.29335 0.104117 -0.0051 0
-1.29334 0.104116 -0.0051 0
-1.29334 0.104114 -0.0038 0
-1.29334 0.104112 -0.0038 0
-1.29334 0.104111 -0.0043 0
-1.29334 0.10411 -0.0045 0
-1.29334 0.10411 -0.0045 0
-1.29334 0.104109 -0.0045 0
-1.29334 0.104109 -0.0044 0
-1.29334 0.104108 -0.0042 0
-1.29334 0.104106 -0.0042 0
-1.29334 0.104106 -0.0042 0
-1.29333 0.104105 -0.0044 0
-1.29333 0.104104 -0.004 0
-1.29333 0.104102 -0.004 0
-1.29323 0.104168 -0.004 0
-1.29323 0.104167 -0.0048 0
-1.29333 0.104099 -0.0048 0
-1.29333 0.104098 -0.0042 0
-1.29403 0.104811 -0.0042 0
-1.29322 0.104161 -0.0042 0
-1.29322 0.10416 -0.0045 0
-1.29322 0.104158 -0.0047 0
-1.29322 0.104157 -0.0047 0
-1.29322 0.104156 -0.0047 0
-1.29322 0.104156 -0.0044 0
-1.29322 0.104155 -0.0044 0
-1.29321 0.104153 -0.0047 0
-1.29321 0.104152 -0.0047 0
-1.29321 0.104152 -0.0044 0
-1.29321 0.104152 -0.0044 0
-1.29321 0.104153 -0.0049 0
-1.29321 0.104153 -0.0049 0
-1.29321 0.104152 -0.0049 0
-1.29321 0.104152 -0.0041 0
-1.29321 0.104152 -0.0041 0
-1.29321 0.104151 -0.0041 0
-1.29321 0.104151 -0.0046 0
-1.29321 0.104151 -0.0046 0
-1.29321 0.104149 -0.0043 0
-1.2932 0.104148 -0.0043 0
-1.2932 0.104148 -0.0045 0
-1.2925 0.103432 -0.0044 0
-1.2932 0.104146 -0.0044 0
-1.2932 0.104145 -0.0044 0
-1.2932 0.104144 -0.0048 0
-1.2932 0.104143 -0.0048 0
-1.2932 0.104142 -0.0044 0
-1.2932 0.104141 -0.0044 0
-1.2932 0.104141 -0.0044 0
-1.2932 0.10414 -0.0043 0
-1.2932 0.104138 -0.0043 0
-1.2932 0.104137 -0.0043 0
-1.29319 0.104135 -0.0043 0
-1.29319 0.104134 -0.0041 0
-1.29319 0.104134 -0.0041 0
-1.29319 0.104135 -0.0046 0
-1.29319 0.104135 -0.0046 0
-1.29319 0.104134 -0.004 0
-1.29319 0.104133 -0.004 0
-1.29319 0.104132 -0.0041 0
-1.29319 0.104133 -0.0041 0
-1.29319 0.104133 -0.0041 0
-1.29319 0.104132 -0.0051 0
-1.29319 0.104131 -0.004 0
-1.29249 0.103415 -0.004 0
-1.29318 0.10413 -0.004 0
-1.29318 0.104129 -0.0046 0
-1.29318 0.104128 -0.0046 0
-1.29318 0.104125 -0.0041 0
-1.29318 0.104125 -0.0041 0
-1.29178 0.102693 -0.0041 0
-1.29318 0.104122 -0.0041 0
-1.29318 0.104121 -0.0041 0
-1.29248 0.103405 -0.0041 0
-1.29317 0.104119 -0.0041 0
-1.29317 0.104117 -0.0045 0
-1.29317 0.104117 -0.0048 0
-1.32184 0.133427 -0.0048 0
-1.29317 0.104116 -0.0048 0
-1.29317 0.104116 -0.0042 0
-1.29317 0.104115 -0.0042 0
-1.29317 0.104115 -0.0043 0
-1.29317 0.104114 -0.0043 0
-1.29317 0.104114 -0.0043 0
-1.29317 0.104113 -0.0044 0
-1.29317 0.104112 -0.0047 0
-1.29317 0.104111 -0.0047 0
-1.29317 0.10411 -0.0047 0
-1.29317 0.10411 -0.0043 0
-1.29317 0.104109 -0.0043 0
-1.29317 0.104108 -0.0044 0
-1.29327 0.10404 -0.0044 0
-1.29327 0.104039 -0.0047 0
-1.29327 0.104039 -0.0047 0
-1.32194 0.133343 -0.0049 0
-1.29327 0.104036 -0.0049 0
-1.29327 0.104035 -0.0043 0
-1.29327 0.104034 -0.0043 0
-1.29327 0.104032 -0.0044 0
-1.29327 0.104031 -0.0044 0
-1.29327 0.104031 -0.0049 0
-1.29187 0.102601 -0.0049 0
-1.29327 0.104028 -0.0042 0
-1.29327 0.104027 -0.0042 0
-1.29327 0.104026 -0.0043 0
-1.29316 0.104092 -0.0043 0
-1.29316 0.104092 -0.0052 0
-1.29316 0.104091 -0.0052 0
-1.29316 0.104091 -0.0052 0
-1.29316 0.10409 -0.0049 0
-1.29316 0.104089 -0.0049 0
-1.29316 0.104088 -0.0043 0
-1.29316 0.104086 -0.0043 0
-1.29315 0.104085 -0.0042 0
-1.29316 0.104084 -0.0042 0
-1.29316 0.104083 -0.0046 0
-1.29315 0.104082 -0.0046 0
-1.29315 0.104082 -0.0046 0
-1.29315 0.10408 -0.0039 0
-1.29315 0.104079 -0.0039 0
-1.29246 0.103362 -0.0043 0
-1.29315 0.104075 -0.0043 0
-1.29315 0.104074 -0.0052 0
-1.29315 0.104073 -0.0052 0
-1.29315 0.104072 -0.0037 0
-1.29315 0.104071 -0.0037 0
-1.29315 0.10407 -0.0043 0
-1.29315 0.104069 -0.0043 0
-1.29315 0.104068 -0.0048 0
-1.29315 0.104068 -0.0048 0
-1.29315 0.104065 -0.0043 0
-1.29315 0.104064 -0.0043 0
-1.29315 0.104063 -0.0038 0
-1.29315 0.104063 -0.0038 0
-1.29326 0.103994 -0.0042 0
-1.29315 0.104059 -0.0042 0
-1.29315 0.104059 -0.0051 0
-1.29325 0.103991 -0.0051 0
-1.29325 0.103991 -0.0041 0
-1.29325 0.103991 -0.0041 0
-1.29325 0.103992 -0.0043 0
-1.29325 0.103991 -0.0043 0
-1.29115 0.101846 -0.0044 0
-1.29325 0.103989 -0.0044 0
-1.29325 0.103989 -0.0043 0
-1.29255 0.103274 -0.0043 0
-1.29325 0.103988 -0.0043 0
-1.29325 0.103988 -0.0046 0
-1.29324 0.103989 -0.0046 0
-1.29324 0.10399 -0.0042 0
-1.29324 0.10399 -0.0042 0
-1.29324 0.103989 -0.0042 0
-1.29324 0.103988 -0.0042 0
-1.29324 0.103988 -0.0046 0
-1.29324 0.103987 -0.0046 0
-1.29324 0.103986 -0.0046 0
-1.29313 0.104052 -0.0041 0
-1.29313 0.104051 -0.0041 0
-1.29313 0.10405 -0.0043 0
-1.29313 0.104049 -0.0043 0
-1.29313 0.104049 -0.0047 0
-1.29243 0.103334 -0.0047 0
-1.29312 0.104048 -0.0048 0
-1.29312 0.104048 -0.0048 0
-1.29312 0.104047 -0.0048 0
-1.29312 0.104046 -0.0046 0
-1.29312 0.104045 -0.0046 0
-1.29312 0.104044 -0.0046 0
-1.29312 0.104043 -0.0046 0
-1.29312 0.104042 -0.0046 0
-1.29312 0.104042 -0.0046 0
-1.29312 0.104042 -0.0044 0
-1.29312 0.104041 -0.0044 0
-1.29312 0.10404 -0.0044 0
-1.29312 0.104038 -0.0048 0
-1.29312 0.104038 -0.0041 0
-1.29312 0.104038 -0.0041 0
-1.29312 0.104037 -0.0041 0
-1.29323 0.103969 -0.0048 0
-1.29323 0.103969 -0.0041 0
-1.29323 0.10397 -0.0041 0
-1.29323 0.10397 -0.0041 0
-1.29323 0.103968 -0.0046 0
-1.29323 0.103967 -0.0043 0
-1.29312 0.104033 -0.0043 0
-1.29312 0.104033 -0.0043 0
-1.29323 0.103966 -0.0045 0
-1.29323 0.103965 -0.0046 0
-1.29323 0.103964 -0.0046 0
-1.29323 0.103964 -0.0044 0
-1.29323 0.103963 -0.0044 0
-1.29312 0.104029 -0.0046 0
-1.29312 0.104028 -0.0046 0
-1.29312 0.104027 -0.0043 0
-1.29312 0.104026 -0.0043 0
-1.29323 0.103958 -0.004 0
-1.29312 0.104023 -0.004 0
-1.29312 0.104023 -0.0046 0
-1.29312 0.104022 -0.0046 0
-1.29312 0.104021 -0.0046 0
-1.29312 0.10402 -0.0046 0
-1.29312 0.104018 -0.0046 0
-1.29102 0.101873 -0.0046 0
-1.29312 0.104017 -0.0046 0
-1.29312 0.104017 -0.0042 0
-1.29312 0.104017 -0.0042 0
-1.29311 0.104017 -0.0049 0
-1.29311 0.104016 -0.0049 0
-1.29311 0.104015 -0.0038 0
-1.29311 0.104015 -0.0038 0
-1.29311 0.104013 -0.0044 0
-1.29311 0.104012 -0.0044 0
-1.29311 0.104012 -0.005 0
-1.29311 0.104011 -0.005 0
-1.29311 0.10401 -0.005 0
-1.29311 0.10401 -0.004 0
-1.29311 0.104009 -0.0048 0
-1.29311 0.104009 -0.0048 0
-1.29311 0.104008 -0.0048 0
-1.29311 0.104008 -0.0047 0
-1.29321 0.10394 -0.0047 0
-1.29321 0.103938 -0.0043 0
-1.29321 0.103937 -0.0043 0
-1.29321 0.103936 -0.0043 0
-1.29321 0.103934 -0.0046 0
-1.29321 0.103933 -0.0042 0
-1.29321 0.103933 -0.0042 0
-1.29321 0.103931 -0.0042 0
-1.29321 0.10393 -0.0044 0
-1.29321 0.103929 -0.0044 0
-1.29321 0.103928 -0.0043 0
-1.2932 0.103927 -0.0043 0
-1.2932 0.103926 -0.0044 0
-1.2932 0.103925 -0.0044 0
-1.2932 0.103924 -0.0047 0
-1.2932 0.103924 -0.0047 0
-1.2932 0.103923 -0.0047 0
-1.2911 0.101778 -0.0041 0
-1.2932 0.103921 -0.0041 0
-1.2932 0.10392 -0.0045 0
-1.2932 0.10392 -0.0045 0
-1.2932 0.103919 -0.0047 0
-1.2932 0.103918 -0.0047 0
-1.2932 0.103917 -0.0045 0
-1.2932 0.103916 -0.0045 0
-1.29319 0.103916 -0.0045 0
-1.29309 0.103982 -0.0048 0
-1.29239 0.103267 -0.004 0
-1.29308 0.103981 -0.004 0
-1.29308 0.10398 -0.004 0
-1.29308 0.103979 -0.0048 0
-1.29308 0.103978 -0.0048 0
-1.29308 0.103976 -0.0044 0
-1.29308 0.103975 -0.0044 0
-1.29319 0.103907 -0.0044 0
-1.29319 0.103906 -0.0047 0
-1.29308 0.103973 -0.0046 0
-1.29308 0.103972 -0.0046 0
-1.29308 0.103972 -0.0046 0
-1.29308 0.103971 -0.0043 0
-1.29308 0.103971 -0.0043 0
-1.29098 0.101826 -0.0045 0
-1.29307 0.103969 -0.0045 0
-1.29307 0.103967 -0.0046 0
-1.29307 0.103966 -0.0046 0
-1.29307 0.103965 -0.0043 0
-1.29307 0.103964 -0.0043 0
-1.29307 0.103963 -0.0049 0
-1.29307 0.103963 -0.0049 0
-1.29307 0.103962 -0.0043 0
-1.29307 0.103961 -0.0043 0
-1.29307 0.103959 -0.0043 0
-1.29307 0.103958 -0.0042 0
-1.29307 0.103957 -0.0046 0
-1.29306 0.103955 -0.0046 0
-1.29307 0.103954 -0.0046 0
-1.29306 0.103953 -0.0043 0
-1.29306 0.103953 -0.0043 0
-1.29306 0.103952 -0.0048 0
-1.29306 0.103951 -0.0048 0
-1.29306 0.103951 -0.0044 0
-1.29306 0.10395 -0.0044 0
-1.29306 0.10395 -0.0044 0
-1.29306 0.103949 -0.0044 0
-1.29306 0.103948 -0.0044 0
-1.29306 0.103948 -0.0044 0
-1.29306 0.103947 -0.0044 0
-1.29306 0.103945 -0.0046 0
-1.29306 0.103944 -0.0046 0
-1.29306 0.103943 -0.0045 0
-1.29306 0.103943 -0.0045 0
-1.29306 0.103942 -0.0045 0
-1.29306 0.103941 -0.0045 0
-1.29306 0.103939 -0.0045 0
-1.29306 0.103938 -0.0046 0
-1.29306 0.103937 -0.0046 0
-1.29306 0.103936 -0.0043 0
-1.29306 0.103935 -0.0043 0
-1.29306 0.103934 -0.0042 0
-1.29306 0.103933 -0.0042 0
-1.29306 0.103932 -0.0052 0
-1.29306 0.103931 -0.0052 0
-1.29306 0.10393 -0.0046 0
-1.29306 0.103929 -0.0046 0
-1.29305 0.103927 -0.0043 0
-1.29305 0.103926 -0.0043 0
-1.29305 0.103925 -0.0046 0
-1.29305 0.103925 -0.0046 0
-1.29106 0.101714 -0.004 0
-1.29316 0.103858 -0.004 0
-1.29305 0.103924 -0.0045 0
-1.29305 0.103925 -0.0045 0
-1.29305 0.103924 -0.0044 0
-1.29305 0.103923 -0.0044 0
-1.29305 0.103922 -0.0044 0
-1.29305 0.103921 -0.0047 0
-1.29305 0.103921 -0.0047 0
-1.29305 0.10392 -0.0045 0
-1.29305 0.10392 -0.0045 0
-1.29305 0.103919 -0.0043 0
-1.29305 0.103918 -0.0043 0
-1.29304 0.103916 -0.0046 0
-1.29304 0.103915 -0.0046 0
-1.29304 0.103915 -0.0043 0
-1.29304 0.103915 -0.0043 0
-1.29304 0.103913 -0.0047 0
-1.29304 0.103913 -0.0047 0
-1.29304 0.103912 -0.0044 0
-1.29304 0.103911 -0.0046 0
-1.29304 0.103911 -0.0046 0
-1.29304 0.10391 -0.0046 0
-1.29304 0.10391 -0.0041 0
-1.29304 0.103909 -0.0041 0
-1.29304 0.10391 -0.0042 0
-1.29304 0.10391 -0.0042 0
-1.29304 0.103909 -0.0047 0
-1.29094 0.101763 -0.0047 0
-1.29304 0.103905 -0.0046 0
-1.29303 0.103904 -0.0046 0
-1.29303 0.103904 -0.0039 0
-1.29303 0.103903 -0.0039 0
-1.29303 0.103903 -0.0047 0
-1.29303 0.103901 -0.0047 0
-1.29303 0.1039 -0.0043 0
-1.29303 0.103899 -0.0043 0
-1.29303 0.103899 -0.0049 0
-1.29303 0.103899 -0.0049 0
-1.29303 0.103898 -0.0049 0
-1.29303 0.103897 -0.004 0
-1.29303 0.103897 -0.004 0
-1.29302 0.103895 -0.0046 0
-1.29302 0.103894 -0.0046 0
-1.29302 0.103892 -0.0042 0
-1.29302 0.103891 -0.0042 0
-1.29302 0.10389 -0.0043 0
-1.29302 0.103889 -0.0043 0
-1.29302 0.103886 -0.0046 0
-1.29302 0.103884 -0.0046 0
-1.29302 0.103883 -0.0045 0
-1.29302 0.103881 -0.0045 0
-1.29302 0.10388 -0.0046 0
-1.29302 0.103879 -0.0046 0
-1.29302 0.103878 -0.0043 0
-1.29302 0.103877 -0.0043 0
-1.29302 0.103877 -0.0043 0
-1.29302 0.103877 -0.0047 0
-1.29302 0.103876 -0.0047 0
-1.29302 0.103875 -0.0041 0
-1.29302 0.103875 -0.0041 0
-1.29302 0.103874 -0.0047 0
-1.29302 0.103874 -0.0047 0
-1.29302 0.103874 -0.0042 0
-1.29302 0.103873 -0.0042 0
-1.29302 0.103873 -0.0044 0
-1.29302 0.103873 -0.0044 0
-1.29302 0.103873 -0.0043 0
-1.29302 0.103873 -0.0043 0
-1.29301 0.103872 -0.0043 0
-1.29301 0.103872 -0.0043 0
-1.29301 0.103871 -0.0043 0
-1.29301 0.10387 -0.0043 0
-1.29301 0.10387 -0.0043 0
-1.29301 0.103868 -0.0043 0
-1.29301 0.103866 -0.0042 0
-1.29301 0.103865 -0.0042 0
-1.29301 0.103864 -0.0042 0
-1.29311 0.103796 -0.0046 0
-1.29311 0.103795 -0.0046 0
-1.29311 0.103795 -0.0046 0
-1.29451 0.105222 -0.0042 0
-1.29311 0.103792 -0.0042 0
-1.29311 0.103791 -0.0042 0
-1.29311 0.103791 -0.0042 0
-1.29311 0.10379 -0.0042 0
-1.29311 0.103789 -0.0042 0
-1.293 0.103854 -0.0048 0
-1.29311 0.103788 -0.0048 0
-1.29311 0.103788 -0.0048 0
-1.29311 0.103786 -0.0043 0
-1.293 0.103849 -0.0049 0
-1.293 0.103853 -0.0049 0
-1.29287 0.103933 -0.0049 0
-1.29232 0.104283 0.0091 0
-1.29211 0.104397 0.0456 0
-1.29181 0.104573 0.0456 0
-1.29087 0.103971 -0.0042 0
-1.29083 0.103975 -0.0042 0
-1.2908 0.103981 0.0311 0
-1.2909 0.103915 0.0311 0
-1.29105 0.103859 0.0311 0
-1.2915 0.103633 0.0012 0
-1.29162 0.103567 0.0063 0
-1.29094 0.102846 0.0063 0
-1.29096 0.102841 0.0063 0
-1.29098 0.102841 -0.0075 0
-1.29098 0.102843 -0.0055 0
-1.29109 0.102779 -0.0055 0
-1.2912 0.102712 -0.0051 0
-1.2905 0.102002 -0.0051 0
-1.2914 0.102592 0.0011 0
-1.2908 0.101815 0.0011 0
-1.29101 0.101675 0.0076 0
-1.29181 0.102316 0.0076 0
-1.29111 0.101592 -0.003 0
-1.29153 0.101316 -0.003 0
-1.29222 0.102025 0.0025 0
-1.29231 0.101955 0.0025 0
-1.2923 0.101958 -0.0026 0
-1.29161 0.101249 -0.0026 0
-1.29162 0.101256 -0.0035 0
-1.29162 0.101264 -0.0035 0
-1.29162 0.101268 0.001 0
-1.29163 0.101269 0.001 0
-1.29163 0.101268 -0.0025 0
-1.29163 0.101268 -0.0025 0
-1.29162 0.101268 -0.0016 0
-1.29162 0.101272 -0.0016 0
-1.29162 0.101273 0.0014 0
-1.29162 0.101275 0.0014 0
-1.29162 0.101275 -0.001 0
-1.29162 0.101274 -0.001 0
-1.29232 0.101989 -0.0014 0
-1.29162 0.101277 -0.0014 0
-1.29162 0.101277 0.001 0
-1.29162 0.101277 0.001 0
-1.29162 0.101276 0.001 0
-1.29232 0.101988 -0.0013 0
-1.29163 0.101273 -0.0013 0
-1.29163 0.101276 -0.004 0
-1.29163 0.101279 -0.004 0
-1.29163 0.101278 0.000699999 0
-1.29163 0.101279 0.000699999 0
-1.29162 0.10128 -0.001 0
-1.29162 0.101278 -0.001 0
-1.29162 0.101278 -0.001 0
