ply
format ascii 1.0
element vertex 1722
property float x
property float y
property float z
property float intensity
end_header
-1.07263 0.414006 -0.0036 0
-1.07213 0.413138 -0.0042 0
-1.07263 0.414005 -0.0042 0
-1.07262 0.414004 -0.0029 0
-1.07213 0.413136 -0.0029 0
-1.07262 0.414003 -0.0029 0
-1.07262 0.414003 -0.0047 0
-1.07262 0.414002 -0.0047 0
-1.07262 0.414001 -0.0042 0
-1.07262 0.414001 -0.0042 0
-1.07262 0.414 -0.0041 0
-1.07262 0.413999 -0.0041 0
-1.07262 0.413998 -0.004 0
-1.07262 0.413996 -0.004 0
-1.07262 0.413996 -0.0033 0
-1.07262 0.413995 -0.0033 0
-1.07262 0.413994 -0.0035 0
-1.07262 0.413993 -0.0035 0
-1.07261 0.413993 -0.0035 0
-1.07261 0.413992 -0.0045 0
-1.07261 0.413991 -0.0045 0
-1.07261 0.413991 -0.0045 0
-1.07261 0.41399 -0.0044 0
-1.07261 0.413988 -0.0042 0
-1.07261 0.413988 -0.0042 0
-1.07261 0.413987 -0.0042 0
-1.07261 0.413986 -0.0038 0
-1.07261 0.413985 -0.0038 0
-1.07261 0.413984 -0.0038 0
-1.07261 0.413983 -0.0041 0
-1.07261 0.413982 -0.0041 0
-1.07261 0.413981 -0.0041 0
-1.07261 0.41398 -0.0045 0
-1.07261 0.41398 -0.0045 0
-1.07261 0.41398 -0.004 0
-1.07261 0.413979 -0.004 0
-1.07261 0.413978 -0.004 0
-1.07261 0.413977 -0.0039 0
-1.07261 0.413975 -0.0039 0
-1.07261 0.413974 -0.0035 0
-1.07261 0.413974 -0.0035 0
-1.07261 0.413973 -0.0039 0
-1.07261 0.413972 -0.0039 0
-1.07211 0.413104 -0.0037 0
-1.07261 0.413971 -0.0037 0
-1.07261 0.41397 -0.0037 0
-1.07261 0.413969 -0.0041 0
-1.07261 0.413967 -0.0041 0
-1.07261 0.413966 -0.0041 0
-1.07261 0.413965 -0.0037 0
-1.07261 0.413964 -0.0036 0
-1.07261 0.413964 -0.0036 0
-1.07261 0.413963 -0.004 0
-1.07162 0.412227 -0.004 0
-1.07261 0.413962 -0.004 0
-1.07261 0.413961 -0.0041 0
-1.07261 0.41396 -0.0041 0
-1.07261 0.413958 -0.0039 0
-1.07261 0.413958 -0.0039 0
-1.07261 0.413958 -0.0041 0
-1.07261 0.413957 -0.0041 0
-1.07261 0.413956 -0.0036 0
-1.07261 0.413955 -0.0036 0
-1.07261 0.413954 -0.0038 0
-1.07261 0.413954 -0.0038 0
-1.07261 0.413953 -0.0043 0
-1.07261 0.413952 -0.0043 0
-1.07249 0.413988 -0.0039 0
-1.07249 0.413988 -0.0039 0
-1.071 0.411383 -0.004 0
-1.07261 0.413948 -0.004 0
-1.07261 0.413947 -0.004 0
-1.07249 0.413983 -0.004 0
-1.07249 0.413982 -0.0036 0
-1.07249 0.413981 -0.0036 0
-1.07249 0.413981 -0.0036 0
-1.07249 0.413979 -0.0042 0
-1.07249 0.413977 -0.0038 0
-1.07248 0.413976 -0.0038 0
-1.07248 0.413975 -0.0038 0
-1.07248 0.413974 -0.0041 0
-1.07248 0.413974 -0.0041 0
-1.07248 0.413973 -0.0039 0
-1.07248 0.413972 -0.0039 0
-1.07248 0.41397 -0.004 0
-1.07248 0.413969 -0.004 0
-1.07248 0.413969 -0.0038 0
-1.07248 0.413968 -0.0038 0
-1.07247 0.413966 -0.0039 0
-1.07247 0.413966 -0.0039 0
-1.07247 0.413966 -0.0042 0
-1.07247 0.413964 -0.0042 0
-1.07247 0.413963 -0.0045 0
-1.07247 0.413961 -0.0045 0
-1.07247 0.41396 -0.0041 0
-1.07247 0.413958 -0.0041 0
-1.07247 0.413958 -0.0039 0
-1.07247 0.413958 -0.0039 0
-1.07247 0.413957 -0.004 0
-1.07258 0.413917 -0.004 0
-1.07258 0.413915 -0.004 0
-1.07258 0.413914 -0.004 0
-1.07258 0.413913 -0.0043 0
-1.07258 0.413911 -0.0043 0
-1.07258 0.41391 -0.0041 0
-1.07258 0.413909 -0.0041 0
-1.07258 0.413908 -0.0041 0
-1.07258 0.413905 -0.0039 0
-1.07258 0.413904 -0.0036 0
-1.07258 0.413903 -0.0036 0
-1.07258 0.413902 -0.0039 0
-1.07258 0.413901 -0.0039 0
-1.07258 0.413901 -0.0039 0
-1.07257 0.4139 -0.0039 0
-1.07257 0.4139 -0.0039 0
-1.07257 0.4139 -0.0038 0
-1.07257 0.413899 -0.0038 0
-1.07257 0.413898 -0.0038 0
-1.07257 0.413897 -0.0037 0
-1.07245 0.413933 -0.0037 0
-1.07257 0.413895 -0.0042 0
-1.07257 0.413894 -0.0042 0
-1.07257 0.413895 -0.0041 0
-1.07257 0.413895 -0.0041 0
-1.07257 0.413894 -0.0042 0
-1.07245 0.413932 -0.0042 0
-1.07245 0.413931 -0.0042 0
-1.07245 0.413931 -0.0041 0
-1.07257 0.413894 -0.0041 0
-1.07257 0.413894 -0.0041 0
-1.07257 0.413894 -0.0041 0
-1.07257 0.413894 -0.0042 0
-1.07245 0.41393 -0.0042 0
-1.07245 0.41393 -0.0038 0
-1.07245 0.41393 -0.0038 0
-1.07245 0.41393 -0.0038 0
-1.07245 0.413929 -0.0041 0
-1.07195 0.413061 -0.0041 0
-1.07245 0.413928 -0.0037 0
-1.07245 0.413928 -0.0037 0
-1.07245 0.413926 -0.0038 0
-1.07245 0.413924 -0.0043 0
-1.07244 0.413924 -0.0043 0
-1.07256 0.413886 -0.0034 0
-1.07256 0.413886 -0.0034 0
-1.07256 0.413885 -0.0034 0
-1.07256 0.413884 -0.0039 0
-1.07256 0.413882 -0.0043 0
-1.07256 0.413881 -0.0043 0
-1.07256 0.41388 -0.0041 0
-1.07244 0.413916 -0.0041 0
-1.07244 0.413913 -0.0042 0
-1.07195 0.413044 -0.0042 0
-1.07244 0.413911 -0.0042 0
-1.07244 0.413909 -0.0042 0
-1.07244 0.413907 -0.0041 0
-1.07244 0.413906 -0.0041 0
-1.07244 0.413904 -0.0038 0
-1.07244 0.413902 -0.0038 0
-1.07244 0.413898 -0.0039 0
-1.07244 0.413896 -0.0039 0
-1.07244 0.413894 -0.0038 0
-1.07244 0.413891 -0.0038 0
-1.07244 0.413889 -0.0037 0
-1.07244 0.413888 -0.0037 0
-1.07244 0.413886 -0.0036 0
-1.07243 0.413885 -0.0036 0
-1.07243 0.413883 -0.0036 0
-1.07255 0.413844 -0.0037 0
-1.07255 0.413841 -0.0037 0
-1.07255 0.413839 -0.0039 0
-1.07255 0.413836 -0.0039 0
-1.07255 0.413835 -0.004 0
-1.07255 0.413833 -0.004 0
-1.07243 0.413868 -0.0041 0
-1.07243 0.413867 -0.0041 0
-1.07243 0.413866 -0.0038 0
-1.07243 0.413864 -0.0038 0
-1.07243 0.413863 -0.0032 0
-1.07243 0.413862 -0.0032 0
-1.07242 0.413862 -0.004 0
-1.07242 0.413861 -0.004 0
-1.07242 0.41386 -0.0041 0
-1.07242 0.41386 -0.0041 0
-1.07254 0.413822 -0.0037 0
-1.07254 0.413821 -0.0039 0
-1.07254 0.41382 -0.0039 0
-1.07254 0.41382 -0.0039 0
-1.07254 0.413818 -0.0042 0
-1.07242 0.413855 -0.0039 0
-1.07242 0.413854 -0.0039 0
-1.07242 0.413853 -0.0039 0
-1.07242 0.413852 -0.0041 0
-1.07242 0.41385 -0.0041 0
-1.07242 0.413849 -0.0041 0
-1.07242 0.413848 -0.0041 0
-1.07242 0.413847 -0.0041 0
-1.07242 0.413847 -0.0039 0
-1.07242 0.413846 -0.0039 0
-1.07242 0.413844 -0.0039 0
-1.07242 0.413843 -0.0038 0
-1.07242 0.413843 -0.0038 0
-1.07242 0.413842 -0.0038 0
-1.07242 0.413842 -0.0041 0
-1.07242 0.413841 -0.0041 0
-1.07242 0.41384 -0.0041 0
-1.07241 0.413838 -0.0041 0
-1.07241 0.413835 -0.0038 0
-1.07241 0.413834 -0.0038 0
-1.07241 0.413834 -0.0042 0
-1.07241 0.413834 -0.0042 0
-1.07241 0.413833 -0.0034 0
-1.07241 0.413832 -0.0034 0
-1.07241 0.413831 -0.0034 0
-1.07241 0.41383 -0.0037 0
-1.07241 0.41383 -0.0037 0
-1.07241 0.413829 -0.0038 0
-1.07241 0.413828 -0.0038 0
-1.07241 0.413826 -0.0042 0
-1.07241 0.413825 -0.0042 0
-1.07241 0.413824 -0.0042 0
-1.07241 0.413824 -0.004 0
-1.07241 0.413823 -0.004 0
-1.07242 0.413821 -0.004 0
-1.07242 0.413819 -0.004 0
-1.07242 0.413818 -0.0038 0
-1.07242 0.413817 -0.0038 0
-1.07242 0.413816 -0.0037 0
-1.07242 0.413815 -0.0037 0
-1.07242 0.413813 -0.0042 0
-1.07242 0.413812 -0.0042 0
-1.07242 0.413811 -0.004 0
-1.07242 0.41381 -0.004 0
-1.07242 0.413808 -0.004 0
-1.07242 0.413808 -0.004 0
-1.07242 0.413807 -0.0039 0
-1.07254 0.413767 -0.0036 0
-1.07254 0.413765 -0.0036 0
-1.07254 0.413763 -0.0036 0
-1.06707 0.404217 -0.0042 0
-1.07254 0.413762 -0.0042 0
-1.07254 0.413761 -0.0042 0
-1.07254 0.41376 -0.0043 0
-1.07254 0.413759 -0.0043 0
-1.07254 0.413758 -0.0037 0
-1.07254 0.413756 -0.0037 0
-1.07254 0.413755 -0.0042 0
-1.07254 0.413755 -0.0042 0
-1.07254 0.413755 -0.0046 0
-1.07254 0.413754 -0.0046 0
-1.07254 0.413753 -0.0039 0
-1.07253 0.413751 -0.0039 0
-1.07253 0.41375 -0.0039 0
-1.07253 0.413749 -0.004 0
-1.07253 0.413749 -0.004 0
-1.07253 0.413751 -0.0048 0
-1.07253 0.413751 -0.0048 0
-1.07253 0.413751 -0.0037 0
-1.07253 0.413751 -0.0037 0
-1.07253 0.413751 -0.0037 0
-1.07253 0.41375 -0.0037 0
-1.07241 0.413785 -0.0035 0
-1.07241 0.413784 -0.0035 0
-1.07241 0.413783 -0.0044 0
-1.07241 0.413782 -0.0044 0
-1.0724 0.413782 -0.0044 0
-1.0724 0.413781 -0.0041 0
-1.0724 0.41378 -0.0041 0
-1.07252 0.413743 -0.0036 0
-1.07252 0.413742 -0.0036 0
-1.07253 0.413742 -0.004 0
-1.07253 0.413741 -0.004 0
-1.07253 0.413741 -0.004 0
-1.07252 0.413741 -0.0038 0
-1.07252 0.41374 -0.0038 0
-1.07252 0.41374 -0.0044 0
-1.0724 0.413775 -0.0039 0
-1.0724 0.413774 -0.0039 0
-1.07252 0.413735 -0.0039 0
-1.07252 0.413735 -0.0037 0
-1.07252 0.413734 -0.0037 0
-1.07252 0.413733 -0.0043 0
-1.07252 0.413731 -0.0043 0
-1.07252 0.41373 -0.0039 0
-1.07251 0.413729 -0.0039 0
-1.07251 0.413728 -0.0039 0
-1.07251 0.413727 -0.0039 0
-1.07239 0.413764 -0.0039 0
-1.07251 0.413726 -0.0045 0
-1.07289 0.414631 -0.0045 0
-1.07251 0.413725 -0.0045 0
-1.07239 0.413762 -0.0044 0
-1.07239 0.413761 -0.0044 0
-1.07239 0.41376 -0.0042 0
-1.07239 0.413759 -0.0038 0
-1.07139 0.412022 -0.0038 0
-1.07239 0.413758 -0.0038 0
-1.07239 0.413757 -0.0038 0
-1.07239 0.413756 -0.0038 0
-1.07251 0.413718 -0.0038 0
-1.07239 0.413755 -0.004 0
-1.07239 0.413754 -0.0041 0
-1.0725 0.413716 -0.0041 0
-1.0725 0.413715 -0.0041 0
-1.0725 0.413713 -0.0037 0
-1.0725 0.41371 -0.0043 0
-1.07238 0.413746 -0.0043 0
-1.07238 0.413745 -0.0035 0
-1.07238 0.413745 -0.0035 0
-1.07238 0.413745 -0.0035 0
-1.07238 0.413744 -0.0047 0
-1.07238 0.413742 -0.0047 0
-1.07238 0.413741 -0.0041 0
-1.07237 0.413738 -0.0041 0
-1.07237 0.413737 -0.0039 0
-1.07237 0.413737 -0.0039 0
-1.07238 0.413736 -0.0043 0
-1.07238 0.413736 -0.0043 0
-1.0725 0.413697 -0.0043 0
-1.0725 0.413696 -0.0038 0
-1.0725 0.413694 -0.0039 0
-1.0725 0.413693 -0.0039 0
-1.0725 0.413692 -0.0039 0
-1.0725 0.413691 -0.0043 0
-1.0725 0.413691 -0.0043 0
-1.0725 0.413691 -0.0043 0
-1.07249 0.413691 -0.0039 0
-1.07249 0.413691 -0.0041 0
-1.07249 0.41369 -0.0041 0
-1.07249 0.413688 -0.0041 0
-1.07249 0.413687 -0.0037 0
-1.07249 0.413686 -0.0037 0
-1.07249 0.413685 -0.0041 0
-1.07249 0.413683 -0.0042 0
-1.07249 0.413682 -0.0042 0
-1.07249 0.41368 -0.004 0
-1.07249 0.41368 -0.004 0
-1.07249 0.413678 -0.0039 0
-1.07249 0.413676 -0.0039 0
-1.07249 0.413675 -0.0036 0
-1.07249 0.413674 -0.0036 0
-1.07249 0.413674 -0.004 0
-1.07249 0.413672 -0.004 0
-1.07248 0.413671 -0.004 0
-1.07248 0.413669 -0.004 0
-1.07248 0.413669 -0.0036 0
-1.07248 0.413668 -0.0036 0
-1.07248 0.413667 -0.0037 0
-1.07248 0.413667 -0.0037 0
-1.07248 0.413665 -0.004 0
-1.07248 0.413665 -0.004 0
-1.07248 0.413665 -0.0037 0
-1.07248 0.413664 -0.0037 0
-1.07248 0.413664 -0.0042 0
-1.07248 0.413664 -0.0042 0
-1.07248 0.413663 -0.0036 0
-1.07248 0.413662 -0.0036 0
-1.07248 0.413662 -0.0036 0
-1.07248 0.413662 -0.0036 0
-1.07248 0.413662 -0.0041 0
-1.07248 0.413662 -0.0041 0
-1.07248 0.413661 -0.0041 0
-1.07248 0.41366 -0.004 0
-1.07248 0.413659 -0.004 0
-1.07248 0.413658 -0.0036 0
-1.07248 0.413656 -0.0036 0
-1.07247 0.413654 -0.0038 0
-1.07247 0.413654 -0.0038 0
-1.07247 0.413653 -0.0038 0
-1.07247 0.413652 -0.0037 0
-1.07247 0.413652 -0.0037 0
-1.07247 0.413651 -0.0037 0
-1.07247 0.41365 -0.0041 0
-1.07098 0.411045 -0.0041 0
-1.07247 0.413648 -0.0041 0
-1.07247 0.413648 -0.0041 0
-1.07247 0.413647 -0.004 0
-1.07247 0.413646 -0.004 0
-1.07247 0.413646 -0.004 0
-1.07247 0.413645 -0.0043 0
-1.07247 0.413644 -0.0043 0
-1.07247 0.413644 -0.0037 0
-1.07246 0.413643 -0.0043 0
-1.07246 0.413642 -0.0043 0
-1.07246 0.413642 -0.0043 0
-1.07246 0.413642 -0.0044 0
-1.07246 0.413641 -0.0044 0
-1.07246 0.413641 -0.0044 0
-1.07246 0.41364 -0.004 0
-1.07246 0.413638 -0.004 0
-1.07246 0.413637 -0.0038 0
-1.07246 0.413636 -0.0038 0
-1.07246 0.413635 -0.0041 0
-1.07246 0.413636 -0.0041 0
-1.07246 0.413634 -0.0037 0
-1.07246 0.413634 -0.0037 0
-1.07246 0.413633 -0.0044 0
-1.07246 0.413633 -0.0044 0
-1.07246 0.413632 -0.0044 0
-1.07246 0.413632 -0.0038 0
-1.07246 0.413632 -0.0038 0
-1.07246 0.413631 -0.004 0
-1.07246 0.413631 -0.004 0
-1.07246 0.41363 -0.004 0
-1.07246 0.413629 -0.0041 0
-1.07246 0.413629 -0.0041 0
-1.07246 0.413629 -0.0039 0
-1.07246 0.413629 -0.0039 0
-1.07246 0.413628 -0.0039 0
-1.07246 0.413628 -0.0035 0
-1.07245 0.413627 -0.0039 0
-1.07245 0.413627 -0.0039 0
-1.07245 0.413627 -0.0039 0
-1.07096 0.411023 -0.0038 0
-1.07245 0.413626 -0.0038 0
-1.07245 0.413626 -0.0038 0
-1.07245 0.413625 -0.0038 0
-1.07245 0.413625 -0.0038 0
-1.07245 0.413625 -0.0039 0
-1.07245 0.413624 -0.0039 0
-1.07245 0.413622 -0.0036 0
-1.07245 0.413621 -0.0036 0
-1.07245 0.413621 -0.0034 0
-1.07245 0.41362 -0.0034 0
-1.07245 0.41362 -0.0037 0
-1.07245 0.41362 -0.0037 0
-1.07245 0.41362 -0.0037 0
-1.07244 0.413618 -0.004 0
-1.07244 0.413617 -0.0037 0
-1.07244 0.413616 -0.0037 0
-1.07244 0.413614 -0.0037 0
-1.07194 0.412746 -0.004 0
-1.07244 0.413613 -0.004 0
-1.07244 0.413613 -0.0038 0
-1.07244 0.413613 -0.0038 0
-1.07244 0.413613 -0.004 0
-1.07244 0.413613 -0.004 0
-1.07244 0.413613 -0.0039 0
-1.07244 0.413612 -0.0039 0
-1.07244 0.413611 -0.0039 0
-1.07244 0.41361 -0.0037 0
-1.07244 0.413609 -0.0044 0
-1.07244 0.413607 -0.0044 0
-1.07244 0.413606 -0.0044 0
-1.07244 0.413605 -0.0038 0
-1.07244 0.413605 -0.0038 0
-1.07244 0.413605 -0.0043 0
-1.07095 0.411001 -0.0043 0
-1.07244 0.413604 -0.0043 0
-1.07244 0.413603 -0.004 0
-1.07244 0.413602 -0.004 0
-1.07244 0.4136 -0.004 0
-1.07244 0.413598 -0.0041 0
-1.07243 0.413597 -0.0038 0
-1.07244 0.413595 -0.0038 0
-1.07244 0.413593 -0.0042 0
-1.07244 0.413592 -0.0042 0
-1.07244 0.413591 -0.0039 0
-1.07244 0.41359 -0.0039 0
-1.07244 0.413588 -0.004 0
-1.07244 0.413587 -0.004 0
-1.07244 0.413586 -0.0043 0
-1.07244 0.413585 -0.0043 0
-1.07244 0.413584 -0.0039 0
-1.07244 0.413583 -0.0039 0
-1.07244 0.413581 -0.0039 0
-1.07144 0.411845 -0.0045 0
-1.07244 0.41358 -0.0045 0
-1.07144 0.411844 -0.0042 0
-1.07244 0.413579 -0.0042 0
-1.07243 0.413578 -0.0039 0
-1.07243 0.413576 -0.0039 0
-1.07243 0.413574 -0.0044 0
-1.07243 0.413573 -0.0044 0
-1.07243 0.413572 -0.0044 0
-1.07231 0.413607 -0.0035 0
-1.07231 0.413607 -0.0039 0
-1.07231 0.413607 -0.0039 0
-1.07231 0.413607 -0.0039 0
-1.07243 0.413569 -0.004 0
-1.07243 0.413568 -0.0039 0
-1.07231 0.413604 -0.0039 0
-1.07231 0.413603 -0.0039 0
-1.07243 0.413564 -0.0038 0
-1.07242 0.413564 -0.0039 0
-1.07242 0.413564 -0.0039 0
-1.0928 0.449144 -0.0039 0
-1.07242 0.413564 -0.0041 0
-1.07193 0.412696 -0.0041 0
-1.07242 0.413563 -0.0041 0
-1.07242 0.413563 -0.0041 0
-1.0723 0.4136 -0.0038 0
-1.0723 0.413599 -0.0038 0
-1.0723 0.413597 -0.004 0
-1.0723 0.413596 -0.004 0
-1.0723 0.413596 -0.0038 0
-1.0723 0.413596 -0.0038 0
-1.0723 0.413596 -0.0041 0
-1.0723 0.413595 -0.0041 0
-1.0723 0.413594 -0.0036 0
-1.0723 0.413593 -0.0036 0
-1.0723 0.413592 -0.0036 0
-1.0723 0.41359 -0.0041 0
-1.0723 0.413589 -0.004 0
-1.0723 0.413587 -0.004 0
-1.0723 0.413587 -0.004 0
-1.0723 0.413585 -0.0036 0
-1.0723 0.413584 -0.0036 0
-1.0723 0.413584 -0.0042 0
-1.0723 0.413582 -0.0041 0
-1.0723 0.413582 -0.0041 0
-1.0723 0.413583 -0.0041 0
-1.07229 0.413582 -0.0042 0
-1.07229 0.413581 -0.0042 0
-1.07229 0.41358 -0.0038 0
-1.07229 0.41358 -0.0038 0
-1.07229 0.413579 -0.0038 0
-1.07229 0.413578 -0.0037 0
-1.07229 0.413577 -0.0037 0
-1.07229 0.413577 -0.0039 0
-1.07229 0.413575 -0.0039 0
-1.07229 0.413574 -0.0038 0
-1.07229 0.413573 -0.0038 0
-1.07229 0.413572 -0.0036 0
-1.07229 0.413572 -0.0036 0
-1.07229 0.413572 -0.0036 0
-1.07229 0.413572 -0.0042 0
-1.07229 0.413572 -0.0042 0
-1.07229 0.41357 -0.0039 0
-1.07229 0.413568 -0.0039 0
-1.07229 0.413567 -0.0044 0
-1.07229 0.413566 -0.0044 0
-1.07241 0.413527 -0.0044 0
-1.07241 0.413524 -0.004 0
-1.07141 0.411787 -0.004 0
-1.0724 0.413522 -0.004 0
-1.0724 0.41352 -0.0042 0
-1.0724 0.413518 -0.0042 0
-1.0724 0.413518 -0.0042 0
-1.0724 0.413516 -0.0039 0
-1.0724 0.413515 -0.0039 0
-1.0724 0.413514 -0.0041 0
-1.07228 0.41355 -0.0041 0
-1.0724 0.413511 -0.0041 0
-1.07141 0.411774 -0.0041 0
-1.07228 0.413546 -0.0038 0
-1.0724 0.413507 -0.0038 0
-1.0724 0.413506 -0.0038 0
-1.0724 0.413504 -0.0036 0
-1.0724 0.413504 -0.0036 0
-1.0724 0.413502 -0.0041 0
-1.0724 0.413501 -0.0041 0
-1.0724 0.413501 -0.0037 0
-1.0724 0.413499 -0.0037 0
-1.07228 0.413536 -0.0037 0
-1.0714 0.411762 -0.0037 0
-1.07239 0.413496 -0.0037 0
-1.07239 0.413496 -0.0041 0
-1.07227 0.41353 -0.0041 0
-1.07227 0.413529 -0.0039 0
-1.07227 0.413528 -0.0039 0
-1.07227 0.413527 -0.004 0
-1.07227 0.413526 -0.004 0
-1.07227 0.413525 -0.004 0
-1.07227 0.413524 -0.0035 0
-1.07227 0.413523 -0.0035 0
-1.07227 0.413523 -0.004 0
-1.07227 0.413523 -0.004 0
-1.07227 0.413522 -0.0043 0
-1.07227 0.413522 -0.0043 0
-1.07226 0.413521 -0.0036 0
-1.07227 0.41352 -0.0036 0
-1.07227 0.413519 -0.0044 0
-1.07227 0.41352 -0.0044 0
-1.07227 0.41352 -0.004 0
-1.07227 0.41352 -0.004 0
-1.07227 0.413519 -0.0044 0
-1.07227 0.413518 -0.0044 0
-1.07227 0.413518 -0.0038 0
-1.07227 0.413516 -0.0042 0
-1.07227 0.413515 -0.0042 0
-1.07227 0.413514 -0.0042 0
-1.07227 0.413512 -0.0042 0
-1.07226 0.413509 -0.0042 0
-1.07226 0.413508 -0.0035 0
-1.07226 0.413506 -0.0035 0
-1.07226 0.413505 -0.0039 0
-1.07226 0.413503 -0.004 0
-1.07226 0.413501 -0.004 0
-1.07226 0.4135 -0.004 0
-1.07226 0.4135 -0.0041 0
-1.07226 0.413497 -0.0037 0
-1.07226 0.413496 -0.0037 0
-1.07226 0.413495 -0.0037 0
-1.07226 0.413492 -0.0042 0
-1.07226 0.413492 -0.0042 0
-1.07226 0.413491 -0.0042 0
-1.07226 0.413489 -0.0042 0
-1.07226 0.413487 -0.0036 0
-1.07226 0.413486 -0.0036 0
-1.07226 0.413485 -0.0042 0
-1.07226 0.413483 -0.0042 0
-1.07226 0.413482 -0.0036 0
-1.07225 0.41348 -0.0041 0
-1.07225 0.413478 -0.0041 0
-1.07225 0.413477 -0.0041 0
-1.07225 0.413474 -0.004 0
-1.07225 0.413473 -0.004 0
-1.07225 0.413472 -0.004 0
-1.07225 0.413471 -0.004 0
-1.07225 0.41347 -0.0042 0
-1.07225 0.413469 -0.0042 0
-1.07225 0.413468 -0.0042 0
-1.07225 0.413467 -0.0045 0
-1.07225 0.413466 -0.0045 0
-1.07225 0.413466 -0.004 0
-1.07225 0.413465 -0.004 0
-1.07225 0.413465 -0.0039 0
-1.07225 0.413463 -0.0039 0
-1.07225 0.413461 -0.0044 0
-1.07225 0.413459 -0.0044 0
-1.07225 0.413457 -0.0041 0
-1.07225 0.413454 -0.0041 0
-1.07225 0.413454 -0.0044 0
-1.07225 0.413453 -0.0044 0
-1.07225 0.413453 -0.0039 0
-1.07225 0.413453 -0.0039 0
-1.07225 0.413453 -0.0039 0
-1.07225 0.413451 -0.0039 0
-1.07225 0.413451 -0.0038 0
-1.07225 0.41345 -0.0038 0
-1.07224 0.413449 -0.0038 0
-1.07224 0.413447 -0.0041 0
-1.07224 0.413446 -0.0041 0
-1.07224 0.413444 -0.0045 0
-1.07224 0.413443 -0.0045 0
-1.07224 0.413443 -0.0039 0
-1.07224 0.413443 -0.0039 0
-1.07224 0.413443 -0.004 0
-1.07224 0.413442 -0.004 0
-1.07224 0.413441 -0.004 0
-1.07224 0.413441 -0.0039 0
-1.07224 0.413441 -0.0039 0
-1.07224 0.413441 -0.0039 0
-1.07224 0.41344 -0.0032 0
-1.07224 0.413437 -0.0036 0
-1.07224 0.413436 -0.0036 0
-1.07223 0.413435 -0.0037 0
-1.07223 0.413435 -0.0037 0
-1.07223 0.413434 -0.0037 0
-1.07223 0.413433 -0.0039 0
-1.07223 0.413432 -0.0039 0
-1.07223 0.413432 -0.0038 0
-1.07223 0.413432 -0.0038 0
-1.07223 0.413431 -0.0038 0
-1.07223 0.41343 -0.0043 0
-1.07223 0.41343 -0.0043 0
-1.07223 0.413428 -0.0041 0
-1.07223 0.413425 -0.0041 0
-1.07223 0.413424 -0.0041 0
-1.07223 0.413423 -0.0041 0
-1.07223 0.413422 -0.004 0
-1.07223 0.413421 -0.004 0
-1.07223 0.41342 -0.004 0
-1.07223 0.413419 -0.0041 0
-1.07222 0.413418 -0.0041 0
-1.07222 0.413417 -0.0041 0
-1.07222 0.413415 -0.0036 0
-1.07222 0.413414 -0.004 0
-1.07222 0.413413 -0.004 0
-1.07222 0.413412 -0.0041 0
-1.07222 0.413411 -0.0041 0
-1.07222 0.41341 -0.0041 0
-1.07222 0.413407 -0.0044 0
-1.07222 0.413404 -0.0044 0
-1.07222 0.413402 -0.0039 0
-1.07222 0.4134 -0.0039 0
-1.07222 0.413399 -0.0039 0
-1.07222 0.413397 -0.0039 0
-1.07222 0.413396 -0.0039 0
-1.07222 0.413394 -0.0039 0
-1.07222 0.413392 -0.0041 0
-1.07222 0.41339 -0.0041 0
-1.07222 0.413388 -0.0041 0
-1.07222 0.413386 -0.0041 0
-1.07222 0.413385 -0.0041 0
-1.07222 0.413384 -0.0034 0
-1.07222 0.413383 -0.0034 0
-1.07222 0.413383 -0.0038 0
-1.07222 0.413382 -0.0038 0
-1.07172 0.412513 -0.0038 0
-1.07222 0.413379 -0.004 0
-1.07222 0.413378 -0.004 0
-1.07222 0.413377 -0.004 0
-1.07222 0.413377 -0.004 0
-1.07222 0.413375 -0.0042 0
-1.07222 0.413374 -0.0042 0
-1.07222 0.413373 -0.004 0
-1.07222 0.413371 -0.004 0
-1.07222 0.413368 -0.004 0
-1.07222 0.413368 -0.004 0
-1.07222 0.413368 -0.0034 0
-1.07222 0.413367 -0.0034 0
-1.07222 0.413366 -0.0034 0
-1.07122 0.411629 -0.004 0
-1.07222 0.413364 -0.004 0
-1.07222 0.413363 -0.0039 0
-1.07222 0.413362 -0.0039 0
-1.07222 0.413361 -0.0039 0
-1.07222 0.41336 -0.0041 0
-1.07222 0.413359 -0.0041 0
-1.07222 0.413359 -0.0035 0
-1.07221 0.413357 -0.0035 0
-1.07221 0.413356 -0.0037 0
-1.07221 0.413356 -0.0037 0
-1.07221 0.413355 -0.0036 0
-1.07221 0.413354 -0.0036 0
-1.07221 0.413354 -0.0036 0
-1.07221 0.413354 -0.0041 0
-1.07221 0.413353 -0.0041 0
-1.07172 0.412484 -0.0037 0
-1.07172 0.412483 -0.0037 0
-1.07221 0.41335 -0.0037 0
-1.07221 0.413349 -0.0038 0
-1.06625 0.402934 -0.0042 0
-1.07221 0.413347 -0.0042 0
-1.07221 0.413346 -0.0042 0
-1.07221 0.413345 -0.0037 0
-1.07221 0.413345 -0.0037 0
-1.07221 0.413344 -0.0041 0
-1.07221 0.413342 -0.0041 0
-1.07221 0.413342 -0.0039 0
-1.07233 0.413304 -0.0039 0
-1.07233 0.413303 -0.0035 0
-1.07233 0.413303 -0.0035 0
-1.07233 0.413302 -0.0041 0
-1.07233 0.413302 -0.0041 0
-1.07233 0.413301 -0.0041 0
-1.07233 0.413301 -0.0035 0
-1.07233 0.4133 -0.0035 0
-1.07233 0.4133 -0.0036 0
-1.07233 0.413299 -0.0036 0
-1.07233 0.413298 -0.0038 0
-1.07233 0.413298 -0.0038 0
-1.07221 0.413334 -0.0038 0
-1.07221 0.413334 -0.0041 0
-1.07221 0.413333 -0.0041 0
-1.07221 0.413332 -0.0043 0
-1.07233 0.413291 -0.0043 0
-1.07233 0.41329 -0.004 0
-1.07221 0.413327 -0.004 0
-1.07221 0.413325 -0.0041 0
-1.07072 0.410721 -0.0041 0
-1.07221 0.413324 -0.0041 0
-1.07221 0.413322 -0.0041 0
-1.07221 0.413321 -0.0047 0
-1.07221 0.413319 -0.0047 0
-1.07221 0.413318 -0.0045 0
-1.07221 0.413316 -0.0035 0
-1.07221 0.413316 -0.0035 0
-1.07221 0.413315 -0.0035 0
-1.07221 0.413314 -0.0041 0
-1.07221 0.413313 -0.0043 0
-1.0722 0.413313 -0.0043 0
-1.0722 0.413312 -0.0043 0
-1.0722 0.413311 -0.0041 0
-1.0722 0.413309 -0.004 0
-1.0722 0.413308 -0.004 0
-1.0722 0.413308 -0.0043 0
-1.0722 0.413307 -0.0043 0
-1.0722 0.413307 -0.0037 0
-1.0722 0.413307 -0.0037 0
-1.0722 0.413306 -0.0037 0
-1.07219 0.413305 -0.0044 0
-1.07219 0.413304 -0.0039 0
-1.07219 0.413303 -0.0039 0
-1.07219 0.413303 -0.0039 0
-1.07231 0.413264 -0.0037 0
-1.07231 0.413263 -0.0038 0
-1.07231 0.413262 -0.0038 0
-1.07231 0.413262 -0.0041 0
-1.07231 0.413262 -0.0041 0
-1.07231 0.413262 -0.0037 0
-1.07231 0.413262 -0.0037 0
-1.07231 0.413263 -0.004 0
-1.07231 0.413263 -0.0039 0
-1.07231 0.413263 -0.0039 0
-1.07231 0.413262 -0.0039 0
-1.07231 0.413259 -0.0039 0
-1.07231 0.413258 -0.0039 0
-1.07231 0.413257 -0.0039 0
-1.05243 0.378544 -0.0039 0
-1.07231 0.413256 -0.0038 0
-1.07231 0.413256 -0.0038 0
-1.0723 0.413255 -0.0042 0
-1.0723 0.413254 -0.0042 0
-1.0723 0.413253 -0.0042 0
-1.0723 0.413252 -0.0039 0
-1.0723 0.413252 -0.0039 0
-1.0723 0.413251 -0.0043 0
-1.0723 0.41325 -0.0043 0
-1.0723 0.413249 -0.0038 0
-1.0723 0.413248 -0.0038 0
-1.0723 0.413247 -0.004 0
-1.0723 0.413244 -0.004 0
-1.0723 0.413243 -0.004 0
-1.0723 0.413241 -0.004 0
-1.0723 0.413239 -0.0039 0
-1.0723 0.413237 -0.0039 0
-1.0723 0.413236 -0.0039 0
-1.0723 0.413235 -0.0039 0
-1.0723 0.413234 -0.0039 0
-1.0723 0.413233 -0.004 0
-1.0723 0.413232 -0.004 0
-1.07229 0.413231 -0.004 0
-1.07229 0.41323 -0.004 0
-1.07229 0.413229 -0.0041 0
-1.07229 0.413229 -0.0041 0
-1.07229 0.413227 -0.0041 0
-1.07229 0.413226 -0.0034 0
-1.07229 0.413225 -0.0034 0
-1.07229 0.413224 -0.0042 0
-1.07229 0.413224 -0.0042 0
-1.07229 0.413223 -0.0042 0
-1.07229 0.413223 -0.0037 0
-1.07229 0.413222 -0.0037 0
-1.07229 0.413222 -0.0038 0
-1.07229 0.413219 -0.0038 0
-1.07228 0.413217 -0.0038 0
-1.07228 0.413216 -0.0038 0
-1.07228 0.413215 -0.0042 0
-1.07228 0.413214 -0.0042 0
-1.07228 0.413212 -0.0042 0
-1.07228 0.41321 -0.004 0
-1.07228 0.413209 -0.0035 0
-1.07228 0.413208 -0.0035 0
-1.07228 0.413208 -0.0039 0
-1.07228 0.413207 -0.0039 0
-1.07227 0.413207 -0.0039 0
-1.07227 0.413206 -0.0039 0
-1.07227 0.413206 -0.0038 0
-1.07078 0.410602 -0.0038 0
-1.07227 0.413206 -0.0043 0
-1.07227 0.413203 -0.0043 0
-1.07227 0.413202 -0.0038 0
-1.07227 0.413202 -0.0038 0
-1.07128 0.411466 -0.0042 0
-1.07227 0.413199 -0.0042 0
-1.07227 0.413199 -0.0041 0
-1.07227 0.413198 -0.0041 0
-1.07227 0.413198 -0.0033 0
-1.07227 0.413197 -0.0033 0
-1.07227 0.413196 -0.0039 0
-1.07227 0.413195 -0.0039 0
-1.07215 0.41323 -0.004 0
-1.07215 0.413226 -0.004 0
-1.07215 0.413226 -0.0042 0
-1.07215 0.413225 -0.0042 0
-1.07215 0.413223 -0.0042 0
-1.07227 0.413184 -0.0042 0
-1.07226 0.413181 -0.0038 0
-1.07227 0.41318 -0.0038 0
-1.07227 0.413179 -0.0041 0
-1.07227 0.413176 -0.0041 0
-1.07077 0.410571 -0.004 0
-1.07226 0.413174 -0.004 0
-1.07226 0.413173 -0.0039 0
-1.07226 0.413173 -0.0039 0
-1.07226 0.413174 -0.0039 0
-1.0663 0.40276 -0.004 0
-1.07226 0.413173 -0.004 0
-1.07214 0.413209 -0.0041 0
-1.07214 0.413209 -0.0041 0
-1.07226 0.41317 -0.0041 0
-1.07226 0.413169 -0.0038 0
-1.07226 0.413168 -0.0038 0
-1.07226 0.413168 -0.0038 0
-1.07226 0.413167 -0.0038 0
-1.07226 0.413166 -0.0041 0
-1.07226 0.413165 -0.0041 0
-1.07226 0.413163 -0.0036 0
-1.07226 0.413162 -0.0036 0
-1.07226 0.413161 -0.0037 0
-1.07226 0.41316 -0.0037 0
-1.07226 0.413158 -0.0039 0
-1.07226 0.413157 -0.0039 0
-1.07226 0.413156 -0.0034 0
-1.07226 0.413155 -0.0034 0
-1.07214 0.41319 -0.004 0
-1.07214 0.413189 -0.004 0
-1.07213 0.413188 -0.004 0
-1.07213 0.413187 -0.004 0
-1.07225 0.413148 -0.0036 0
-1.07213 0.413185 -0.0036 0
-1.07213 0.413184 -0.0041 0
-1.07213 0.413183 -0.0041 0
-1.07213 0.413181 -0.0041 0
-1.07225 0.413143 -0.0041 0
-1.07225 0.413142 -0.0038 0
-1.07225 0.41314 -0.0041 0
-1.07225 0.413138 -0.0041 0
-1.07225 0.413137 -0.0041 0
-1.07225 0.413136 -0.0036 0
-1.07224 0.413135 -0.0039 0
-1.07224 0.413134 -0.0039 0
-1.07224 0.413133 -0.0039 0
-1.07224 0.413131 -0.0042 0
-1.07224 0.413131 -0.0039 0
-1.07224 0.413131 -0.0039 0
-1.07224 0.413131 -0.0039 0
-1.07212 0.413167 -0.0039 0
-1.07212 0.413164 -0.004 0
-1.07212 0.413163 -0.004 0
-1.07212 0.413162 -0.0043 0
-1.07212 0.413161 -0.0037 0
-1.07212 0.41316 -0.0037 0
-1.07212 0.413159 -0.0037 0
-1.07212 0.413159 -0.0042 0
-1.07211 0.413158 -0.0042 0
-1.07211 0.413157 -0.0039 0
-1.07211 0.413155 -0.0039 0
-1.07211 0.413153 -0.0044 0
-1.07211 0.413152 -0.0044 0
-1.07211 0.413149 -0.004 0
-1.07223 0.41311 -0.004 0
-1.07223 0.413109 -0.004 0
-1.07223 0.413107 -0.0038 0
-1.07223 0.413106 -0.0037 0
-1.07223 0.413106 -0.0037 0
-1.07223 0.413105 -0.0037 0
-1.07223 0.413102 -0.0038 0
-1.07223 0.4131 -0.0045 0
-1.07223 0.413099 -0.0045 0
-1.07223 0.413097 -0.0045 0
-1.07223 0.413097 -0.0043 0
-1.07223 0.413096 -0.0041 0
-1.07223 0.413096 -0.0041 0
-1.07223 0.413095 -0.0041 0
-1.07222 0.413095 -0.0036 0
-1.07222 0.413094 -0.0035 0
-1.07222 0.413094 -0.0035 0
-1.07222 0.413094 -0.0035 0
-1.07222 0.413093 -0.0037 0
-1.07222 0.413092 -0.004 0
-1.07222 0.413092 -0.004 0
-1.07222 0.413092 -0.004 0
-1.07222 0.41309 -0.0045 0
-1.07222 0.413089 -0.004 0
-1.07222 0.413087 -0.004 0
-1.0721 0.413123 -0.0038 0
-1.0721 0.413122 -0.0038 0
-1.0721 0.413121 -0.0036 0
-1.0721 0.41312 -0.0036 0
-1.0721 0.413118 -0.0041 0
-1.0721 0.413118 -0.0041 0
-1.0721 0.413117 -0.0035 0
-1.0721 0.413116 -0.0035 0
-1.0721 0.413115 -0.0042 0
-1.07111 0.411378 -0.0042 0
-1.0721 0.413112 -0.0042 0
-1.0721 0.413111 -0.0042 0
-1.0721 0.413109 -0.0034 0
-1.0721 0.413109 -0.0034 0
-1.0721 0.413109 -0.0036 0
-1.0721 0.413108 -0.0036 0
-1.07222 0.413069 -0.0042 0
-1.07222 0.413068 -0.0042 0
-1.07222 0.413068 -0.0044 0
-1.07221 0.413067 -0.0044 0
-1.07221 0.413067 -0.0044 0
-1.07221 0.413067 -0.004 0
-1.07221 0.413066 -0.004 0
-1.07221 0.413066 -0.0043 0
-1.07221 0.413065 -0.0043 0
-1.07221 0.413064 -0.0045 0
-1.07221 0.413063 -0.0045 0
-1.07221 0.413062 -0.004 0
-1.07221 0.413061 -0.004 0
-1.07209 0.413098 -0.004 0
-1.07221 0.413058 -0.0039 0
-1.07221 0.413057 -0.0044 0
-1.07221 0.413057 -0.0044 0
-1.07221 0.413057 -0.0044 0
-1.07221 0.413056 -0.004 0
-1.07221 0.413055 -0.004 0
-1.0722 0.413055 -0.0043 0
-1.0722 0.413054 -0.0043 0
-1.0722 0.413053 -0.0043 0
-1.07208 0.413088 -0.0042 0
-1.07208 0.413088 -0.0039 0
-1.07208 0.413087 -0.0039 0
-1.07208 0.413085 -0.0039 0
-1.07208 0.413084 -0.0042 0
-1.07208 0.413081 -0.0037 0
-1.07208 0.413079 -0.0037 0
-1.07208 0.413079 -0.0037 0
-1.07208 0.413079 -0.0038 0
-1.07208 0.413078 -0.0038 0
-1.07208 0.413077 -0.0042 0
-1.07208 0.413076 -0.0042 0
-1.07208 0.413076 -0.0042 0
-1.07208 0.413075 -0.004 0
-1.07208 0.413074 -0.004 0
-1.07208 0.413072 -0.004 0
-1.07059 0.410468 -0.004 0
-1.07208 0.413072 -0.004 0
-1.07208 0.413071 -0.0038 0
-1.07208 0.41307 -0.0038 0
-1.07208 0.413069 -0.0042 0
-1.07208 0.413065 -0.0042 0
-1.07108 0.411328 -0.0038 0
-1.07208 0.413062 -0.0038 0
-1.07208 0.413059 -0.004 0
-1.07208 0.413058 -0.004 0
-1.07208 0.413057 -0.0038 0
-1.07208 0.413056 -0.0038 0
-1.07208 0.413055 -0.004 0
-1.07208 0.413053 -0.004 0
-1.06623 0.402602 -0.004 0
-1.0722 0.413014 -0.004 0
-1.0722 0.413013 -0.0044 0
-1.0722 0.413012 -0.0044 0
-1.0722 0.413011 -0.0041 0
-1.0722 0.41301 -0.0041 0
-1.07208 0.413047 -0.0037 0
-1.07208 0.413046 -0.0037 0
-1.0722 0.413007 -0.0046 0
-1.0722 0.413006 -0.0046 0
-1.07219 0.413004 -0.0033 0
-1.07219 0.413002 -0.0033 0
-1.07219 0.413001 -0.0038 0
-1.07219 0.413 -0.004 0
-1.07219 0.412999 -0.004 0
-1.07219 0.412998 -0.004 0
-1.07219 0.412997 -0.0039 0
-1.07219 0.412996 -0.0037 0
-1.07219 0.412995 -0.0037 0
-1.07219 0.412994 -0.0037 0
-1.07219 0.412993 -0.0039 0
-1.07219 0.412992 -0.0035 0
-1.07219 0.41299 -0.0035 0
-1.07207 0.413026 -0.0035 0
-1.07207 0.413025 -0.0043 0
-1.07219 0.412987 -0.0043 0
-1.07219 0.412985 -0.0037 0
-1.07268 0.413851 -0.0037 0
-1.07207 0.413019 -0.0037 0
-1.07207 0.413018 -0.004 0
-1.07207 0.413016 -0.0042 0
-1.07206 0.413015 -0.0042 0
-1.07206 0.413014 -0.0042 0
-1.07206 0.413013 -0.0039 0
-1.07206 0.413012 -0.0039 0
-1.07206 0.413009 -0.0042 0
-1.07206 0.413008 -0.0042 0
-1.07206 0.413008 -0.0039 0
-1.07206 0.413008 -0.0039 0
-1.07206 0.413009 -0.0044 0
-1.07206 0.413009 -0.0044 0
-1.07206 0.413008 -0.0044 0
-1.07206 0.413007 -0.0036 0
-1.07206 0.413007 -0.0036 0
-1.07206 0.413007 -0.0036 0
-1.07206 0.413006 -0.0041 0
-1.07205 0.413006 -0.0041 0
-1.07205 0.413003 -0.0038 0
-1.07205 0.413002 -0.0038 0
-1.07205 0.413002 -0.004 0
-1.07155 0.412133 -0.0039 0
-1.07205 0.413 -0.0039 0
-1.07205 0.412999 -0.0039 0
-1.07205 0.412997 -0.0043 0
-1.07205 0.412996 -0.0043 0
-1.07205 0.412995 -0.0039 0
-1.07205 0.412995 -0.0039 0
-1.07205 0.412994 -0.0039 0
-1.07205 0.412993 -0.0038 0
-1.07205 0.41299 -0.0038 0
-1.07205 0.412989 -0.0038 0
-1.07204 0.412987 -0.0038 0
-1.07204 0.412986 -0.0036 0
-1.07204 0.412985 -0.0036 0
-1.07204 0.412986 -0.0041 0
-1.07204 0.412986 -0.0041 0
-1.07204 0.412984 -0.0035 0
-1.07204 0.412984 -0.0035 0
-1.07204 0.412983 -0.0036 0
-1.07204 0.412984 -0.0036 0
-1.07204 0.412983 -0.0036 0
-1.07204 0.412982 -0.0046 0
-1.07204 0.412981 -0.0035 0
-1.07154 0.412112 -0.0035 0
-1.07204 0.412979 -0.0035 0
-1.07204 0.412978 -0.0041 0
-1.07204 0.412977 -0.0041 0
-1.07203 0.412974 -0.0036 0
-1.07203 0.412973 -0.0036 0
-1.07104 0.411235 -0.0036 0
-1.07203 0.41297 -0.0036 0
-1.07203 0.412969 -0.0036 0
-1.07153 0.4121 -0.0036 0
-1.07203 0.412966 -0.0036 0
-1.07203 0.412964 -0.004 0
-1.07203 0.412964 -0.0043 0
-1.0924 0.448547 -0.0043 0
-1.07203 0.412963 -0.0043 0
-1.07203 0.412963 -0.0037 0
-1.07203 0.412962 -0.0037 0
-1.07203 0.412962 -0.0038 0
-1.07203 0.412962 -0.0038 0
-1.07203 0.412961 -0.0038 0
-1.07203 0.41296 -0.0039 0
-1.07203 0.412959 -0.0042 0
-1.07203 0.412958 -0.0042 0
-1.07203 0.412957 -0.0042 0
-1.07203 0.412956 -0.0038 0
-1.07203 0.412955 -0.0038 0
-1.07203 0.412954 -0.0039 0
-1.07215 0.412915 -0.0039 0
-1.07215 0.412914 -0.0042 0
-1.07215 0.412913 -0.0042 0
-1.09252 0.448492 -0.0044 0
-1.07214 0.41291 -0.0044 0
-1.07214 0.412909 -0.0038 0
-1.07214 0.412908 -0.0038 0
-1.07214 0.412906 -0.0039 0
-1.07214 0.412905 -0.0039 0
-1.07214 0.412904 -0.0044 0
-1.07115 0.411168 -0.0044 0
-1.07214 0.412901 -0.0037 0
-1.07214 0.4129 -0.0037 0
-1.07214 0.4129 -0.0038 0
-1.07202 0.412936 -0.0038 0
-1.07202 0.412936 -0.0047 0
-1.07202 0.412935 -0.0047 0
-1.07202 0.412934 -0.0047 0
-1.07202 0.412933 -0.0044 0
-1.07202 0.412932 -0.0044 0
-1.07202 0.412931 -0.0038 0
-1.07202 0.41293 -0.0038 0
-1.07202 0.412928 -0.0037 0
-1.07202 0.412927 -0.0037 0
-1.07202 0.412927 -0.0041 0
-1.07202 0.412926 -0.0041 0
-1.07202 0.412925 -0.0041 0
-1.07202 0.412924 -0.0034 0
-1.07202 0.412922 -0.0034 0
-1.07152 0.412052 -0.0038 0
-1.07202 0.412918 -0.0038 0
-1.07202 0.412918 -0.0047 0
-1.07202 0.412917 -0.0047 0
-1.07202 0.412916 -0.0032 0
-1.07202 0.412915 -0.0032 0
-1.07202 0.412913 -0.0038 0
-1.07202 0.412913 -0.0038 0
-1.07202 0.412912 -0.0043 0
-1.07202 0.412911 -0.0043 0
-1.07202 0.412908 -0.0038 0
-1.07202 0.412906 -0.0038 0
-1.07202 0.412906 -0.0033 0
-1.07202 0.412906 -0.0033 0
-1.07214 0.412866 -0.0037 0
-1.07202 0.412902 -0.0037 0
-1.07202 0.412901 -0.0046 0
-1.07214 0.412863 -0.0046 0
-1.07214 0.412862 -0.0036 0
-1.07213 0.412862 -0.0036 0
-1.07214 0.412862 -0.0038 0
-1.07213 0.412861 -0.0038 0
-1.07064 0.410257 -0.0039 0
-1.07213 0.41286 -0.0039 0
-1.07213 0.412859 -0.0038 0
-1.07164 0.411991 -0.0038 0
-1.07213 0.412858 -0.0038 0
-1.07213 0.412857 -0.0041 0
-1.07213 0.412858 -0.0041 0
-1.07213 0.412859 -0.0037 0
-1.07213 0.412858 -0.0037 0
-1.07213 0.412858 -0.0037 0
-1.07213 0.412857 -0.0037 0
-1.07213 0.412856 -0.0041 0
-1.07212 0.412855 -0.0041 0
-1.07212 0.412853 -0.0041 0
-1.072 0.41289 -0.0036 0
-1.072 0.412889 -0.0036 0
-1.072 0.412888 -0.0038 0
-1.072 0.412887 -0.0038 0
-1.072 0.412887 -0.0042 0
-1.0715 0.412018 -0.0042 0
-1.072 0.412885 -0.0043 0
-1.072 0.412884 -0.0043 0
-1.072 0.412883 -0.0043 0
-1.072 0.412882 -0.0041 0
-1.072 0.412882 -0.0041 0
-1.072 0.41288 -0.0041 0
-1.072 0.41288 -0.0041 0
-1.072 0.412879 -0.0041 0
-1.072 0.412878 -0.0041 0
-1.072 0.412878 -0.0039 0
-1.072 0.412877 -0.0039 0
-1.072 0.412876 -0.0039 0
-1.072 0.412875 -0.0043 0
-1.072 0.412874 -0.0036 0
-1.072 0.412874 -0.0036 0
-1.072 0.412874 -0.0036 0
-1.07212 0.412835 -0.0043 0
-1.07212 0.412835 -0.0036 0
-1.07212 0.412836 -0.0036 0
-1.07212 0.412835 -0.0036 0
-1.07212 0.412834 -0.0041 0
-1.07212 0.412833 -0.0038 0
-1.072 0.41287 -0.0038 0
-1.072 0.41287 -0.0038 0
-1.07212 0.412832 -0.004 0
-1.07212 0.412831 -0.0041 0
-1.07212 0.41283 -0.0041 0
-1.07212 0.412829 -0.0039 0
-1.07212 0.412829 -0.0039 0
-1.072 0.412865 -0.0041 0
-1.072 0.412864 -0.0041 0
-1.072 0.412863 -0.0038 0
-1.072 0.412862 -0.0038 0
-1.07212 0.412824 -0.0035 0
-1.072 0.41286 -0.0035 0
-1.072 0.41286 -0.0041 0
-1.072 0.412859 -0.0041 0
-1.072 0.412858 -0.0041 0
-1.072 0.412857 -0.0041 0
-1.072 0.412855 -0.0041 0
-1.07051 0.41025 -0.0041 0
-1.072 0.412854 -0.0041 0
-1.072 0.412854 -0.0037 0
-1.072 0.412853 -0.0037 0
-1.072 0.412852 -0.0044 0
-1.072 0.412851 -0.0044 0
-1.072 0.412851 -0.0033 0
-1.072 0.41285 -0.0033 0
-1.072 0.412848 -0.0039 0
-1.07199 0.412847 -0.0039 0
-1.072 0.412847 -0.0045 0
-1.07199 0.412846 -0.0045 0
-1.07199 0.412845 -0.0045 0
-1.07199 0.412844 -0.0035 0
-1.07199 0.412843 -0.0043 0
-1.07199 0.412843 -0.0043 0
-1.07199 0.412842 -0.0043 0
-1.07199 0.412842 -0.0042 0
-1.07211 0.412803 -0.0042 0
-1.07211 0.412801 -0.0038 0
-1.07211 0.4128 -0.0038 0
-1.07211 0.412798 -0.0038 0
-1.07211 0.412797 -0.0041 0
-1.07211 0.412795 -0.0037 0
-1.07211 0.412795 -0.0037 0
-1.07211 0.412793 -0.0037 0
-1.07211 0.412792 -0.0039 0
-1.07211 0.412791 -0.0039 0
-1.07211 0.412789 -0.0038 0
-1.07211 0.412788 -0.0038 0
-1.07211 0.412787 -0.0039 0
-1.07211 0.412786 -0.0039 0
-1.07211 0.412785 -0.0042 0
-1.07211 0.412784 -0.0042 0
-1.0721 0.412784 -0.0042 0
-1.07061 0.410179 -0.0036 0
-1.0721 0.412781 -0.0036 0
-1.0721 0.41278 -0.004 0
-1.0721 0.41278 -0.004 0
-1.0721 0.412779 -0.0042 0
-1.0721 0.412778 -0.0042 0
-1.0721 0.412777 -0.004 0
-1.0721 0.412776 -0.004 0
-1.0721 0.412775 -0.004 0
-1.07198 0.412812 -0.0043 0
-1.07148 0.411943 -0.0035 0
-1.07198 0.412811 -0.0035 0
-1.07198 0.412809 -0.0035 0
-1.07198 0.412807 -0.0043 0
-1.07198 0.412806 -0.0043 0
-1.07198 0.412805 -0.0039 0
-1.07198 0.412803 -0.0039 0
-1.0721 0.412764 -0.0039 0
-1.07209 0.412764 -0.0042 0
-1.07197 0.412801 -0.0041 0
-1.07197 0.4128 -0.0041 0
-1.07197 0.412799 -0.0041 0
-1.07197 0.412799 -0.0038 0
-1.07197 0.412799 -0.0038 0
-1.07048 0.410194 -0.004 0
-1.07197 0.412795 -0.004 0
-1.07197 0.412794 -0.0041 0
-1.07197 0.412792 -0.0041 0
-1.07197 0.412791 -0.0038 0
-1.07197 0.412791 -0.0038 0
-1.07197 0.41279 -0.0044 0
-1.07197 0.412789 -0.0044 0
-1.07197 0.412788 -0.0038 0
-1.07197 0.412786 -0.0038 0
-1.07196 0.412784 -0.0038 0
-1.07196 0.412783 -0.0037 0
-1.07196 0.412782 -0.0041 0
-1.07196 0.41278 -0.0041 0
-1.07197 0.412779 -0.0041 0
-1.07196 0.412778 -0.0038 0
-1.07196 0.412778 -0.0038 0
-1.07196 0.412777 -0.0043 0
-1.07196 0.412776 -0.0043 0
-1.07196 0.412776 -0.0039 0
-1.07196 0.412775 -0.0039 0
-1.07196 0.412774 -0.0039 0
-1.07196 0.412774 -0.0039 0
-1.07196 0.412773 -0.0039 0
-1.07196 0.412772 -0.0039 0
-1.07196 0.412771 -0.0039 0
-1.07197 0.41277 -0.0041 0
-1.07197 0.412769 -0.0041 0
-1.07197 0.412768 -0.004 0
-1.07197 0.412767 -0.004 0
-1.07197 0.412767 -0.004 0
-1.07197 0.412766 -0.004 0
-1.07196 0.412764 -0.004 0
-1.07197 0.412763 -0.0041 0
-1.07196 0.412762 -0.0041 0
-1.07196 0.41276 -0.0038 0
-1.07196 0.41276 -0.0038 0
-1.07196 0.412758 -0.0037 0
-1.07196 0.412758 -0.0037 0
-1.07196 0.412756 -0.0047 0
-1.07196 0.412755 -0.0047 0
-1.07196 0.412754 -0.0041 0
-1.07196 0.412752 -0.0041 0
-1.07196 0.41275 -0.0038 0
-1.07196 0.412749 -0.0038 0
-1.07196 0.412748 -0.0041 0
-1.07196 0.412748 -0.0041 0
-1.07059 0.410107 -0.0035 0
-1.07208 0.41271 -0.0035 0
-1.07196 0.412747 -0.004 0
-1.07196 0.412747 -0.004 0
-1.07196 0.412746 -0.0039 0
-1.07196 0.412745 -0.0039 0
-1.07196 0.412744 -0.0039 0
-1.07196 0.412743 -0.0042 0
-1.07196 0.412743 -0.0042 0
-1.07196 0.412742 -0.004 0
-1.07196 0.412741 -0.004 0
-1.07196 0.41274 -0.0038 0
-1.07196 0.412739 -0.0038 0
-1.07195 0.412737 -0.0041 0
-1.07195 0.412736 -0.0041 0
-1.07195 0.412736 -0.0038 0
-1.07195 0.412736 -0.0038 0
-1.07195 0.412734 -0.0042 0
-1.07195 0.412734 -0.0042 0
-1.07195 0.412733 -0.0039 0
-1.07195 0.412732 -0.0041 0
-1.07195 0.412731 -0.0041 0
-1.07195 0.412731 -0.0041 0
-1.07195 0.41273 -0.0036 0
-1.07195 0.41273 -0.0036 0
-1.07195 0.41273 -0.0037 0
-1.07195 0.41273 -0.0037 0
-1.07195 0.412729 -0.0042 0
-1.07046 0.410124 -0.0042 0
-1.07195 0.412724 -0.0041 0
-1.07195 0.412723 -0.0041 0
-1.07195 0.412722 -0.0034 0
-1.07195 0.412722 -0.0034 0
-1.07195 0.412721 -0.0042 0
-1.07194 0.412719 -0.0042 0
-1.07194 0.412718 -0.0038 0
-1.07194 0.412717 -0.0038 0
-1.07194 0.412717 -0.0044 0
-1.07194 0.412716 -0.0044 0
-1.07194 0.412716 -0.0044 0
-1.07194 0.412715 -0.0035 0
-1.07194 0.412714 -0.0035 0
-1.07194 0.412712 -0.0041 0
-1.07194 0.41271 -0.0041 0
-1.07194 0.412709 -0.0037 0
-1.07194 0.412707 -0.0037 0
-1.07194 0.412706 -0.0038 0
-1.07194 0.412704 -0.0038 0
-1.07194 0.412702 -0.0041 0
-1.07194 0.4127 -0.0041 0
-1.07194 0.412699 -0.004 0
-1.07194 0.412697 -0.004 0
-1.07194 0.412696 -0.0041 0
-1.07194 0.412695 -0.0041 0
-1.07194 0.412694 -0.0038 0
-1.07194 0.412693 -0.0038 0
-1.07194 0.412693 -0.0038 0
-1.07194 0.412693 -0.0042 0
-1.07194 0.412692 -0.0042 0
-1.07194 0.41269 -0.0036 0
-1.07194 0.41269 -0.0036 0
-1.07194 0.412689 -0.0042 0
-1.07194 0.412689 -0.0042 0
-1.07194 0.412689 -0.0037 0
-1.07194 0.412688 -0.0037 0
-1.07194 0.412689 -0.0039 0
-1.07194 0.412689 -0.0039 0
-1.07194 0.412688 -0.0038 0
-1.07194 0.412688 -0.0038 0
-1.07194 0.412687 -0.0038 0
-1.07194 0.412687 -0.0038 0
-1.07193 0.412685 -0.0038 0
-1.07193 0.412684 -0.0038 0
-1.07193 0.412683 -0.0038 0
-1.07193 0.412681 -0.0038 0
-1.07193 0.412679 -0.0037 0
-1.07193 0.412678 -0.0037 0
-1.07193 0.412677 -0.0037 0
-1.07205 0.412638 -0.0041 0
-1.07205 0.412637 -0.0041 0
-1.07205 0.412636 -0.0041 0
-1.07304 0.41437 -0.0037 0
-1.07205 0.412633 -0.0037 0
-1.07205 0.412633 -0.0037 0
-1.07205 0.412632 -0.0037 0
-1.07205 0.412632 -0.0037 0
-1.07205 0.41263 -0.0037 0
-1.07193 0.412667 -0.0043 0
-1.07205 0.412629 -0.0043 0
-1.07205 0.412629 -0.0043 0
-1.07205 0.412627 -0.0038 0
-1.07193 0.412661 -0.0044 0
-1.07192 0.412664 -0.0044 0
-1.07178 0.412711 -0.0044 0
-1.07116 0.412909 0.0096 0
-1.07093 0.412969 0.0461 0
-1.07059 0.413062 0.0461 0
-1.06984 0.412244 -0.0037 0
-1.0698 0.412237 -0.0037 0
-1.06976 0.412234 0.0316 0
-1.06988 0.412197 0.0316 0
-1.07004 0.412179 0.0316 0
-1.07053 0.412073 0.0017 0
-1.07067 0.412041 0.0068 0
-1.07019 0.411172 0.0068 0
-1.07021 0.411172 0.0068 0
-1.07023 0.411176 -0.007 0
-1.07023 0.41118 -0.005 0
-1.07035 0.411145 -0.005 0
-1.07047 0.411107 -0.0046 0
-1.06997 0.410243 -0.0046 0
-1.0707 0.411042 0.0016 0
-1.07031 0.410138 0.0016 0
-1.07055 0.410056 0.0081 0
-1.07116 0.410878 0.0081 0
-1.07067 0.410002 -0.0025 0
-1.07114 0.40984 -0.0025 0
-1.07163 0.410699 0.003 0
-1.07174 0.410655 0.003 0
-1.07173 0.410656 -0.0021 0
-1.07124 0.409795 -0.0021 0
-1.07124 0.409803 -0.003 0
-1.07124 0.409812 -0.003 0
-1.07125 0.409816 0.0015 0
-1.07125 0.409818 0.0015 0
-1.07125 0.409818 -0.002 0
-1.07125 0.409818 -0.002 0
-1.07125 0.409817 -0.0011 0
-1.07125 0.409821 -0.0011 0
-1.07124 0.409822 0.0019 0
-1.07124 0.409823 0.0019 0
-1.07124 0.409822 -0.000500001 0
-1.07124 0.409821 -0.000500001 0
-1.07174 0.41069 -0.000900001 0
-1.07124 0.409824 -0.000900001 0
-1.07124 0.409824 0.0015 0
-1.07124 0.409825 0.0015 0
-1.07124 0.409824 0.0015 0
-1.07174 0.41069 -0.000800001 0
-1.07125 0.409822 -0.000800001 0
-1.07125 0.409825 -0.0035 0
-1.07125 0.409829 -0.0035 0
-1.07125 0.409828 0.0012 0
-1.07125 0.409828 0.0012 0
-1.07124 0.409828 -0.000500001 0
-1.07124 0.409826 -0.000500001 0
-1.07124 0.409825 -0.000500001 0
-1.07124 0.409822 -0.000400001 0
-1.07124 0.409821 0.0017 0
-1.07124 0.40982 0.0017 0
-1.07124 0.409818 0.0017 0
-1.07124 0.409815 -0.0042 0
-1.07124 0.409817 -0.0013 0
-1.07124 0.409817 -0.0013 0
-1.07124 0.409818 -0.0013 0
-1.07124 0.409817 -0.0025 0
-1.07124 0.409815 -0.003 0
-1.07123 0.409814 -0.003 0
-1.07123 0.409814 -0.003 0
-1.07123 0.409814 0.0014 0
-1.07123 0.409815 -0.0015 0
-1.07123 0.409816 -0.0015 0
-1.07123 0.409815 -0.0015 0
-1.07173 0.410682 -0.0018 0
-1.07123 0.409815 -0.0018 0
-1.07123 0.409813 -0.000400002 0
-1.07122 0.409812 -0.000400002 0
-1.07122 0.409812 -0.0029 0
-1.07122 0.409812 -0.0029 0
-1.07122 0.409811 -0.000300002 0
-1.07122 0.409812 -0.000300002 0
-1.07122 0.409811 -1.86265e-09 0
-1.07122 0.40981 -1.86265e-09 0
-1.07122 0.409809 -0.0014 0
-1.07122 0.409808 -0.0014 0
-1.07122 0.409807 -0.0021 0
-1.07122 0.409806 -0.0021 0
-1.07122 0.409804 -0.0016 0
-1.07122 0.409807 -0.0016 0
-1.07122 0.409809 -0.0029 0
-1.07122 0.409806 -1.86265e-09 0
-1.07122 0.409803 -1.86265e-09 0
-1.07172 0.410664 -1.86265e-09 0
-1.07122 0.409793 0.0011 0
-1.07122 0.409792 0.0011 0
-1.07122 0.409798 -0.000500002 0
-1.07172 0.410666 -0.000500002 0
-1.07122 0.409799 -0.0025 0
-1.07171 0.410662 0.0016 0
-1.07121 0.409794 0.0016 0
-1.07121 0.409792 0.0016 0
-1.07122 0.40979 0.000399998 0
-1.07171 0.410655 0.000399998 0
-1.07171 0.410653 -0.0032 0
-1.07121 0.409786 -0.0032 0
-1.07121 0.409785 0.000199998 0
-1.07171 0.410652 0.000199998 0
-1.07171 0.41065 -0.000400002 0
-1.07022 0.408049 -0.000400002 0
-1.07121 0.409782 -0.001 0
-1.07121 0.409781 -0.001 0
-1.07171 0.410646 -0.0031 0
-1.07122 0.409778 -0.0031 0
-1.07134 0.40974 -0.0038 0
-1.07121 0.409776 -0.0038 0
-1.07171 0.410643 0.0015 0
-1.07121 0.409779 0.0015 0
-1.07121 0.40978 0.0015 0
-1.0712 0.409784 -0.000100002 0
-1.0712 0.409784 -0.0023 0
-1.0712 0.409784 -0.0023 0
-1.0712 0.409779 -0.000900002 0
-1.0712 0.40978 -0.000900002 0
-1.0712 0.409777 -0.0018 0
-1.07121 0.409776 -0.0018 0
-1.07121 0.409774 0.0013 0
-1.0717 0.410641 0.0013 0
-1.0712 0.409773 -0.0028 0
-1.07121 0.409772 -0.0028 0
-1.07121 0.409772 0.0031 0
-1.07121 0.409772 0.0031 0
-1.07121 0.40977 -0.0017 0
-1.07121 0.409766 -0.0017 0
-1.07121 0.409765 -0.000200002 0
-1.0712 0.409766 -0.000200002 0
-1.0712 0.409764 -0.0016 0
-1.0717 0.410631 -0.0016 0
-1.07121 0.409763 0.0016 0
-1.07121 0.409761 0.0016 0
-1.07121 0.409761 0.000999998 0
-1.0717 0.410626 0.000999998 0
-0.986581 0.262318 0.000999998 0
-1.07121 0.409756 0.0023 0
-1.07121 0.409755 0.0023 0
-1.0712 0.409754 0.000799998 0
-1.0712 0.409753 0.000799998 0
-1.0712 0.409752 -0.000700002 0
-1.0712 0.409754 -0.000700002 0
-1.0712 0.409755 -0.0024 0
-1.0702 0.408021 -0.0024 0
-1.0712 0.409755 -0.0024 0
-1.0712 0.409755 -0.0017 0
-1.0712 0.409757 -0.0017 0
-1.0712 0.409757 -0.001 0
-1.0712 0.409755 -0.001 0
-1.0712 0.409755 -0.001 0
-1.0712 0.409752 -0.0031 0
-1.0712 0.409749 -0.0031 0
-1.0712 0.409746 0.000199998 0
-1.0712 0.409745 0.000199998 0
-1.0712 0.409744 0.000199998 0
-1.0712 0.409743 0.0026 0
-1.0712 0.40974 0.0026 0
-1.0712 0.409741 -0.0021 0
-1.0712 0.40974 -0.0021 0
-1.07119 0.409742 0.000299998 0
-1.0712 0.409739 0.000299998 0
-1.0712 0.409733 -0.000200002 0
-1.0503 0.3733 -0.000200002 0
-1.07121 0.409723 -0.000200002 0
-1.07126 0.409692 -2.09548e-09 0
-1.07187 0.410496 -2.09548e-09 0
-1.07151 0.409551 -0.0034 0
-1.07217 0.410321 -0.0034 0
-1.07189 0.409325 -0.0034 0
-1.07247 0.409022 -0.0013 0
-1.07273 0.408869 -0.0029 0
-1.07301 0.408703 -0.0029 0
-1.06782 0.398997 -0.0029 0
-1.07359 0.408366 -0.0035 0
-1.07326 0.406342 -0.0035 0
-1.07471 0.407848 -0.0031 0
-1.07519 0.407604 -0.0031 0
-1.07605 0.407131 -0.000900002 0
-1.0768 0.406794 -0.000900002 0
-1.07719 0.406565 -0.0029 0
-1.07773 0.406287 -0.0029 0
-1.07884 0.405717 -0.0025 0
-1.07891 0.404553 -0.0025 0
-1.07999 0.405118 -0.0039 0
-1.08057 0.404819 -0.0039 0
-1.0808 0.40361 -0.0039 0
-1.0824 0.402859 0.0017 0
-1.08305 0.402524 0.000499998 0
-1.08334 0.401268 0.000499998 0
-1.08403 0.4009 0.000499998 0
-1.08492 0.399283 0.000599998 0
-1.08615 0.399752 -0.0039 0
-1.0869 0.399344 -0.0039 0
-1.08704 0.398103 -0.0039 0
-1.08681 0.395949 0.0014 0
-1.08918 0.396869 -0.000800002 0
-1.08989 0.396462 -0.000800002 0
-1.09099 0.395926 -0.000800002 0
-1.07395 0.362042 0.000799998 0
-1.07444 0.360664 0.004 0
-1.07484 0.359312 0.004 0
-1.07664 0.357312 0.000699997 0
-1.07771 0.35675 0.000699997 0
-1.07879 0.35618 -0.0029 0
-1.08088 0.355033 -0.0029 0
-1.08137 0.353608 -0.0024 0
-1.0823 0.35305 -0.0024 0
-1.08336 0.352449 -0.0011 0
-1.08494 0.350383 -0.0011 0
-1.08555 0.348892 -0.000300002 0
-1.08709 0.349144 -0.000300002 0
-1.0887 0.347028 0.0014 0
-1.08981 0.346377 0.0014 0
-1.09063 0.344806 0.0011 0
-1.09145 0.34323 0.0011 0
-1.09407 0.341798 0.0012 0
-1.09547 0.341038 0.0012 0
-1.09651 0.33936 9.99975e-05 0
-1.0993 0.337793 -0.0032 0
-1.10027 0.336113 -0.0032 0
-1.10164 0.335318 -0.0032 0
-1.10304 0.334505 -0.0028 0
-1.10384 0.332847 -0.0028 0
-1.10522 0.33204 -0.0047 0
-1.10655 0.331242 -0.0047 0
-1.10776 0.330482 -0.0047 0
-1.11011 0.328953 0.000899997 0
-1.11114 0.328225 0.0037 0
-1.1122 0.327487 0.0037 0
-1.11406 0.326061 0.0012 0
-1.1155 0.326201 0.0012 0
-1.11604 0.324573 0.000199997 0
-1.11747 0.324715 0.000199997 0
-1.119 0.323331 -0.000400003 0
-1.12103 0.324288 -0.000400003 0
-1.1223 0.32344 0.0012 0
-1.12361 0.322585 0.0012 0
-1.12404 0.322002 0.0012 0
-1.12653 0.320328 -0.0049 0
-1.1283 0.320341 -0.0059 0
-1.1297 0.319447 -0.0059 0
-1.13093 0.318619 -0.0059 0
-1.13378 0.316795 -0.000200003 0
-1.1353 0.315879 -0.0061 0
-1.1364 0.314047 -0.0061 0
-1.13842 0.313967 -0.0061 0
-1.14162 0.311983 -0.0023 0
-1.14307 0.311021 -0.000300003 0
-1.14445 0.310062 -0.000300003 0
-1.14684 0.309837 -0.000300003 0
-1.16771 0.341183 0.0013 0
-1.17012 0.341963 0.0017 0
-1.17206 0.34186 0.0017 0
-1.17479 0.339946 -0.0033 0
-1.1758 0.338074 -0.0033 0
-1.1778 0.337949 -0.000700003 0
-1.17933 0.336943 -0.000700003 0
-1.18247 0.334896 -0.0042 0
-1.18413 0.333857 -0.0042 0
-1.18647 0.333616 -0.0051 0
-1.18823 0.332516 -0.0051 0
-1.18934 0.330609 -0.0051 0
-1.15428 0.26192 0.0024 0
-1.19307 0.328334 0.0024 0
-1.19527 0.327095 -0.0056 0
-1.19749 0.32686 -0.0056 0
-1.19889 0.324825 -0.0056 0
-1.20163 0.324431 -0.0025 0
-1.20525 0.321125 -0.000400004 0
-1.20745 0.319866 -0.000400004 0
-1.21016 0.319479 -0.000400004 0
-1.21232 0.318253 -0.000200004 0
-1.21456 0.316982 -0.000200004 0
-1.21608 0.314896 0.007 0
-1.21913 0.31387 0.007 0
-1.22028 0.313024 -0.0015 0
-1.22156 0.312173 -0.0015 0
-1.22328 0.312241 0.0043 0
-1.22581 0.30971 0.0043 0
-1.22724 0.308961 0.0045 0
-1.22845 0.308305 0.0045 0
-1.22945 0.307738 0.000199995 0
-1.23141 0.306685 0.000199995 0
-1.23228 0.306224 0.0017 0
-1.23365 0.306653 0.0017 0
-1.23438 0.306262 0.0012 0
-1.23458 0.305022 0.0012 0
-1.23566 0.305574 0.0012 0
-1.23685 0.304964 9.99956e-05 0
-1.23685 0.303829 0.0024 0
-1.23727 0.303596 0.0024 0
