ply
format ascii 1.0
element vertex 1632
property float x
property float y
property float z
property float intensity
end_header
-0.79533 -1.24666 -0.0103 0
-0.795329 -1.24666 -0.0103 0
-0.795328 -1.24666 -0.0096 0
-0.795326 -1.24665 -0.0096 0
-0.795325 -1.24665 -0.0096 0
-0.795325 -1.24665 -0.0097 0
-0.795325 -1.24665 -0.0097 0
-0.795327 -1.24665 -0.0105 0
-0.795327 -1.24665 -0.0105 0
-0.795327 -1.24665 -0.0094 0
-0.795327 -1.24665 -0.0094 0
-0.795327 -1.24665 -0.0094 0
-0.795326 -1.24665 -0.0094 0
-0.795369 -1.24653 -0.0092 0
-0.795368 -1.24653 -0.0092 0
-0.795367 -1.24653 -0.0092 0
-0.795367 -1.24653 -0.0101 0
-0.795366 -1.24653 -0.0101 0
-0.795366 -1.24653 -0.0098 0
-0.795365 -1.24653 -0.0098 0
-0.795319 -1.24664 -0.0093 0
-0.795318 -1.24664 -0.0093 0
-0.795318 -1.24664 -0.0097 0
-0.795317 -1.24664 -0.0097 0
-0.795317 -1.24664 -0.0097 0
-0.795317 -1.24664 -0.0095 0
-0.795317 -1.24664 -0.0095 0
-0.795316 -1.24664 -0.0101 0
-0.79536 -1.24652 -0.0096 0
-0.795359 -1.24652 -0.0096 0
-0.795312 -1.24664 -0.0096 0
-0.795311 -1.24664 -0.0094 0
-0.795311 -1.24664 -0.0094 0
-0.79531 -1.24664 -0.01 0
-0.795308 -1.24664 -0.01 0
-0.795307 -1.24663 -0.0096 0
-0.795306 -1.24663 -0.0096 0
-0.795305 -1.24663 -0.0096 0
-0.795304 -1.24663 -0.0096 0
-0.795349 -1.24651 -0.0096 0
-0.795303 -1.24663 -0.0102 0
-0.796181 -1.24707 -0.0102 0
-0.795302 -1.24663 -0.0102 0
-0.795347 -1.24651 -0.0101 0
-0.795347 -1.24651 -0.0101 0
-0.795345 -1.24651 -0.0099 0
-0.795344 -1.24651 -0.0095 0
-0.793679 -1.2454 -0.0095 0
-0.795343 -1.24651 -0.0095 0
-0.795343 -1.24651 -0.0095 0
-0.795341 -1.24651 -0.0095 0
-0.795295 -1.24662 -0.0095 0
-0.79534 -1.24651 -0.0097 0
-0.795339 -1.24651 -0.0098 0
-0.795293 -1.24662 -0.0098 0
-0.795292 -1.24662 -0.0098 0
-0.795291 -1.24662 -0.0094 0
-0.795288 -1.24662 -0.01 0
-0.795332 -1.2465 -0.01 0
-0.795331 -1.2465 -0.0092 0
-0.795331 -1.2465 -0.0092 0
-0.795331 -1.2465 -0.0092 0
-0.79533 -1.2465 -0.0104 0
-0.795328 -1.2465 -0.0104 0
-0.795328 -1.2465 -0.0098 0
-0.795324 -1.24649 -0.0098 0
-0.795323 -1.24649 -0.0096 0
-0.795323 -1.24649 -0.0096 0
-0.795323 -1.24649 -0.01 0
-0.795322 -1.24649 -0.01 0
-0.795275 -1.24661 -0.01 0
-0.795275 -1.24661 -0.0095 0
-0.795272 -1.24661 -0.0095 0
-0.795271 -1.24661 -0.0096 0
-0.79527 -1.24661 -0.0096 0
-0.795269 -1.24661 -0.01 0
-0.795269 -1.24661 -0.01 0
-0.795269 -1.24661 -0.01 0
-0.79527 -1.24661 -0.0096 0
-0.795269 -1.24661 -0.0098 0
-0.795268 -1.24661 -0.0098 0
-0.795267 -1.24661 -0.0098 0
-0.795266 -1.24661 -0.0094 0
-0.795265 -1.24661 -0.0094 0
-0.795263 -1.24661 -0.0098 0
-0.795262 -1.24661 -0.0099 0
-0.79526 -1.24661 -0.0099 0
-0.795259 -1.24661 -0.0097 0
-0.795258 -1.2466 -0.0097 0
-0.795257 -1.2466 -0.0096 0
-0.795255 -1.2466 -0.0096 0
-0.795254 -1.2466 -0.0093 0
-0.795253 -1.2466 -0.0093 0
-0.795253 -1.2466 -0.0097 0
-0.795251 -1.2466 -0.0097 0
-0.79525 -1.2466 -0.0097 0
-0.795249 -1.2466 -0.0097 0
-0.795248 -1.2466 -0.0093 0
-0.795247 -1.2466 -0.0093 0
-0.795247 -1.2466 -0.0094 0
-0.795246 -1.2466 -0.0094 0
-0.795245 -1.2466 -0.0097 0
-0.795244 -1.2466 -0.0097 0
-0.795244 -1.24659 -0.0094 0
-0.795244 -1.24659 -0.0094 0
-0.795243 -1.24659 -0.0099 0
-0.795243 -1.2466 -0.0099 0
-0.795242 -1.24659 -0.0093 0
-0.795242 -1.24659 -0.0093 0
-0.795241 -1.2466 -0.0093 0
-0.795241 -1.24659 -0.0093 0
-0.795241 -1.24659 -0.0098 0
-0.795241 -1.24659 -0.0098 0
-0.79524 -1.24659 -0.0098 0
-0.79524 -1.24659 -0.0097 0
-0.795239 -1.24659 -0.0097 0
-0.795238 -1.24659 -0.0093 0
-0.795236 -1.24659 -0.0093 0
-0.795234 -1.24659 -0.0095 0
-0.795234 -1.24659 -0.0095 0
-0.795233 -1.24659 -0.0095 0
-0.795232 -1.24659 -0.0094 0
-0.795232 -1.24659 -0.0094 0
-0.795231 -1.24659 -0.0094 0
-0.79523 -1.24658 -0.0098 0
-0.792732 -1.24492 -0.0098 0
-0.795228 -1.24658 -0.0098 0
-0.795228 -1.24658 -0.0098 0
-0.795227 -1.24658 -0.0097 0
-0.795226 -1.24658 -0.0097 0
-0.795226 -1.24658 -0.0097 0
-0.795226 -1.24658 -0.01 0
-0.795225 -1.24658 -0.01 0
-0.795224 -1.24658 -0.0094 0
-0.795223 -1.24658 -0.01 0
-0.795223 -1.24658 -0.01 0
-0.795223 -1.24658 -0.01 0
-0.795222 -1.24658 -0.0101 0
-0.795222 -1.24658 -0.0101 0
-0.795221 -1.24658 -0.0101 0
-0.79522 -1.24658 -0.0097 0
-0.795219 -1.24657 -0.0097 0
-0.795217 -1.24657 -0.0095 0
-0.795217 -1.24657 -0.0095 0
-0.795216 -1.24657 -0.0098 0
-0.795216 -1.24657 -0.0098 0
-0.795215 -1.24657 -0.0094 0
-0.795214 -1.24657 -0.0094 0
-0.795214 -1.24657 -0.0101 0
-0.795214 -1.24657 -0.0101 0
-0.795213 -1.24657 -0.0101 0
-0.795213 -1.24657 -0.0095 0
-0.795213 -1.24657 -0.0095 0
-0.795212 -1.24657 -0.0097 0
-0.795212 -1.24657 -0.0097 0
-0.795211 -1.24657 -0.0097 0
-0.79521 -1.24657 -0.0098 0
-0.79521 -1.24657 -0.0098 0
-0.79521 -1.24657 -0.0096 0
-0.79521 -1.24657 -0.0096 0
-0.795209 -1.24657 -0.0096 0
-0.795209 -1.24657 -0.0092 0
-0.795209 -1.24657 -0.0096 0
-0.795208 -1.24657 -0.0096 0
-0.795208 -1.24656 -0.0096 0
-0.792711 -1.2449 -0.0095 0
-0.795208 -1.24656 -0.0095 0
-0.795207 -1.24656 -0.0095 0
-0.795207 -1.24656 -0.0095 0
-0.795207 -1.24656 -0.0095 0
-0.795206 -1.24656 -0.0096 0
-0.795205 -1.24656 -0.0096 0
-0.795204 -1.24656 -0.0093 0
-0.795203 -1.24656 -0.0093 0
-0.795202 -1.24656 -0.0091 0
-0.795202 -1.24656 -0.0091 0
-0.795202 -1.24656 -0.0094 0
-0.795202 -1.24656 -0.0094 0
-0.795202 -1.24656 -0.0094 0
-0.7952 -1.24656 -0.0097 0
-0.795199 -1.24655 -0.0094 0
-0.795198 -1.24655 -0.0094 0
-0.795196 -1.24655 -0.0094 0
-0.794364 -1.246 -0.0097 0
-0.795195 -1.24655 -0.0097 0
-0.795195 -1.24655 -0.0095 0
-0.795196 -1.24655 -0.0095 0
-0.795195 -1.24655 -0.0097 0
-0.795195 -1.24655 -0.0097 0
-0.795195 -1.24655 -0.0096 0
-0.795194 -1.24655 -0.0096 0
-0.795193 -1.24655 -0.0096 0
-0.795192 -1.24655 -0.0094 0
-0.795191 -1.24655 -0.0101 0
-0.79519 -1.24655 -0.0101 0
-0.795188 -1.24655 -0.0101 0
-0.795187 -1.24655 -0.0095 0
-0.795187 -1.24655 -0.0095 0
-0.795187 -1.24655 -0.01 0
-0.79269 -1.24489 -0.01 0
-0.795186 -1.24655 -0.01 0
-0.795186 -1.24655 -0.0097 0
-0.795184 -1.24655 -0.0097 0
-0.795183 -1.24655 -0.0097 0
-0.795181 -1.24654 -0.0098 0
-0.795179 -1.24654 -0.0095 0
-0.795178 -1.24654 -0.0095 0
-0.795176 -1.24654 -0.0099 0
-0.795174 -1.24654 -0.0099 0
-0.795173 -1.24654 -0.0096 0
-0.795173 -1.24654 -0.0096 0
-0.79517 -1.24654 -0.0097 0
-0.79517 -1.24654 -0.0097 0
-0.795169 -1.24654 -0.01 0
-0.795167 -1.24654 -0.01 0
-0.795166 -1.24654 -0.0096 0
-0.795165 -1.24654 -0.0096 0
-0.795164 -1.24654 -0.0096 0
-0.793498 -1.24544 -0.0102 0
-0.795162 -1.24654 -0.0102 0
-0.793497 -1.24544 -0.0099 0
-0.795161 -1.24654 -0.0099 0
-0.79516 -1.24654 -0.0096 0
-0.795159 -1.24654 -0.0096 0
-0.795157 -1.24654 -0.0101 0
-0.795156 -1.24654 -0.0101 0
-0.795155 -1.24654 -0.0101 0
-0.795198 -1.24642 -0.0092 0
-0.795198 -1.24642 -0.0096 0
-0.795198 -1.24642 -0.0096 0
-0.795198 -1.24642 -0.0096 0
-0.795152 -1.24654 -0.0097 0
-0.795151 -1.24654 -0.0096 0
-0.795195 -1.24642 -0.0096 0
-0.795194 -1.24642 -0.0096 0
-0.795147 -1.24653 -0.0095 0
-0.795147 -1.24653 -0.0096 0
-0.795147 -1.24653 -0.0096 0
-0.829271 -1.26926 -0.0096 0
-0.795148 -1.24653 -0.0098 0
-0.794315 -1.24598 -0.0098 0
-0.795147 -1.24653 -0.0098 0
-0.795146 -1.24653 -0.0098 0
-0.795191 -1.24641 -0.0095 0
-0.79519 -1.24641 -0.0095 0
-0.795189 -1.24641 -0.0097 0
-0.795188 -1.24641 -0.0097 0
-0.795187 -1.24641 -0.0095 0
-0.795188 -1.24641 -0.0095 0
-0.795188 -1.24641 -0.0098 0
-0.795187 -1.24641 -0.0098 0
-0.795186 -1.24641 -0.0093 0
-0.795185 -1.24641 -0.0093 0
-0.795184 -1.24641 -0.0093 0
-0.795182 -1.24641 -0.0098 0
-0.79518 -1.24641 -0.0097 0
-0.795179 -1.24641 -0.0097 0
-0.795178 -1.24641 -0.0097 0
-0.795177 -1.24641 -0.0093 0
-0.795176 -1.24641 -0.0093 0
-0.795175 -1.24641 -0.0099 0
-0.795174 -1.24641 -0.0098 0
-0.795174 -1.2464 -0.0098 0
-0.795175 -1.2464 -0.0098 0
-0.795174 -1.2464 -0.0099 0
-0.795173 -1.2464 -0.0099 0
-0.795172 -1.2464 -0.0095 0
-0.795172 -1.2464 -0.0095 0
-0.795171 -1.2464 -0.0095 0
-0.79517 -1.2464 -0.0094 0
-0.795169 -1.2464 -0.0094 0
-0.795169 -1.2464 -0.0096 0
-0.795168 -1.2464 -0.0096 0
-0.795166 -1.2464 -0.0095 0
-0.795165 -1.2464 -0.0095 0
-0.795165 -1.2464 -0.0093 0
-0.795165 -1.2464 -0.0093 0
-0.795165 -1.2464 -0.0093 0
-0.795165 -1.2464 -0.0099 0
-0.795164 -1.2464 -0.0099 0
-0.795162 -1.2464 -0.0096 0
-0.795161 -1.2464 -0.0096 0
-0.795159 -1.2464 -0.0101 0
-0.795158 -1.24639 -0.0101 0
-0.795112 -1.24651 -0.0101 0
-0.795109 -1.24651 -0.0097 0
-0.793443 -1.2454 -0.0097 0
-0.795107 -1.24651 -0.0097 0
-0.795105 -1.24651 -0.0099 0
-0.795103 -1.24651 -0.0099 0
-0.795103 -1.24651 -0.0099 0
-0.795101 -1.24651 -0.0096 0
-0.7951 -1.24651 -0.0096 0
-0.795099 -1.24651 -0.0098 0
-0.795143 -1.24639 -0.0098 0
-0.795096 -1.2465 -0.0098 0
-0.793431 -1.24539 -0.0098 0
-0.795139 -1.24639 -0.0098 0
-0.795093 -1.2465 -0.0095 0
-0.795091 -1.2465 -0.0095 0
-0.79509 -1.2465 -0.0093 0
-0.795089 -1.2465 -0.0093 0
-0.795087 -1.2465 -0.0098 0
-0.795087 -1.2465 -0.0098 0
-0.795086 -1.2465 -0.0094 0
-0.795085 -1.2465 -0.0094 0
-0.795129 -1.24638 -0.0094 0
-0.793418 -1.24539 -0.0094 0
-0.795082 -1.2465 -0.0094 0
-0.795081 -1.2465 -0.0098 0
-0.795124 -1.24638 -0.0098 0
-0.795123 -1.24638 -0.0096 0
-0.795122 -1.24638 -0.0096 0
-0.795121 -1.24637 -0.0097 0
-0.79512 -1.24637 -0.0097 0
-0.795119 -1.24637 -0.0097 0
-0.795118 -1.24637 -0.0092 0
-0.795117 -1.24637 -0.0092 0
-0.795117 -1.24637 -0.0097 0
-0.795117 -1.24637 -0.0097 0
-0.795116 -1.24637 -0.01 0
-0.795116 -1.24637 -0.01 0
-0.795115 -1.24637 -0.0093 0
-0.795114 -1.24637 -0.0093 0
-0.795113 -1.24637 -0.0101 0
-0.795114 -1.24637 -0.0101 0
-0.795114 -1.24637 -0.0097 0
-0.795114 -1.24637 -0.0097 0
-0.795113 -1.24637 -0.0101 0
-0.795112 -1.24637 -0.0101 0
-0.795112 -1.24637 -0.0095 0
-0.79511 -1.24637 -0.0099 0
-0.795109 -1.24637 -0.0099 0
-0.795108 -1.24637 -0.0099 0
-0.795106 -1.24637 -0.0099 0
-0.795103 -1.24637 -0.0099 0
-0.795102 -1.24637 -0.0092 0
-0.795101 -1.24637 -0.0092 0
-0.795099 -1.24637 -0.0096 0
-0.795097 -1.24636 -0.0097 0
-0.795096 -1.24636 -0.0097 0
-0.795095 -1.24636 -0.0097 0
-0.795094 -1.24636 -0.0098 0
-0.795092 -1.24636 -0.0098 0
-0.795091 -1.24636 -0.0094 0
-0.79509 -1.24636 -0.0094 0
-0.795087 -1.24636 -0.0099 0
-0.795087 -1.24636 -0.0099 0
-0.795085 -1.24636 -0.0099 0
-0.795084 -1.24636 -0.0099 0
-0.795082 -1.24636 -0.0093 0
-0.795081 -1.24636 -0.0093 0
-0.795079 -1.24636 -0.0099 0
-0.795078 -1.24636 -0.0099 0
-0.795077 -1.24636 -0.0093 0
-0.795075 -1.24636 -0.0098 0
-0.795073 -1.24636 -0.0098 0
-0.795072 -1.24635 -0.0098 0
-0.79507 -1.24635 -0.0097 0
-0.795068 -1.24635 -0.0097 0
-0.795067 -1.24635 -0.0097 0
-0.795066 -1.24635 -0.0097 0
-0.795065 -1.24635 -0.0099 0
-0.795064 -1.24635 -0.0099 0
-0.795063 -1.24635 -0.0099 0
-0.795062 -1.24635 -0.0102 0
-0.795062 -1.24635 -0.0102 0
-0.795061 -1.24635 -0.0097 0
-0.79506 -1.24635 -0.0097 0
-0.79506 -1.24635 -0.0096 0
-0.795058 -1.24635 -0.0096 0
-0.795056 -1.24635 -0.0101 0
-0.795054 -1.24635 -0.0101 0
-0.795053 -1.24635 -0.0098 0
-0.795049 -1.24635 -0.0098 0
-0.795049 -1.24635 -0.0101 0
-0.795049 -1.24635 -0.0101 0
-0.795049 -1.24635 -0.0096 0
-0.795048 -1.24635 -0.0096 0
-0.795048 -1.24635 -0.0096 0
-0.795047 -1.24635 -0.0096 0
-0.795047 -1.24635 -0.0095 0
-0.795046 -1.24635 -0.0095 0
-0.795045 -1.24634 -0.0095 0
-0.795043 -1.24634 -0.0098 0
-0.795042 -1.24634 -0.0098 0
-0.795039 -1.24634 -0.0102 0
-0.795039 -1.24634 -0.0102 0
-0.795039 -1.24634 -0.0096 0
-0.795039 -1.24634 -0.0096 0
-0.795039 -1.24634 -0.0097 0
-0.795038 -1.24634 -0.0097 0
-0.795038 -1.24634 -0.0097 0
-0.795037 -1.24634 -0.0096 0
-0.795037 -1.24634 -0.0096 0
-0.795037 -1.24634 -0.0096 0
-0.795036 -1.24634 -0.0089 0
-0.795034 -1.24634 -0.0093 0
-0.795033 -1.24634 -0.0093 0
-0.795032 -1.24633 -0.0094 0
-0.795031 -1.24633 -0.0094 0
-0.795031 -1.24633 -0.0094 0
-0.79503 -1.24633 -0.0096 0
-0.795029 -1.24633 -0.0096 0
-0.795029 -1.24633 -0.0095 0
-0.795028 -1.24633 -0.0095 0
-0.795028 -1.24633 -0.0095 0
-0.795027 -1.24633 -0.01 0
-0.795027 -1.24633 -0.01 0
-0.795025 -1.24633 -0.0098 0
-0.795022 -1.24632 -0.0098 0
-0.795021 -1.24632 -0.0098 0
-0.79502 -1.24632 -0.0098 0
-0.795019 -1.24632 -0.0098 0
-0.795018 -1.24632 -0.0097 0
-0.795017 -1.24632 -0.0097 0
-0.795016 -1.24632 -0.0098 0
-0.795015 -1.24632 -0.0098 0
-0.795014 -1.24632 -0.0098 0
-0.795012 -1.24632 -0.0093 0
-0.795011 -1.24632 -0.0097 0
-0.795011 -1.24632 -0.0097 0
-0.79501 -1.24632 -0.0098 0
-0.795009 -1.24632 -0.0098 0
-0.795007 -1.24632 -0.0098 0
-0.795005 -1.24632 -0.0101 0
-0.795001 -1.24632 -0.0101 0
-0.794999 -1.24632 -0.0096 0
-0.794997 -1.24632 -0.0096 0
-0.794996 -1.24632 -0.0096 0
-0.794995 -1.24632 -0.0096 0
-0.794994 -1.24632 -0.0096 0
-0.794991 -1.24632 -0.0096 0
-0.794989 -1.24632 -0.0098 0
-0.794987 -1.24632 -0.0098 0
-0.794986 -1.24632 -0.0098 0
-0.794984 -1.24632 -0.0098 0
-0.794982 -1.24632 -0.0098 0
-0.794981 -1.24632 -0.0091 0
-0.794981 -1.24632 -0.0091 0
-0.79498 -1.24632 -0.0095 0
-0.794979 -1.24632 -0.0095 0
-0.794146 -1.24576 -0.0095 0
-0.794976 -1.24632 -0.0097 0
-0.794976 -1.24632 -0.0097 0
-0.794975 -1.24632 -0.0097 0
-0.794974 -1.24632 -0.0097 0
-0.794973 -1.24631 -0.0099 0
-0.794971 -1.24631 -0.0099 0
-0.79497 -1.24631 -0.0097 0
-0.794969 -1.24631 -0.0097 0
-0.794966 -1.24631 -0.0097 0
-0.794966 -1.24631 -0.0097 0
-0.794966 -1.24631 -0.0091 0
-0.794965 -1.24631 -0.0091 0
-0.794964 -1.24631 -0.0091 0
-0.793298 -1.2452 -0.0097 0
-0.794961 -1.24631 -0.0097 0
-0.794961 -1.24631 -0.0096 0
-0.79496 -1.24631 -0.0096 0
-0.794959 -1.24631 -0.0096 0
-0.794958 -1.24631 -0.0098 0
-0.794957 -1.24631 -0.0098 0
-0.794957 -1.24631 -0.0092 0
-0.794955 -1.24631 -0.0092 0
-0.794954 -1.24631 -0.0094 0
-0.794954 -1.24631 -0.0094 0
-0.794953 -1.24631 -0.0093 0
-0.794953 -1.24631 -0.0093 0
-0.794952 -1.24631 -0.0093 0
-0.794952 -1.24631 -0.0098 0
-0.794951 -1.24631 -0.0098 0
-0.794117 -1.24575 -0.0094 0
-0.794117 -1.24575 -0.0094 0
-0.794948 -1.24631 -0.0094 0
-0.794947 -1.24631 -0.0095 0
-0.784958 -1.23966 -0.0099 0
-0.794945 -1.24631 -0.0099 0
-0.794944 -1.24631 -0.0099 0
-0.794943 -1.24631 -0.0094 0
-0.794943 -1.24631 -0.0094 0
-0.794942 -1.24631 -0.0098 0
-0.79494 -1.2463 -0.0098 0
-0.79494 -1.24631 -0.0096 0
-0.794894 -1.24642 -0.0096 0
-0.794893 -1.24642 -0.0092 0
-0.794893 -1.24642 -0.0092 0
-0.794892 -1.24642 -0.0092 0
-0.794892 -1.24642 -0.0098 0
-0.794891 -1.24642 -0.0098 0
-0.794891 -1.24642 -0.0092 0
-0.79489 -1.24642 -0.0092 0
-0.79489 -1.24642 -0.0093 0
-0.79489 -1.24642 -0.0093 0
-0.794889 -1.24642 -0.0095 0
-0.794888 -1.24642 -0.0095 0
-0.794933 -1.2463 -0.0095 0
-0.794932 -1.2463 -0.0098 0
-0.794931 -1.2463 -0.0098 0
-0.79493 -1.2463 -0.01 0
-0.794882 -1.24642 -0.01 0
-0.794881 -1.24642 -0.0097 0
-0.794925 -1.2463 -0.0097 0
-0.794924 -1.2463 -0.0098 0
-0.792426 -1.24464 -0.0098 0
-0.794922 -1.2463 -0.0098 0
-0.79492 -1.2463 -0.0098 0
-0.794919 -1.2463 -0.0104 0
-0.794917 -1.2463 -0.0104 0
-0.794917 -1.2463 -0.0102 0
-0.794915 -1.2463 -0.0092 0
-0.794914 -1.2463 -0.0092 0
-0.794914 -1.2463 -0.0092 0
-0.794913 -1.2463 -0.0098 0
-0.794912 -1.2463 -0.01 0
-0.794912 -1.2463 -0.01 0
-0.794911 -1.24629 -0.01 0
-0.79491 -1.24629 -0.0098 0
-0.794908 -1.24629 -0.0097 0
-0.794907 -1.24629 -0.0097 0
-0.794907 -1.24629 -0.01 0
-0.794906 -1.24629 -0.01 0
-0.794906 -1.24629 -0.0094 0
-0.794906 -1.24629 -0.0094 0
-0.794906 -1.24629 -0.0094 0
-0.794904 -1.24628 -0.0101 0
-0.794904 -1.24628 -0.0096 0
-0.794903 -1.24628 -0.0096 0
-0.794903 -1.24628 -0.0096 0
-0.794856 -1.2464 -0.0094 0
-0.794855 -1.2464 -0.0095 0
-0.794854 -1.2464 -0.0095 0
-0.794854 -1.2464 -0.0098 0
-0.794854 -1.2464 -0.0098 0
-0.794854 -1.2464 -0.0094 0
-0.794854 -1.2464 -0.0094 0
-0.794855 -1.2464 -0.0097 0
-0.794855 -1.2464 -0.0096 0
-0.794854 -1.2464 -0.0096 0
-0.794854 -1.2464 -0.0096 0
-0.794851 -1.24639 -0.0096 0
-0.79485 -1.24639 -0.0096 0
-0.794849 -1.24639 -0.0096 0
-0.761557 -1.22422 -0.0096 0
-0.794849 -1.24639 -0.0095 0
-0.794848 -1.24639 -0.0095 0
-0.794847 -1.24639 -0.0099 0
-0.794847 -1.24639 -0.0099 0
-0.794845 -1.24639 -0.0099 0
-0.794844 -1.24639 -0.0096 0
-0.794844 -1.24639 -0.0096 0
-0.794843 -1.24639 -0.01 0
-0.794842 -1.24639 -0.01 0
-0.794841 -1.24639 -0.0095 0
-0.79484 -1.24639 -0.0095 0
-0.79484 -1.24639 -0.0097 0
-0.794836 -1.24639 -0.0097 0
-0.794835 -1.24639 -0.0097 0
-0.794833 -1.24639 -0.0097 0
-0.794831 -1.24639 -0.0096 0
-0.79483 -1.24639 -0.0096 0
-0.794829 -1.24639 -0.0096 0
-0.794828 -1.24638 -0.0096 0
-0.794827 -1.24638 -0.0096 0
-0.794826 -1.24638 -0.0097 0
-0.794825 -1.24638 -0.0097 0
-0.794824 -1.24638 -0.0097 0
-0.794823 -1.24638 -0.0097 0
-0.794822 -1.24638 -0.0098 0
-0.794822 -1.24638 -0.0098 0
-0.79482 -1.24638 -0.0098 0
-0.794819 -1.24638 -0.0091 0
-0.794818 -1.24638 -0.0091 0
-0.794817 -1.24638 -0.0099 0
-0.794817 -1.24638 -0.0099 0
-0.794816 -1.24638 -0.0099 0
-0.794816 -1.24638 -0.0094 0
-0.794815 -1.24638 -0.0094 0
-0.794815 -1.24637 -0.0095 0
-0.794813 -1.24637 -0.0095 0
-0.794811 -1.24637 -0.0095 0
-0.794809 -1.24637 -0.0095 0
-0.794808 -1.24637 -0.0099 0
-0.794807 -1.24636 -0.0099 0
-0.794806 -1.24636 -0.0099 0
-0.794804 -1.24636 -0.0097 0
-0.794803 -1.24636 -0.0092 0
-0.794802 -1.24636 -0.0092 0
-0.794802 -1.24636 -0.0096 0
-0.794801 -1.24636 -0.0096 0
-0.794801 -1.24636 -0.0096 0
-0.7948 -1.24636 -0.0096 0
-0.7948 -1.24636 -0.0095 0
-0.792303 -1.24469 -0.0095 0
-0.7948 -1.24636 -0.01 0
-0.794798 -1.24636 -0.01 0
-0.794797 -1.24636 -0.0095 0
-0.794796 -1.24635 -0.0095 0
-0.793131 -1.24525 -0.0099 0
-0.794794 -1.24635 -0.0099 0
-0.794793 -1.24635 -0.0098 0
-0.794793 -1.24635 -0.0098 0
-0.794793 -1.24635 -0.009 0
-0.794791 -1.24635 -0.009 0
-0.79479 -1.24635 -0.0096 0
-0.794789 -1.24635 -0.0096 0
-0.794833 -1.24623 -0.0097 0
-0.794829 -1.24623 -0.0097 0
-0.794828 -1.24623 -0.0099 0
-0.794828 -1.24623 -0.0099 0
-0.794826 -1.24623 -0.0099 0
-0.794779 -1.24635 -0.0099 0
-0.794776 -1.24635 -0.0095 0
-0.794775 -1.24635 -0.0095 0
-0.794774 -1.24635 -0.0098 0
-0.794771 -1.24635 -0.0098 0
-0.792273 -1.24468 -0.0097 0
-0.794769 -1.24635 -0.0097 0
-0.794769 -1.24634 -0.0096 0
-0.794768 -1.24634 -0.0096 0
-0.794769 -1.24634 -0.0096 0
-0.784781 -1.23969 -0.0097 0
-0.794768 -1.24634 -0.0097 0
-0.794813 -1.24622 -0.0098 0
-0.794812 -1.24622 -0.0098 0
-0.794766 -1.24634 -0.0098 0
-0.794765 -1.24634 -0.0095 0
-0.794764 -1.24634 -0.0095 0
-0.794763 -1.24634 -0.0095 0
-0.794762 -1.24634 -0.0095 0
-0.794761 -1.24634 -0.0098 0
-0.79476 -1.24634 -0.0098 0
-0.794758 -1.24634 -0.0093 0
-0.794757 -1.24634 -0.0093 0
-0.794756 -1.24634 -0.0094 0
-0.794755 -1.24634 -0.0094 0
-0.794754 -1.24634 -0.0096 0
-0.794753 -1.24634 -0.0096 0
-0.794752 -1.24634 -0.0091 0
-0.794751 -1.24634 -0.0091 0
-0.794794 -1.24622 -0.0097 0
-0.794792 -1.24622 -0.0097 0
-0.794791 -1.24622 -0.0097 0
-0.794791 -1.24622 -0.0097 0
-0.794744 -1.24633 -0.0093 0
-0.794789 -1.24621 -0.0093 0
-0.794788 -1.24621 -0.0098 0
-0.794787 -1.24621 -0.0098 0
-0.794785 -1.24621 -0.0098 0
-0.794739 -1.24633 -0.0098 0
-0.794738 -1.24633 -0.0095 0
-0.794736 -1.24633 -0.0098 0
-0.794734 -1.24633 -0.0098 0
-0.794734 -1.24632 -0.0098 0
-0.794732 -1.24632 -0.0093 0
-0.794731 -1.24632 -0.0096 0
-0.79473 -1.24632 -0.0096 0
-0.79473 -1.24632 -0.0096 0
-0.794728 -1.24632 -0.0099 0
-0.794728 -1.24632 -0.0096 0
-0.794727 -1.24632 -0.0096 0
-0.794728 -1.24632 -0.0096 0
-0.794772 -1.2462 -0.0096 0
-0.794769 -1.2462 -0.0097 0
-0.794768 -1.2462 -0.0097 0
-0.794767 -1.2462 -0.01 0
-0.794766 -1.2462 -0.0094 0
-0.794765 -1.2462 -0.0094 0
-0.794764 -1.2462 -0.0094 0
-0.794764 -1.2462 -0.0099 0
-0.794763 -1.2462 -0.0099 0
-0.794762 -1.24619 -0.0096 0
-0.79476 -1.24619 -0.0096 0
-0.794758 -1.24619 -0.0101 0
-0.794757 -1.24619 -0.0101 0
-0.794755 -1.24619 -0.0097 0
-0.794708 -1.24631 -0.0097 0
-0.794707 -1.24631 -0.0097 0
-0.794705 -1.24631 -0.0095 0
-0.794704 -1.2463 -0.0094 0
-0.794703 -1.2463 -0.0094 0
-0.794703 -1.2463 -0.0094 0
-0.7947 -1.2463 -0.0095 0
-0.794698 -1.2463 -0.0102 0
-0.794696 -1.2463 -0.0102 0
-0.794695 -1.2463 -0.0102 0
-0.794695 -1.2463 -0.01 0
-0.794694 -1.2463 -0.0098 0
-0.794693 -1.2463 -0.0098 0
-0.794693 -1.2463 -0.0098 0
-0.794693 -1.2463 -0.0093 0
-0.794692 -1.2463 -0.0092 0
-0.794692 -1.2463 -0.0092 0
-0.794692 -1.2463 -0.0092 0
-0.794691 -1.2463 -0.0094 0
-0.79469 -1.2463 -0.0097 0
-0.79469 -1.2463 -0.0097 0
-0.79469 -1.2463 -0.0097 0
-0.794688 -1.2463 -0.0102 0
-0.794687 -1.2463 -0.0097 0
-0.794685 -1.2463 -0.0097 0
-0.794729 -1.24618 -0.0095 0
-0.794728 -1.24618 -0.0095 0
-0.794727 -1.24618 -0.0093 0
-0.794726 -1.24618 -0.0093 0
-0.794724 -1.24618 -0.0098 0
-0.794724 -1.24618 -0.0098 0
-0.794723 -1.24618 -0.0092 0
-0.794723 -1.24618 -0.0092 0
-0.794721 -1.24618 -0.0099 0
-0.793055 -1.24507 -0.0099 0
-0.794719 -1.24618 -0.0099 0
-0.794718 -1.24618 -0.0099 0
-0.794715 -1.24617 -0.0091 0
-0.794715 -1.24617 -0.0091 0
-0.794716 -1.24617 -0.0093 0
-0.794715 -1.24617 -0.0093 0
-0.794668 -1.24629 -0.0099 0
-0.794667 -1.24629 -0.0099 0
-0.794666 -1.24629 -0.0101 0
-0.794666 -1.24629 -0.0101 0
-0.794666 -1.24629 -0.0101 0
-0.794665 -1.24629 -0.0097 0
-0.794665 -1.24629 -0.0097 0
-0.794664 -1.24629 -0.01 0
-0.794663 -1.24629 -0.01 0
-0.794662 -1.24629 -0.0102 0
-0.794662 -1.24629 -0.0102 0
-0.794661 -1.24629 -0.0097 0
-0.79466 -1.24628 -0.0097 0
-0.794705 -1.24617 -0.0097 0
-0.794657 -1.24628 -0.0096 0
-0.794657 -1.24628 -0.0101 0
-0.794656 -1.24628 -0.0101 0
-0.794656 -1.24628 -0.0101 0
-0.794656 -1.24628 -0.0097 0
-0.794655 -1.24628 -0.0097 0
-0.794654 -1.24628 -0.01 0
-0.794653 -1.24628 -0.01 0
-0.794652 -1.24628 -0.01 0
-0.794696 -1.24616 -0.0099 0
-0.794695 -1.24616 -0.0096 0
-0.794694 -1.24616 -0.0096 0
-0.794693 -1.24616 -0.0096 0
-0.794691 -1.24616 -0.0099 0
-0.794688 -1.24616 -0.0094 0
-0.794687 -1.24616 -0.0094 0
-0.794687 -1.24616 -0.0094 0
-0.794687 -1.24616 -0.0095 0
-0.794686 -1.24616 -0.0095 0
-0.794685 -1.24616 -0.0099 0
-0.794684 -1.24616 -0.0099 0
-0.794683 -1.24616 -0.0099 0
-0.794682 -1.24615 -0.0097 0
-0.794681 -1.24615 -0.0097 0
-0.79468 -1.24615 -0.0097 0
-0.792183 -1.24449 -0.0097 0
-0.794679 -1.24615 -0.0097 0
-0.794679 -1.24615 -0.0095 0
-0.794678 -1.24615 -0.0095 0
-0.794677 -1.24615 -0.0099 0
-0.794673 -1.24615 -0.0099 0
-0.793006 -1.24504 -0.0095 0
-0.79467 -1.24615 -0.0095 0
-0.794667 -1.24615 -0.0097 0
-0.794666 -1.24615 -0.0097 0
-0.794665 -1.24615 -0.0095 0
-0.794664 -1.24615 -0.0095 0
-0.794663 -1.24615 -0.0097 0
-0.794661 -1.24615 -0.0097 0
-0.784628 -1.23962 -0.0097 0
-0.794614 -1.24627 -0.0097 0
-0.794613 -1.24627 -0.0101 0
-0.794612 -1.24627 -0.0101 0
-0.794611 -1.24627 -0.0098 0
-0.794611 -1.24627 -0.0098 0
-0.794655 -1.24615 -0.0094 0
-0.794654 -1.24615 -0.0094 0
-0.794608 -1.24627 -0.0103 0
-0.794606 -1.24627 -0.0103 0
-0.794604 -1.24626 -0.009 0
-0.794602 -1.24626 -0.009 0
-0.794601 -1.24626 -0.0095 0
-0.7946 -1.24626 -0.0097 0
-0.794599 -1.24626 -0.0097 0
-0.794599 -1.24626 -0.0097 0
-0.794598 -1.24626 -0.0096 0
-0.794597 -1.24626 -0.0094 0
-0.794595 -1.24626 -0.0094 0
-0.794595 -1.24626 -0.0094 0
-0.794593 -1.24626 -0.0096 0
-0.794592 -1.24626 -0.0092 0
-0.794591 -1.24626 -0.0092 0
-0.794635 -1.24614 -0.0092 0
-0.794634 -1.24614 -0.01 0
-0.794587 -1.24626 -0.01 0
-0.794586 -1.24626 -0.0094 0
-0.795416 -1.24681 -0.0094 0
-0.794628 -1.24614 -0.0094 0
-0.794627 -1.24614 -0.0097 0
-0.794625 -1.24614 -0.0099 0
-0.794624 -1.24614 -0.0099 0
-0.794623 -1.24614 -0.0099 0
-0.794622 -1.24613 -0.0096 0
-0.794621 -1.24613 -0.0096 0
-0.794618 -1.24613 -0.0099 0
-0.794618 -1.24613 -0.0099 0
-0.794617 -1.24613 -0.0096 0
-0.794618 -1.24613 -0.0096 0
-0.794618 -1.24613 -0.0101 0
-0.794618 -1.24613 -0.0101 0
-0.794617 -1.24613 -0.0101 0
-0.794617 -1.24613 -0.0093 0
-0.794617 -1.24613 -0.0093 0
-0.794616 -1.24613 -0.0093 0
-0.794616 -1.24613 -0.0098 0
-0.794615 -1.24613 -0.0098 0
-0.794613 -1.24612 -0.0095 0
-0.794612 -1.24612 -0.0095 0
-0.794611 -1.24612 -0.0097 0
-0.793778 -1.24557 -0.0096 0
-0.794609 -1.24612 -0.0096 0
-0.794608 -1.24612 -0.0096 0
-0.794607 -1.24612 -0.01 0
-0.794606 -1.24612 -0.01 0
-0.794605 -1.24612 -0.0096 0
-0.794605 -1.24612 -0.0096 0
-0.794604 -1.24612 -0.0096 0
-0.794603 -1.24612 -0.0095 0
-0.7946 -1.24612 -0.0095 0
-0.794599 -1.24611 -0.0095 0
-0.794597 -1.24611 -0.0095 0
-0.794596 -1.24611 -0.0093 0
-0.794596 -1.24611 -0.0093 0
-0.794596 -1.24611 -0.0098 0
-0.794596 -1.24611 -0.0098 0
-0.794595 -1.24611 -0.0092 0
-0.794594 -1.24611 -0.0092 0
-0.794594 -1.24611 -0.0093 0
-0.794595 -1.24611 -0.0093 0
-0.794594 -1.24611 -0.0093 0
-0.794593 -1.24611 -0.0103 0
-0.794592 -1.24611 -0.0092 0
-0.793758 -1.24555 -0.0092 0
-0.79459 -1.2461 -0.0092 0
-0.794589 -1.2461 -0.0098 0
-0.794588 -1.2461 -0.0098 0
-0.794585 -1.2461 -0.0093 0
-0.794584 -1.2461 -0.0093 0
-0.792918 -1.24499 -0.0093 0
-0.794581 -1.2461 -0.0093 0
-0.79458 -1.2461 -0.0093 0
-0.793746 -1.24554 -0.0093 0
-0.794577 -1.2461 -0.0093 0
-0.794576 -1.2461 -0.0097 0
-0.794575 -1.2461 -0.01 0
-0.828703 -1.26882 -0.01 0
-0.794574 -1.2461 -0.01 0
-0.794575 -1.2461 -0.0094 0
-0.794574 -1.2461 -0.0094 0
-0.794573 -1.2461 -0.0095 0
-0.794573 -1.2461 -0.0095 0
-0.794573 -1.2461 -0.0095 0
-0.794571 -1.2461 -0.0096 0
-0.79457 -1.24609 -0.0099 0
-0.794569 -1.24609 -0.0099 0
-0.794568 -1.24609 -0.0099 0
-0.794567 -1.24609 -0.0095 0
-0.794567 -1.24609 -0.0095 0
-0.794566 -1.24609 -0.0096 0
-0.794518 -1.24621 -0.0096 0
-0.794518 -1.24621 -0.0099 0
-0.794517 -1.24621 -0.0099 0
-0.82864 -1.26894 -0.0101 0
-0.794514 -1.24621 -0.0101 0
-0.794513 -1.24621 -0.0095 0
-0.794512 -1.24621 -0.0095 0
-0.79451 -1.24621 -0.0096 0
-0.794509 -1.24621 -0.0096 0
-0.794508 -1.24621 -0.0101 0
-0.792843 -1.2451 -0.0101 0
-0.794505 -1.24621 -0.0094 0
-0.794504 -1.24621 -0.0094 0
-0.794504 -1.24621 -0.0095 0
-0.794548 -1.24609 -0.0095 0
-0.794548 -1.24609 -0.0104 0
-0.794547 -1.24609 -0.0104 0
-0.794546 -1.24608 -0.0104 0
-0.794545 -1.24608 -0.0101 0
-0.794544 -1.24608 -0.0101 0
-0.794543 -1.24608 -0.0095 0
-0.794542 -1.24608 -0.0095 0
-0.79454 -1.24608 -0.0094 0
-0.79454 -1.24609 -0.0094 0
-0.794539 -1.24609 -0.0098 0
-0.794538 -1.24608 -0.0098 0
-0.794537 -1.24608 -0.0098 0
-0.794536 -1.24608 -0.0091 0
-0.794534 -1.24609 -0.0091 0
-0.7937 -1.24553 -0.0095 0
-0.79453 -1.24609 -0.0095 0
-0.79453 -1.24609 -0.0104 0
-0.794529 -1.24609 -0.0104 0
-0.794528 -1.24609 -0.0089 0
-0.794527 -1.24609 -0.0089 0
-0.794525 -1.24609 -0.0095 0
-0.794525 -1.24609 -0.0095 0
-0.794524 -1.24609 -0.01 0
-0.794523 -1.24608 -0.01 0
-0.79452 -1.24608 -0.0095 0
-0.794519 -1.24608 -0.0095 0
-0.794518 -1.24608 -0.009 0
-0.794518 -1.24608 -0.009 0
-0.79447 -1.2462 -0.0094 0
-0.794514 -1.24608 -0.0094 0
-0.794513 -1.24608 -0.0103 0
-0.794467 -1.2462 -0.0103 0
-0.794466 -1.2462 -0.0093 0
-0.794466 -1.2462 -0.0093 0
-0.794467 -1.2462 -0.0095 0
-0.794466 -1.2462 -0.0095 0
-0.791968 -1.24453 -0.0096 0
-0.794464 -1.24619 -0.0096 0
-0.794464 -1.24619 -0.0095 0
-0.793631 -1.24564 -0.0095 0
-0.794463 -1.24619 -0.0095 0
-0.794462 -1.24619 -0.0098 0
-0.794463 -1.24619 -0.0098 0
-0.794464 -1.24619 -0.0094 0
-0.794463 -1.24619 -0.0094 0
-0.794463 -1.24619 -0.0094 0
-0.794462 -1.24619 -0.0094 0
-0.794461 -1.24619 -0.0098 0
-0.79446 -1.24619 -0.0098 0
-0.794459 -1.24618 -0.0098 0
-0.794503 -1.24607 -0.0093 0
-0.794503 -1.24607 -0.0093 0
-0.794501 -1.24606 -0.0095 0
-0.7945 -1.24606 -0.0095 0
-0.7945 -1.24606 -0.0099 0
-0.793667 -1.24551 -0.0099 0
-0.794499 -1.24606 -0.01 0
-0.794498 -1.24606 -0.01 0
-0.794497 -1.24606 -0.01 0
-0.794496 -1.24606 -0.0098 0
-0.794495 -1.24606 -0.0098 0
-0.794494 -1.24606 -0.0098 0
-0.794493 -1.24606 -0.0098 0
-0.794492 -1.24606 -0.0098 0
-0.794492 -1.24606 -0.0098 0
-0.794492 -1.24606 -0.0096 0
-0.794491 -1.24606 -0.0096 0
-0.79449 -1.24606 -0.0096 0
-0.794488 -1.24606 -0.01 0
-0.794488 -1.24606 -0.0093 0
-0.794488 -1.24606 -0.0093 0
-0.794487 -1.24606 -0.0093 0
-0.794441 -1.24618 -0.01 0
-0.794441 -1.24618 -0.0093 0
-0.794441 -1.24618 -0.0093 0
-0.794441 -1.24618 -0.0093 0
-0.79444 -1.24618 -0.0098 0
-0.794439 -1.24618 -0.0095 0
-0.794483 -1.24606 -0.0095 0
-0.794483 -1.24606 -0.0095 0
-0.794437 -1.24618 -0.0097 0
-0.794437 -1.24618 -0.0098 0
-0.794435 -1.24618 -0.0098 0
-0.794435 -1.24618 -0.0096 0
-0.794434 -1.24618 -0.0096 0
-0.794479 -1.24606 -0.0098 0
-0.794478 -1.24606 -0.0098 0
-0.794477 -1.24606 -0.0095 0
-0.794476 -1.24606 -0.0095 0
-0.794429 -1.24618 -0.0092 0
-0.794474 -1.24606 -0.0092 0
-0.794473 -1.24606 -0.0098 0
-0.794472 -1.24606 -0.0098 0
-0.794472 -1.24606 -0.0098 0
-0.79447 -1.24606 -0.0098 0
-0.794469 -1.24606 -0.0098 0
-0.79197 -1.2444 -0.0098 0
-0.794467 -1.24606 -0.0098 0
-0.794467 -1.24606 -0.0094 0
-0.794467 -1.24606 -0.0094 0
-0.794466 -1.24606 -0.0101 0
-0.794465 -1.24606 -0.0101 0
-0.794464 -1.24606 -0.009 0
-0.794464 -1.24606 -0.009 0
-0.794462 -1.24606 -0.0096 0
-0.794461 -1.24606 -0.0096 0
-0.794461 -1.24606 -0.0102 0
-0.79446 -1.24605 -0.0102 0
-0.794459 -1.24605 -0.0102 0
-0.794458 -1.24605 -0.0092 0
-0.794457 -1.24605 -0.01 0
-0.794457 -1.24605 -0.01 0
-0.794457 -1.24605 -0.01 0
-0.794456 -1.24605 -0.0099 0
-0.794409 -1.24617 -0.0099 0
-0.794407 -1.24617 -0.0095 0
-0.794406 -1.24617 -0.0095 0
-0.794404 -1.24617 -0.0095 0
-0.794403 -1.24617 -0.0098 0
-0.794402 -1.24617 -0.0094 0
-0.794401 -1.24617 -0.0094 0
-0.7944 -1.24617 -0.0094 0
-0.794398 -1.24617 -0.0096 0
-0.794397 -1.24616 -0.0096 0
-0.794396 -1.24616 -0.0095 0
-0.794395 -1.24616 -0.0095 0
-0.794394 -1.24616 -0.0096 0
-0.794393 -1.24616 -0.0096 0
-0.794392 -1.24616 -0.0099 0
-0.794391 -1.24616 -0.0099 0
-0.79439 -1.24616 -0.0099 0
-0.791892 -1.2445 -0.0093 0
-0.794388 -1.24616 -0.0093 0
-0.794387 -1.24616 -0.0097 0
-0.794386 -1.24616 -0.0097 0
-0.794386 -1.24616 -0.0099 0
-0.794384 -1.24616 -0.0099 0
-0.794384 -1.24616 -0.0097 0
-0.794383 -1.24616 -0.0097 0
-0.794382 -1.24615 -0.0097 0
-0.794427 -1.24604 -0.01 0
-0.793594 -1.24548 -0.0092 0
-0.794426 -1.24603 -0.0092 0
-0.794424 -1.24603 -0.0092 0
-0.794423 -1.24603 -0.01 0
-0.794421 -1.24603 -0.01 0
-0.79442 -1.24603 -0.0096 0
-0.794418 -1.24603 -0.0096 0
-0.794372 -1.24615 -0.0096 0
-0.794371 -1.24615 -0.0099 0
-0.794416 -1.24603 -0.0098 0
-0.794416 -1.24603 -0.0098 0
-0.794415 -1.24603 -0.0098 0
-0.794414 -1.24603 -0.0095 0
-0.794414 -1.24603 -0.0095 0
-0.791916 -1.24436 -0.0097 0
-0.794411 -1.24603 -0.0097 0
-0.794409 -1.24602 -0.0098 0
-0.794408 -1.24602 -0.0098 0
-0.794407 -1.24602 -0.0095 0
-0.794407 -1.24602 -0.0095 0
-0.794406 -1.24602 -0.0101 0
-0.794405 -1.24602 -0.0101 0
-0.794404 -1.24602 -0.0095 0
-0.794402 -1.24602 -0.0095 0
-0.794401 -1.24602 -0.0095 0
-0.794399 -1.24602 -0.0094 0
-0.794398 -1.24602 -0.0098 0
-0.794396 -1.24602 -0.0098 0
-0.794395 -1.24602 -0.0098 0
-0.794394 -1.24602 -0.0095 0
-0.794394 -1.24602 -0.0095 0
-0.794393 -1.24602 -0.01 0
-0.794392 -1.24602 -0.01 0
-0.794392 -1.24602 -0.0096 0
-0.794391 -1.24602 -0.0096 0
-0.794391 -1.24602 -0.0096 0
-0.79439 -1.24602 -0.0096 0
-0.794389 -1.24602 -0.0096 0
-0.794389 -1.24602 -0.0096 0
-0.794388 -1.24602 -0.0096 0
-0.794386 -1.24602 -0.0098 0
-0.794385 -1.24602 -0.0098 0
-0.794384 -1.24602 -0.0097 0
-0.794384 -1.24602 -0.0097 0
-0.794383 -1.24602 -0.0097 0
-0.794382 -1.24602 -0.0097 0
-0.79438 -1.24602 -0.0097 0
-0.794379 -1.24602 -0.0098 0
-0.794378 -1.24602 -0.0098 0
-0.794376 -1.24602 -0.0095 0
-0.794376 -1.24602 -0.0095 0
-0.794375 -1.24602 -0.0094 0
-0.794374 -1.24602 -0.0094 0
-0.794373 -1.24602 -0.0104 0
-0.794371 -1.24602 -0.0104 0
-0.79437 -1.24602 -0.0098 0
-0.794369 -1.24602 -0.0098 0
-0.794367 -1.24602 -0.0095 0
-0.794366 -1.24602 -0.0095 0
-0.794365 -1.24601 -0.0098 0
-0.794365 -1.24601 -0.0098 0
-0.791822 -1.24447 -0.0092 0
-0.794319 -1.24613 -0.0092 0
-0.794364 -1.24601 -0.0097 0
-0.794364 -1.24601 -0.0097 0
-0.794363 -1.24601 -0.0096 0
-0.794362 -1.24601 -0.0096 0
-0.794361 -1.24601 -0.0096 0
-0.79436 -1.24601 -0.0099 0
-0.79436 -1.24601 -0.0099 0
-0.794359 -1.24601 -0.0097 0
-0.794358 -1.24601 -0.0097 0
-0.794357 -1.24601 -0.0095 0
-0.794356 -1.24601 -0.0095 0
-0.794354 -1.24601 -0.0098 0
-0.794353 -1.24601 -0.0098 0
-0.794353 -1.24601 -0.0095 0
-0.794353 -1.24601 -0.0095 0
-0.794351 -1.24601 -0.0099 0
-0.794351 -1.24601 -0.0099 0
-0.79435 -1.24601 -0.0096 0
-0.794349 -1.24601 -0.0098 0
-0.794348 -1.24601 -0.0098 0
-0.794348 -1.24601 -0.0098 0
-0.794347 -1.24601 -0.0093 0
-0.794347 -1.24601 -0.0093 0
-0.794347 -1.246 -0.0094 0
-0.794347 -1.246 -0.0099 0
-0.794346 -1.246 -0.0099 0
-0.791847 -1.24434 -0.0099 0
-0.794342 -1.246 -0.0098 0
-0.794341 -1.246 -0.0098 0
-0.79434 -1.246 -0.0091 0
-0.79434 -1.246 -0.0091 0
-0.794339 -1.246 -0.0099 0
-0.794337 -1.246 -0.0099 0
-0.794336 -1.246 -0.0095 0
-0.794335 -1.24599 -0.0095 0
-0.794334 -1.24599 -0.0101 0
-0.794334 -1.24599 -0.0101 0
-0.794333 -1.24599 -0.0101 0
-0.794333 -1.24599 -0.0092 0
-0.794332 -1.24599 -0.0092 0
-0.79433 -1.24599 -0.0098 0
-0.794328 -1.24599 -0.0098 0
-0.794327 -1.24599 -0.0094 0
-0.794325 -1.24599 -0.0094 0
-0.794324 -1.24599 -0.0095 0
-0.794323 -1.24599 -0.0095 0
-0.79432 -1.24599 -0.0098 0
-0.794318 -1.24599 -0.0098 0
-0.794317 -1.24599 -0.0097 0
-0.794315 -1.24599 -0.0097 0
-0.794314 -1.24599 -0.0098 0
-0.794313 -1.24599 -0.0098 0
-0.794312 -1.24599 -0.0095 0
-0.794311 -1.24599 -0.0095 0
-0.794311 -1.24599 -0.0095 0
-0.794311 -1.24599 -0.0099 0
-0.79431 -1.24599 -0.0099 0
-0.794308 -1.24599 -0.0093 0
-0.794308 -1.24599 -0.0093 0
-0.794307 -1.24599 -0.0099 0
-0.794307 -1.24599 -0.0099 0
-0.794307 -1.24599 -0.0094 0
-0.794306 -1.24599 -0.0094 0
-0.794307 -1.24599 -0.0096 0
-0.794307 -1.24599 -0.0096 0
-0.794307 -1.24599 -0.0095 0
-0.794306 -1.24599 -0.0095 0
-0.794305 -1.24599 -0.0095 0
-0.794305 -1.24598 -0.0095 0
-0.794304 -1.24598 -0.0095 0
-0.794303 -1.24598 -0.0095 0
-0.794302 -1.24598 -0.0095 0
-0.7943 -1.24598 -0.0095 0
-0.794298 -1.24598 -0.0094 0
-0.794297 -1.24598 -0.0094 0
-0.794296 -1.24598 -0.0094 0
-0.794249 -1.2461 -0.0098 0
-0.794248 -1.2461 -0.0098 0
-0.794247 -1.24609 -0.0098 0
-0.79591 -1.2472 -0.0094 0
-0.794244 -1.24609 -0.0094 0
-0.794243 -1.24609 -0.0094 0
-0.794243 -1.24609 -0.0094 0
-0.794242 -1.24609 -0.0094 0
-0.794241 -1.24609 -0.0094 0
-0.794286 -1.24598 -0.01 0
-0.79424 -1.24609 -0.01 0
-0.79424 -1.24609 -0.01 0
-0.794238 -1.24609 -0.0095 0
-0.79428 -1.24598 -0.0101 0
-0.794283 -1.24597 -0.0101 0
-0.794339 -1.24584 -0.0101 0
-0.79458 -1.24522 0.0039 0
-0.794654 -1.245 0.0404 0
-0.79477 -1.24467 0.0404 0
-0.794004 -1.24386 -0.00940001 0
-0.794001 -1.24382 -0.00940001 0
-0.794 -1.24379 0.0259 0
-0.793955 -1.2439 0.0259 0
-0.793927 -1.24405 0.0259 0
-0.793788 -1.24454 -0.00400001 0
-0.793747 -1.24468 0.0011 0
-0.792912 -1.24414 0.0011 0
-0.79291 -1.24416 0.0011 0
-0.792914 -1.24418 -0.0127 0
-0.792916 -1.24418 -0.0107 0
-0.792874 -1.2443 -0.0107 0
-0.792828 -1.24442 -0.0103 0
-0.791999 -1.24386 -0.0103 0
-0.792748 -1.24464 -0.0041 0
-0.791872 -1.24419 -0.0041 0
-0.791774 -1.24442 0.0024 0
-0.792553 -1.24509 0.0024 0
-0.791712 -1.24454 -0.0082 0
-0.791518 -1.245 -0.0082 0
-0.792343 -1.24555 -0.0027 0
-0.792292 -1.24565 -0.0027 0
-0.792293 -1.24564 -0.0078 0
-0.791467 -1.24509 -0.0078 0
-0.791475 -1.2451 -0.0087 0
-0.791483 -1.2451 -0.0087 0
-0.791488 -1.2451 -0.0042 0
-0.79149 -1.24511 -0.0042 0
-0.791489 -1.24511 -0.0077 0
-0.791489 -1.24511 -0.0077 0
-0.791488 -1.2451 -0.0068 0
-0.791492 -1.2451 -0.0068 0
-0.791493 -1.2451 -0.0038 0
-0.791494 -1.2451 -0.0038 0
-0.791494 -1.2451 -0.0062 0
-0.791493 -1.2451 -0.0062 0
-0.792326 -1.24565 -0.0066 0
-0.791496 -1.2451 -0.0066 0
-0.791496 -1.2451 -0.0042 0
-0.791497 -1.2451 -0.0042 0
-0.791496 -1.2451 -0.0042 0
-0.792326 -1.24566 -0.0065 0
-0.791493 -1.24511 -0.0065 0
-0.791497 -1.24511 -0.0092 0
-0.7915 -1.24511 -0.0092 0
-0.791499 -1.24511 -0.0045 0
-0.7915 -1.2451 -0.0045 0
-0.7915 -1.2451 -0.0062 0
-0.791498 -1.2451 -0.0062 0
-0.791497 -1.2451 -0.0062 0
-0.791494 -1.24509 -0.0061 0
-0.791493 -1.24509 -0.004 0
-0.791491 -1.24509 -0.004 0
-0.79149 -1.2451 -0.004 0
-0.791487 -1.24509 -0.0099 0
-0.791489 -1.24509 -0.007 0
-0.791489 -1.24509 -0.007 0
-0.79149 -1.24509 -0.007 0
-0.791489 -1.24509 -0.0082 0
-0.791487 -1.24509 -0.0087 0
-0.791486 -1.24509 -0.0087 0
-0.791486 -1.24509 -0.0087 0
-0.791486 -1.24509 -0.0043 0
-0.791488 -1.24509 -0.0072 0
-0.791489 -1.24509 -0.0072 0
-0.791487 -1.24509 -0.0072 0
-0.792319 -1.24564 -0.0075 0
-0.791487 -1.24508 -0.0075 0
-0.791485 -1.24508 -0.0061 0
-0.791485 -1.24508 -0.0061 0
-0.791485 -1.24508 -0.0086 0
-0.791485 -1.24508 -0.0086 0
-0.791484 -1.24508 -0.006 0
-0.791485 -1.24508 -0.006 0
-0.791484 -1.24508 -0.0057 0
-0.791483 -1.24508 -0.0057 0
-0.791483 -1.24508 -0.0071 0
-0.791481 -1.24508 -0.0071 0
-0.79148 -1.24508 -0.0078 0
-0.791479 -1.24508 -0.0078 0
-0.791477 -1.24508 -0.0073 0
-0.79148 -1.24508 -0.0073 0
-0.791482 -1.24508 -0.0086 0
-0.791479 -1.24508 -0.0057 0
-0.791476 -1.24508 -0.0057 0
-0.792301 -1.24564 -0.0057 0
-0.791466 -1.24508 -0.0046 0
-0.791465 -1.24508 -0.0046 0
-0.791471 -1.24507 -0.0062 0
-0.792304 -1.24563 -0.0062 0
-0.791472 -1.24507 -0.0082 0
-0.7923 -1.24563 -0.00410001 0
-0.791468 -1.24507 -0.00410001 0
-0.791465 -1.24507 -0.00410001 0
-0.791463 -1.24507 -0.0053 0
-0.792293 -1.24563 -0.0053 0
-0.792291 -1.24562 -0.00890001 0
-0.791459 -1.24507 -0.00890001 0
-0.791459 -1.24507 -0.00550001 0
-0.79229 -1.24562 -0.00550001 0
-0.792288 -1.24562 -0.00610001 0
-0.789794 -1.24396 -0.00610001 0
-0.791455 -1.24507 -0.0067 0
-0.791454 -1.24507 -0.0067 0
-0.792284 -1.24562 -0.0088 0
-0.791452 -1.24507 -0.0088 0
-0.791405 -1.24519 -0.0095 0
-0.79145 -1.24507 -0.0095 0
-0.792281 -1.24562 -0.0042 0
-0.791452 -1.24507 -0.0042 0
-0.791454 -1.24507 -0.0042 0
-0.791459 -1.24506 -0.00580001 0
-0.791459 -1.24506 -0.00800001 0
-0.791459 -1.24506 -0.00800001 0
-0.791454 -1.24506 -0.00660001 0
-0.791454 -1.24506 -0.00660001 0
-0.791452 -1.24506 -0.0075 0
-0.79145 -1.24506 -0.0075 0
-0.791448 -1.24506 -0.00440001 0
-0.79228 -1.24561 -0.00440001 0
-0.791447 -1.24506 -0.00850001 0
-0.791446 -1.24506 -0.00850001 0
-0.791446 -1.24506 -0.0026 0
-0.791446 -1.24506 -0.0026 0
-0.791445 -1.24506 -0.00740001 0
-0.79144 -1.24506 -0.00740001 0
-0.791439 -1.24506 -0.0059 0
-0.79144 -1.24506 -0.0059 0
-0.791438 -1.24506 -0.00730001 0
-0.792269 -1.24561 -0.00730001 0
-0.791437 -1.24506 -0.00410001 0
-0.791435 -1.24506 -0.00410001 0
-0.791435 -1.24506 -0.00470001 0
-0.792264 -1.24562 -0.00470001 0
-0.65004 -1.15068 -0.00470001 0
-0.79143 -1.24506 -0.0034 0
-0.791429 -1.24506 -0.0034 0
-0.791428 -1.24506 -0.0049 0
-0.791427 -1.24506 -0.0049 0
-0.791426 -1.24505 -0.0064 0
-0.791428 -1.24505 -0.0064 0
-0.79143 -1.24505 -0.0081 0
-0.789767 -1.24394 -0.0081 0
-0.79143 -1.24505 -0.0081 0
-0.79143 -1.24505 -0.0074 0
-0.791431 -1.24505 -0.0074 0
-0.791432 -1.24505 -0.0067 0
-0.791431 -1.24505 -0.0067 0
-0.791429 -1.24505 -0.0067 0
-0.791427 -1.24505 -0.0088 0
-0.791424 -1.24505 -0.0088 0
-0.791421 -1.24505 -0.0055 0
-0.791419 -1.24505 -0.0055 0
-0.791419 -1.24505 -0.0055 0
-0.791417 -1.24505 -0.0031 0
-0.791415 -1.24505 -0.0031 0
-0.791416 -1.24505 -0.0078 0
-0.791415 -1.24505 -0.0078 0
-0.791417 -1.24505 -0.0054 0
-0.791414 -1.24505 -0.0054 0
-0.791407 -1.24505 -0.0059 0
-0.756469 -1.22174 -0.0059 0
-0.791397 -1.24506 -0.0059 0
-0.791363 -1.24511 -0.00570001 0
-0.792123 -1.24577 -0.00570001 0
-0.791205 -1.24535 -0.00910001 0
-0.791928 -1.24606 -0.00910001 0
-0.790954 -1.24571 -0.00910001 0
-0.790613 -1.24627 -0.007 0
-0.790443 -1.24652 -0.0086 0
-0.790258 -1.24679 -0.0086 0
-0.780924 -1.24095 -0.0086 0
-0.789882 -1.24735 -0.0092 0
-0.787885 -1.24688 -0.0092 0
-0.78929 -1.24843 -0.00880001 0
-0.789014 -1.24889 -0.00880001 0
-0.788485 -1.24972 -0.00660001 0
-0.788098 -1.25044 -0.00660001 0
-0.787843 -1.25082 -0.0086 0
-0.787529 -1.25134 -0.0086 0
-0.786885 -1.2524 -0.0082 0
-0.785719 -1.25239 -0.0082 0
-0.78621 -1.25351 -0.00960001 0
-0.785873 -1.25407 -0.00960001 0
-0.784651 -1.25421 -0.00960001 0
-0.783793 -1.25577 -0.00400001 0
-0.783416 -1.25639 -0.00520001 0
-0.782143 -1.25659 -0.00520001 0
-0.781729 -1.25725 -0.00520001 0
-0.780056 -1.25804 -0.00510001 0
-0.78044 -1.2593 -0.00960001 0
-0.779983 -1.26002 -0.00960001 0
-0.778736 -1.26007 -0.00960001 0
-0.776601 -1.2597 -0.00430001 0
-0.777359 -1.26213 -0.00650001 0
-0.776905 -1.26281 -0.00650001 0
-0.776296 -1.26387 -0.00650001 0
-0.74364 -1.24457 -0.00490001 0
-0.742233 -1.24497 -0.00170001 0
-0.740856 -1.24528 -0.00170001 0
-0.738739 -1.24694 -0.00500001 0
-0.738107 -1.24797 -0.00500001 0
-0.737465 -1.24901 -0.00860001 0
-0.736179 -1.25102 -0.00860001 0
-0.734724 -1.25141 -0.0081 0
-0.734105 -1.2523 -0.0081 0
-0.733434 -1.25332 -0.00680001 0
-0.731265 -1.25475 -0.00680001 0
-0.729737 -1.25526 -0.00600001 0
-0.729885 -1.25681 -0.00600001 0
-0.727665 -1.25828 -0.00430001 0
-0.72694 -1.25934 -0.00430001 0
-0.725318 -1.26005 -0.00460001 0
-0.723689 -1.26077 -0.00460001 0
-0.722084 -1.26328 -0.00450001 0
-0.721231 -1.26463 -0.00450001 0
-0.719487 -1.26555 -0.00560001 0
-0.717735 -1.26824 -0.00890001 0
-0.715993 -1.26908 -0.00890001 0
-0.715108 -1.2704 -0.00890001 0
-0.714202 -1.27174 -0.00850001 0
-0.712494 -1.27243 -0.00850001 0
-0.711596 -1.27375 -0.0104 0
-0.71071 -1.27503 -0.0104 0
-0.70987 -1.27618 -0.0104 0
-0.708186 -1.27842 -0.00480001 0
-0.70739 -1.2794 -0.00200001 0
-0.706582 -1.28041 -0.00200001 0
-0.705034 -1.28217 -0.00450001 0
-0.705076 -1.28361 -0.00450001 0
-0.703416 -1.28404 -0.00550001 0
-0.70346 -1.28548 -0.00550001 0
-0.701977 -1.28691 -0.00610001 0
-0.702795 -1.289 -0.00610001 0
-0.701863 -1.29021 -0.00450001 0
-0.700921 -1.29146 -0.00450001 0
-0.70031 -1.29185 -0.00450001 0
-0.698472 -1.29422 -0.0106 0
-0.698366 -1.29599 -0.0116 0
-0.697379 -1.29732 -0.0116 0
-0.69647 -1.29849 -0.0116 0
-0.694457 -1.30122 -0.00590001 0
-0.693441 -1.30267 -0.0118 0
-0.691539 -1.30365 -0.0118 0
-0.691324 -1.30565 -0.0118 0
-0.689128 -1.30872 -0.00800001 0
-0.68807 -1.3101 -0.00600001 0
-0.68702 -1.31141 -0.00600001 0
-0.686634 -1.31377 -0.00600001 0
-0.7165 -1.33672 -0.00440001 0
-0.717116 -1.33917 -0.00400001 0
-0.716882 -1.3411 -0.00400001 0
-0.714788 -1.3437 -0.00900001 0
-0.712852 -1.34458 -0.00900001 0
-0.712592 -1.34656 -0.00640001 0
-0.711486 -1.34802 -0.00640001 0
-0.709232 -1.35101 -0.00990001 0
-0.708082 -1.35261 -0.00990001 0
-0.707685 -1.35492 -0.0108 0
-0.706468 -1.35661 -0.0108 0
-0.704491 -1.35758 -0.0108 0
-0.638324 -1.31797 -0.00330001 0
-0.70197 -1.36115 -0.00330001 0
-0.700584 -1.36326 -0.0113 0
-0.7002 -1.36546 -0.0113 0
-0.698075 -1.36672 -0.0113 0
-0.697497 -1.36943 -0.00820001 0
-0.693955 -1.37281 -0.00610001 0
-0.692549 -1.37493 -0.00610001 0
-0.691981 -1.3776 -0.00610001 0
-0.690612 -1.37967 -0.00590001 0
-0.689192 -1.38182 -0.00590001 0
-0.687009 -1.3832 0.00129999 0
-0.685778 -1.38618 0.00129999 0
-0.684858 -1.38727 -0.00720001 0
-0.683922 -1.38848 -0.00720001 0
-0.683874 -1.3902 -0.00140001 0
-0.681178 -1.39256 -0.00140001 0
-0.680333 -1.39394 -0.00120001 0
-0.679598 -1.3951 -0.00120001 0
-0.678965 -1.39605 -0.00550001 0
-0.677781 -1.39794 -0.00550001 0
-0.677263 -1.39877 -0.00400001 0
-0.677598 -1.40018 -0.00400001 0
-0.677159 -1.40088 -0.00450001 0
-0.675908 -1.40099 -0.00450001 0
-0.676387 -1.40211 -0.00450001 0
-0.675698 -1.40325 -0.00560001 0
-0.674565 -1.40317 -0.00330001 0
-0.674304 -1.40358 -0.00330001 0
-0.673891 -1.40418 -0.00700001 0
-0.673692 -1.40449 -0.00700001 0
-0.673511 -1.40478 -0.00710001 0
-0.674195 -1.40557 -0.00710001 0
-0.673195 -1.40528 -0.00710001 0
-0.673903 -1.40603 -0.00480001 0
-0.673774 -1.40624 -0.00480001 0
-0.673657 -1.40642 -0.00830001 0
-0.6727 -1.40606 -0.00830001 0
-0.672601 -1.40621 -0.00830001 0
-0.673364 -1.40687 -0.00950001 0
-0.672432 -1.40647 -0.00950001 0
-0.672284 -1.40669 -0.00850001 0
-0.67222 -1.40679 -0.00850001 0
-0.639058 -1.38625 -0.00450001 0
-0.672108 -1.40695 -0.00450001 0
-0.520984 -1.3129 -0.00370001 0
-0.672871 -1.40761 -0.00370001 0
-0.671985 -1.40714 -0.00370001 0
-0.672799 -1.40772 -0.00480001 0
-0.671923 -1.40723 -0.00480001 0
-0.671898 -1.40727 -0.00650001 0
-0.671024 -1.40677 -0.00650001 0
-0.67182 -1.40737 -0.00570001 0
-0.671804 -1.4074 -0.00570001 0
-0.67094 -1.40689 -0.00710001 0
-0.671775 -1.40743 -0.00710001 0
-0.671749 -1.40747 -0.00730001 0
-0.672587 -1.40802 -0.00730001 0
-0.671721 -1.40751 -0.00690001 0
-0.671737 -1.40749 -0.00690001 0
-0.672622 -1.40795 -0.00690001 0
-0.672762 -1.40772 -0.00610001 0
-0.672055 -1.40691 -0.00560001 0
-0.673016 -1.40726 -0.00560001 0
-0.672268 -1.40657 -0.00560001 0
-0.672293 -1.40663 -0.00310001 0
-0.672289 -1.40663 -0.00590001 0
-0.672231 -1.40678 -0.00590001 0
-0.672181 -1.40685 -0.00590001 0
-0.672107 -1.40697 -0.00540001 0
-0.672115 -1.40695 -0.00690001 0
-0.672154 -1.40687 -0.00690001 0
-0.673079 -1.40727 -0.00690001 0
-0.672355 -1.40653 -0.00570001 0
-0.67256 -1.40615 -0.00570001 0
-0.673782 -1.40609 -0.00750001 0
-0.674056 -1.4056 -0.00750001 0
-0.674306 -1.4052 -0.00450001 0
-0.67372 -1.40425 -0.00450001 0
-0.674855 -1.40432 -0.00190001 0
-0.674311 -1.40329 -0.00190001 0
-0.675506 -1.40321 -0.00190001 0
-0.67583 -1.40269 -0.00250001 0
-0.676538 -1.40157 0.00179999 0
-0.676942 -1.40087 0.00179999 0
-0.678147 -1.40082 0.00179999 0
-0.678526 -1.40022 -0.00480001 0
-0.678952 -1.39948 -0.00480001 0
-0.679347 -1.39884 -0.00610001 0
-0.679753 -1.39819 -0.00610001 0
-0.680163 -1.39752 -0.00610001 0
-0.680629 -1.39671 -0.00510001 0
-0.681059 -1.39602 -0.00510001 0
-0.681533 -1.39521 -0.00530001 0
-0.681984 -1.39449 -0.00530001 0
-0.717245 -1.41543 -0.00530001 0
-0.717747 -1.41456 -0.00400001 0
-0.718214 -1.4138 -0.00400001 0
-0.718687 -1.41304 -0.00720001 0
-0.71916 -1.41227 -0.00720001 0
-0.720107 -1.41078 -0.00830001 0
-0.72062 -1.40996 -0.00830001 0
-0.721135 -1.40914 -0.00690001 0
-0.721658 -1.4083 -0.00690001 0
-0.722193 -1.40743 -0.00690001 0
-0.722686 -1.40669 -0.00800001 0
-0.723259 -1.40578 -0.00800001 0
-0.723817 -1.40489 -0.00160001 0
-0.724395 -1.40395 -0.00160001 0
-0.724929 -1.40312 -0.00160001 0
-0.725517 -1.40217 -0.00180001 0
-0.726075 -1.40132 -0.00180001 0
-0.727374 -1.3992 -0.00500001 0
-0.761973 -1.41932 -0.00500001 0
-0.762621 -1.41828 -0.00380001 0
-0.76332 -1.4171 -0.00380001 0
-0.763989 -1.41602 -0.00860001 0
-0.763624 -1.41281 -0.00860001 0
-0.766009 -1.41275 -0.00310001 0
-0.766713 -1.41161 -0.00310001 0
-0.767432 -1.41045 -0.00160001 0
-0.769759 -1.4086 -0.00160001 0
-0.770461 -1.40751 -0.00100001 0
-0.772923 -1.40733 -0.00100001 0
-0.774564 -1.4066 -0.00130001 0
-0.775404 -1.40527 -0.00130001 0
-0.776211 -1.40399 -0.00130001 0
-0.777075 -1.40254 -0.00570001 0
-0.777894 -1.40122 -0.00570001 0
-0.778721 -1.39987 -0.00300001 0
-0.779561 -1.39852 -0.00300001 0
-0.781267 -1.39576 -0.00510001 0
-0.782149 -1.39435 -0.00510001 0
-0.783043 -1.39292 -0.011 0
-0.784792 -1.392 -0.011 0
-0.785807 -1.38847 -0.00280001 0
-0.787569 -1.38753 -0.00280001 0
-0.789424 -1.38639 -0.00740001 0
-0.821811 -1.40437 -0.00740001 0
-0.823631 -1.40333 -0.00740001 0
-0.825627 -1.40011 -0.00860001 0
-0.827484 -1.39902 -0.00730001 0
-0.827652 -1.39686 -0.00730001 0
-0.828684 -1.3952 -0.00730001 0
-0.83163 -1.39232 -0.00620001 0
-0.832681 -1.39063 -0.00240001 0
-0.834616 -1.38943 -0.00240001 0
-0.836876 -1.38575 -0.00280001 0
-0.838042 -1.38382 -0.00280001 0
-0.839167 -1.38202 -0.00660001 0
-0.840297 -1.38018 -0.00660001 0
-0.841434 -1.37835 -0.00660001 0
-0.8446 -1.37514 -0.00170001 0
-0.880601 -1.39489 -0.00620001 0
-0.881763 -1.39302 -0.00620001 0
-0.883808 -1.39162 -0.00620001 0
-0.88534 -1.38726 -0.00320001 0
-0.886561 -1.38528 -0.00270001 0
-0.888585 -1.38394 -0.00270001 0
-0.924726 -1.40341 -0.00270001 0
-0.926917 -1.40176 -0.000300007 0
-0.929674 -1.3972 -0.00180001 0
-0.931047 -1.39485 -0.00180001 0
-0.93234 -1.39273 -0.00180001 0
-0.935107 -1.38816 0.00459999 0
-0.936513 -1.38585 -0.00980001 0
-0.937875 -1.38367 -0.00980001 0
-0.974159 -1.40292 -0.00980001 0
-0.975609 -1.40056 -0.00460001 0
-0.977067 -1.39813 -0.00460001 0
-0.978392 -1.39599 0.00289999 0
-0.661793 -1.19687 0.00289999 0
-0.982211 -1.39168 0.00289999 0
-0.983608 -1.38945 -0.00880001 0
-0.986699 -1.38433 -0.0136 0
-0.988216 -1.38181 -0.0136 0
-0.991443 -1.38029 -0.0136 0
-1.02617 -1.39818 -0.00400001 0
-1.02866 -1.39594 -0.00400001 0
-1.03024 -1.39333 -0.0116 0
-1.03192 -1.39054 -0.0116 0
-1.03523 -1.38504 -0.00490001 0
-1.03685 -1.38232 -0.00490001 0
-1.03847 -1.37964 -0.000800007 0
-1.04011 -1.37691 -0.000800007 0
-1.04344 -1.37142 -0.00900001 0
-1.04597 -1.36915 -0.00900001 0
