ply
format ascii 1.0
element vertex 1729
property float x
property float y
property float z
property float intensity
end_header
0.299031 0.712027 0.000400002 0
0.29903 0.712026 0.000400002 0
0.29903 0.712025 0.0014 0
0.29903 0.712024 0.0014 0
0.299029 0.712021 0.000700002 0
0.298905 0.712045 0.000700002 0
0.298904 0.712044 0.0012 0
0.299026 0.712018 0.0012 0
0.298902 0.712042 0.000800002 0
0.298902 0.71204 0.000800002 0
0.298901 0.712039 0.000800002 0
0.298901 0.712038 0.001 0
0.2989 0.712038 0.001 0
0.2989 0.712036 0.0013 0
0.2989 0.712035 0.0013 0
0.298899 0.712033 0.000800002 0
0.2989 0.712032 0.000800002 0
0.298899 0.712031 0.0013 0
0.298899 0.712029 0.0013 0
0.298899 0.712027 0.0012 0
0.2989 0.712026 0.0012 0
0.2989 0.712024 0.0012 0
0.298899 0.712023 0.000900002 0
0.298898 0.712022 0.000900002 0
0.298897 0.712021 0.001 0
0.299019 0.711994 0.0011 0
0.298949 0.709018 0.0011 0
0.298896 0.712017 0.0011 0
0.298895 0.712016 0.0011 0
0.298894 0.712014 0.0011 0
0.298894 0.712013 0.0013 0
0.298893 0.712011 0.0013 0
0.298893 0.712011 0.0013 0
0.298894 0.712009 0.000600002 0
0.298894 0.712007 0.000800002 0
0.298894 0.712007 0.000800002 0
0.298893 0.712005 0.000800002 0
0.298893 0.712004 0.0017 0
0.298893 0.712003 0.0017 0
0.298893 0.712002 0.000600002 0
0.298893 0.712001 0.000600002 0
0.298893 0.712001 0.000900002 0
0.298893 0.712001 0.000900002 0
0.298893 0.712001 0.000900002 0
0.298893 0.712 0.0018 0
0.298892 0.712 0.0018 0
0.298892 0.712 0.000900002 0
0.298892 0.711999 0.000900002 0
0.298892 0.711998 0.0012 0
0.298893 0.711997 0.0012 0
0.298894 0.711996 0.0013 0
0.298894 0.711995 0.0013 0
0.298894 0.711996 0.0014 0
0.298894 0.711996 0.0014 0
0.298894 0.711996 0.000900002 0
0.298894 0.711996 0.000900002 0
0.298893 0.711996 0.0012 0
0.298893 0.711994 0.0012 0
0.298892 0.711994 0.000900002 0
0.298909 0.710993 0.000900002 0
0.298891 0.711991 0.000900002 0
0.298891 0.711989 0.000900002 0
0.29889 0.711988 0.0011 0
0.29889 0.711986 0.0011 0
0.298889 0.711985 0.0013 0
0.298889 0.711986 0.0013 0
0.298889 0.711984 0.0013 0
0.298888 0.711983 0.0013 0
0.298888 0.711983 0.0013 0
0.298888 0.711983 0.0013 0
0.298888 0.711982 0.0013 0
0.298887 0.71198 0.0012 0
0.298888 0.711979 0.0012 0
0.298888 0.711978 0.0011 0
0.298888 0.711976 0.0011 0
0.298887 0.711975 0.0011 0
0.298887 0.711974 0.000700002 0
0.298887 0.711972 0.000700002 0
0.298886 0.711971 0.0013 0
0.298887 0.71197 0.0013 0
0.298886 0.711968 0.000900002 0
0.298886 0.711967 0.000900002 0
0.298887 0.711966 0.0015 0
0.298887 0.711965 0.0015 0
0.298887 0.711964 0.0015 0
0.298904 0.710963 0.0012 0
0.298886 0.711962 0.0012 0
0.298886 0.711962 0.000800002 0
0.298887 0.711961 0.000800002 0
0.29901 0.711935 0.0013 0
0.29901 0.711934 0.0013 0
0.29901 0.711932 0.0014 0
0.299009 0.711931 0.0014 0
0.299009 0.71193 0.0014 0
0.299009 0.711929 0.001 0
0.299009 0.711928 0.001 0
0.299009 0.711926 0.0013 0
0.29901 0.711926 0.0013 0
0.29901 0.711925 0.001 0
0.29901 0.711924 0.001 0
0.29901 0.711924 0.001 0
0.299009 0.711923 0.000900002 0
0.299044 0.709922 0.000900002 0
0.299008 0.71192 0.0013 0
0.299008 0.711919 0.0013 0
0.299008 0.711918 0.000800002 0
0.299007 0.711918 0.000800002 0
0.299007 0.711917 0.0015 0
0.299006 0.711915 0.0015 0
0.299005 0.711914 0.001 0
0.299004 0.711912 0.001 0
0.299004 0.711911 0.0011 0
0.299004 0.711911 0.0011 0
0.299004 0.71191 0.0011 0
0.299004 0.711909 0.0011 0
0.299004 0.711908 0.0011 0
0.299004 0.711908 0.000800002 0
0.299004 0.711906 0.000800002 0
0.29888 0.71193 0.0015 0
0.29888 0.71193 0.0015 0
0.29888 0.711928 0.0015 0
0.298898 0.710928 0.000900002 0
0.29888 0.711927 0.000900002 0
0.29888 0.711926 0.0022 0
0.298898 0.710926 0.0022 0
0.298881 0.711924 0.0022 0
0.298883 0.711924 0.000400002 0
0.298883 0.711922 0.000400002 0
0.298884 0.711921 0.000900002 0
0.298884 0.71192 0.000900002 0
0.298884 0.711919 0.001 0
0.298884 0.711918 0.001 0
0.298883 0.711917 0.0011 0
0.298883 0.711915 0.0011 0
0.298884 0.711914 0.0018 0
0.298884 0.711914 0.0018 0
0.298883 0.711913 0.0016 0
0.298883 0.711912 0.0016 0
0.298883 0.711911 0.0016 0
0.298883 0.71191 0.000600002 0
0.298883 0.711909 0.000600002 0
0.298884 0.711909 0.000600002 0
0.298883 0.711908 0.000700002 0
0.298884 0.711906 0.000900002 0
0.298884 0.711905 0.000900002 0
0.298884 0.711904 0.000900002 0
0.298884 0.711903 0.0013 0
0.298884 0.711902 0.0013 0
0.298883 0.711901 0.0013 0
0.298882 0.711901 0.001 0
0.29888 0.7119 0.001 0
0.29888 0.7119 0.001 0
0.29888 0.711899 0.000600002 0
0.29888 0.711899 0.000600002 0
0.29888 0.711898 0.0011 0
0.298879 0.711898 0.0011 0
0.298879 0.711897 0.0011 0
0.298879 0.711896 0.0012 0
0.298879 0.711894 0.0012 0
0.298878 0.711893 0.0016 0
0.298878 0.711893 0.0016 0
0.298878 0.711892 0.0012 0
0.298878 0.711891 0.0012 0
0.298895 0.710891 0.0014 0
0.298878 0.711889 0.0014 0
0.298878 0.711888 0.0014 0
0.298877 0.711888 0.001 0
0.298876 0.711886 0.001 0
0.298876 0.711885 0.001 0
0.298874 0.711884 0.0014 0
0.298873 0.711884 0.0015 0
0.298873 0.711884 0.0015 0
0.298872 0.711883 0.0011 0
0.298908 0.709884 0.0011 0
0.298872 0.711883 0.0011 0
0.298872 0.711882 0.001 0
0.298871 0.711881 0.001 0
0.298871 0.711879 0.0012 0
0.29887 0.711879 0.0012 0
0.29887 0.711879 0.001 0
0.298869 0.711879 0.001 0
0.298868 0.711878 0.0015 0
0.298868 0.711877 0.0015 0
0.298868 0.711876 0.0013 0
0.298868 0.711876 0.0013 0
0.298868 0.711875 0.000800002 0
0.298867 0.711874 0.000800002 0
0.298989 0.711848 0.0012 0
0.298989 0.711848 0.0012 0
0.299041 0.708848 0.0011 0
0.298865 0.71187 0.0011 0
0.298865 0.711869 0.0011 0
0.298989 0.711843 0.0011 0
0.298988 0.711841 0.0015 0
0.298989 0.711841 0.0015 0
0.298989 0.711839 0.0015 0
0.298989 0.711837 0.000900002 0
0.298989 0.711836 0.0013 0
0.298989 0.711834 0.0013 0
0.29899 0.711833 0.0013 0
0.29899 0.711832 0.001 0
0.298991 0.71183 0.001 0
0.298992 0.711829 0.0012 0
0.298992 0.711829 0.0012 0
0.298992 0.711826 0.0011 0
0.298992 0.711825 0.0011 0
0.298992 0.711824 0.0013 0
0.298993 0.711823 0.0013 0
0.298994 0.711821 0.0012 0
0.298995 0.71182 0.0012 0
0.298995 0.711819 0.000900002 0
0.298995 0.711818 0.000900002 0
0.298995 0.711816 0.000600002 0
0.298995 0.711814 0.000600002 0
0.298995 0.711813 0.001 0
0.298995 0.711811 0.001 0
0.298996 0.71181 0.0012 0
0.298996 0.71181 0.0012 0
0.298996 0.711809 0.0011 0
0.298873 0.71183 0.0011 0
0.298873 0.711829 0.0011 0
0.298873 0.711828 0.0011 0
0.298873 0.711826 0.000800002 0
0.298873 0.711823 0.000800002 0
0.298873 0.711823 0.001 0
0.298873 0.711822 0.001 0
0.298873 0.711821 0.001 0
0.298873 0.711817 0.0012 0
0.298872 0.711817 0.0015 0
0.298872 0.711815 0.0015 0
0.298873 0.711813 0.0012 0
0.298873 0.711812 0.0012 0
0.298874 0.711812 0.0012 0
0.298873 0.711811 0.0012 0
0.298874 0.71181 0.0012 0
0.298874 0.71181 0.0013 0
0.298875 0.711809 0.0013 0
0.298874 0.711808 0.0013 0
0.298873 0.711807 0.0014 0
0.298996 0.711781 0.0014 0
0.298873 0.711805 0.000900002 0
0.298873 0.711805 0.000900002 0
0.298873 0.711805 0.001 0
0.298873 0.711805 0.001 0
0.298873 0.711804 0.000900002 0
0.298997 0.711779 0.000900002 0
0.298997 0.711779 0.000900002 0
0.298997 0.711779 0.001 0
0.298873 0.711804 0.001 0
0.298873 0.711804 0.001 0
0.298872 0.711804 0.001 0
0.298872 0.711804 0.000900002 0
0.298995 0.711779 0.000900002 0
0.298996 0.711779 0.0013 0
0.298996 0.711778 0.0013 0
0.298996 0.711778 0.0013 0
0.298998 0.711776 0.001 0
0.299016 0.710775 0.001 0
0.298998 0.711775 0.0014 0
0.298999 0.711774 0.0014 0
0.298998 0.711772 0.0013 0
0.298999 0.71177 0.000800002 0
0.298999 0.711769 0.000800002 0
0.298878 0.711793 0.0017 0
0.298878 0.711792 0.0017 0
0.298878 0.711792 0.0017 0
0.298878 0.71179 0.0012 0
0.298877 0.711789 0.000800002 0
0.298876 0.711788 0.000800002 0
0.298876 0.711787 0.001 0
0.298998 0.71176 0.001 0
0.298997 0.711758 0.000900002 0
0.299014 0.710758 0.000900002 0
0.298996 0.711757 0.000900002 0
0.298995 0.711754 0.000900002 0
0.298995 0.711753 0.001 0
0.298995 0.711751 0.001 0
0.298995 0.711749 0.0013 0
0.298994 0.711747 0.0013 0
0.298993 0.711743 0.0012 0
0.298992 0.711741 0.0012 0
0.298991 0.711739 0.0013 0
0.298991 0.711736 0.0013 0
0.29899 0.711735 0.0014 0
0.29899 0.711733 0.0014 0
0.298989 0.711732 0.0015 0
0.298989 0.71173 0.0015 0
0.298988 0.711729 0.0015 0
0.298864 0.711752 0.0014 0
0.298863 0.711749 0.0014 0
0.298863 0.711747 0.0012 0
0.298862 0.711745 0.0012 0
0.298862 0.711742 0.0011 0
0.298861 0.711741 0.0011 0
0.298985 0.711713 0.001 0
0.298985 0.711712 0.001 0
0.298986 0.711711 0.0013 0
0.298985 0.711709 0.0013 0
0.298986 0.711708 0.0019 0
0.298986 0.711706 0.0019 0
0.298987 0.711705 0.0011 0
0.298987 0.711704 0.0011 0
0.298986 0.711704 0.001 0
0.298986 0.711704 0.001 0
0.298863 0.711728 0.0014 0
0.298863 0.711726 0.0012 0
0.298864 0.711725 0.0012 0
0.298864 0.711725 0.0012 0
0.298864 0.711723 0.000900002 0
0.298987 0.711697 0.0012 0
0.298987 0.711696 0.0012 0
0.298986 0.711695 0.0012 0
0.298986 0.711694 0.001 0
0.298985 0.711693 0.001 0
0.298985 0.711691 0.001 0
0.298985 0.71169 0.001 0
0.298985 0.71169 0.001 0
0.298985 0.711689 0.0012 0
0.298985 0.711687 0.0012 0
0.298985 0.711686 0.0012 0
0.298985 0.711685 0.0013 0
0.298986 0.711685 0.0013 0
0.298985 0.711684 0.0013 0
0.298984 0.711684 0.001 0
0.298984 0.711683 0.001 0
0.298984 0.711681 0.001 0
0.298984 0.71168 0.001 0
0.298984 0.711676 0.0013 0
0.298984 0.711675 0.0013 0
0.298984 0.711675 0.000900002 0
0.298984 0.711675 0.000900002 0
0.298983 0.711674 0.0017 0
0.298983 0.711673 0.0017 0
0.298982 0.711672 0.0017 0
0.298982 0.711672 0.0014 0
0.298981 0.711672 0.0014 0
0.298981 0.711671 0.0013 0
0.298981 0.71167 0.0013 0
0.298981 0.711668 0.000900002 0
0.298979 0.711667 0.000900002 0
0.298979 0.711667 0.000900002 0
0.298978 0.711667 0.0011 0
0.298977 0.711666 0.0011 0
0.298975 0.711665 0.0011 0
0.298975 0.711663 0.0011 0
0.298974 0.711663 0.0013 0
0.298974 0.711662 0.0013 0
0.298973 0.711661 0.0014 0
0.298972 0.71166 0.0014 0
0.29897 0.711659 0.000900002 0
0.298969 0.711658 0.000900002 0
0.298968 0.711657 0.0011 0
0.298968 0.711656 0.0011 0
0.298968 0.711655 0.0011 0
0.298967 0.711654 0.0011 0
0.298967 0.711653 0.0012 0
0.298842 0.711676 0.0015 0
0.298841 0.711675 0.0015 0
0.298841 0.711673 0.0015 0
0.299037 0.700674 0.000900002 0
0.29884 0.711672 0.000900002 0
0.298839 0.711671 0.000900002 0
0.298839 0.71167 0.000800002 0
0.298838 0.711669 0.000800002 0
0.298838 0.711668 0.0014 0
0.298837 0.711667 0.0014 0
0.298838 0.711666 0.000900002 0
0.298838 0.711665 0.000900002 0
0.298838 0.711665 0.000500002 0
0.298837 0.711664 0.000500002 0
0.298837 0.711663 0.0012 0
0.298837 0.711661 0.0012 0
0.298838 0.711659 0.0012 0
0.298839 0.711657 0.0011 0
0.29884 0.711658 0.0011 0
0.298842 0.711659 0.000300002 0
0.298843 0.711658 0.000300002 0
0.298843 0.711658 0.0014 0
0.298843 0.711658 0.0014 0
0.298843 0.711658 0.0014 0
0.298843 0.711657 0.0014 0
0.298966 0.711629 0.0016 0
0.298966 0.711628 0.0016 0
0.298965 0.711627 0.000700002 0
0.298965 0.711626 0.000700002 0
0.298966 0.711626 0.000700002 0
0.298966 0.711625 0.001 0
0.298966 0.711624 0.001 0
0.298842 0.711649 0.0015 0
0.298841 0.711648 0.0015 0
0.298841 0.711648 0.0011 0
0.29884 0.711648 0.0011 0
0.298841 0.711648 0.0011 0
0.298842 0.711647 0.0013 0
0.298842 0.711646 0.0013 0
0.298842 0.711645 0.000700002 0
0.298966 0.711618 0.0012 0
0.298966 0.711617 0.0012 0
0.298842 0.71164 0.0012 0
0.298843 0.711639 0.0014 0
0.298843 0.711639 0.0014 0
0.298843 0.711637 0.000800002 0
0.298843 0.711635 0.000800002 0
0.298844 0.711633 0.0012 0
0.298845 0.711632 0.0012 0
0.298845 0.71163 0.0012 0
0.298846 0.711629 0.0012 0
0.298969 0.711603 0.0012 0
0.298846 0.711628 0.000600002 0
0.298952 0.712602 0.000600002 0
0.298846 0.711627 0.000600002 0
0.29897 0.711601 0.000700002 0
0.29897 0.7116 0.000700002 0
0.29897 0.711598 0.000900002 0
0.29897 0.711597 0.0013 0
0.299005 0.709597 0.0013 0
0.29897 0.711596 0.0013 0
0.29897 0.711595 0.0013 0
0.298969 0.711594 0.0013 0
0.298846 0.711618 0.0013 0
0.29897 0.711592 0.0011 0
0.298969 0.711592 0.001 0
0.298846 0.711616 0.001 0
0.298846 0.711615 0.001 0
0.298846 0.711613 0.0014 0
0.298846 0.71161 0.000800002 0
0.29897 0.711583 0.000800002 0
0.29897 0.711582 0.0016 0
0.298971 0.711581 0.0016 0
0.298971 0.71158 0.0016 0
0.298972 0.711579 0.000400002 0
0.298971 0.711577 0.000400002 0
0.298971 0.711576 0.001 0
0.298971 0.711573 0.001 0
0.29897 0.711572 0.0012 0
0.29897 0.711571 0.0012 0
0.29897 0.711571 0.000800002 0
0.298969 0.711571 0.000800002 0
0.298845 0.711595 0.000800002 0
0.298844 0.711595 0.0013 0
0.298843 0.711593 0.0012 0
0.298842 0.711591 0.0012 0
0.298842 0.711591 0.0012 0
0.298842 0.71159 0.000800002 0
0.298842 0.71159 0.000800002 0
0.298843 0.71159 0.000800002 0
0.298843 0.711589 0.0012 0
0.298843 0.711589 0.001 0
0.298843 0.711588 0.001 0
0.298843 0.711586 0.001 0
0.298844 0.711585 0.0014 0
0.298843 0.711584 0.0014 0
0.298843 0.711582 0.001 0
0.298842 0.711581 0.000900002 0
0.298842 0.711579 0.000900002 0
0.298842 0.711578 0.0011 0
0.298842 0.711577 0.0011 0
0.298842 0.711575 0.0012 0
0.298842 0.711573 0.0012 0
0.298842 0.711571 0.0015 0
0.298842 0.71157 0.0015 0
0.298843 0.71157 0.0011 0
0.298842 0.711568 0.0011 0
0.298842 0.711567 0.0011 0
0.298842 0.711565 0.0011 0
0.298843 0.711564 0.0015 0
0.298843 0.711563 0.0015 0
0.298843 0.711562 0.0014 0
0.298843 0.711562 0.0014 0
0.298843 0.71156 0.0011 0
0.298843 0.71156 0.0011 0
0.298843 0.711559 0.0014 0
0.298843 0.711559 0.0014 0
0.298842 0.711559 0.000900002 0
0.298842 0.711559 0.000900002 0
0.298842 0.711558 0.0015 0
0.298841 0.711557 0.0015 0
0.298841 0.711557 0.0015 0
0.298841 0.711557 0.0015 0
0.298842 0.711557 0.001 0
0.298842 0.711556 0.001 0
0.298842 0.711555 0.001 0
0.298842 0.711555 0.0011 0
0.298842 0.711553 0.0011 0
0.298843 0.711552 0.0015 0
0.298843 0.711549 0.0015 0
0.298843 0.711548 0.0013 0
0.298843 0.711547 0.0013 0
0.298844 0.711546 0.0013 0
0.298844 0.711544 0.0014 0
0.298844 0.711544 0.0014 0
0.298844 0.711543 0.0014 0
0.298844 0.711542 0.001 0
0.298898 0.70854 0.001 0
0.298845 0.711539 0.001 0
0.298846 0.711539 0.001 0
0.298846 0.711538 0.0011 0
0.298846 0.711536 0.0011 0
0.298846 0.711536 0.0011 0
0.298846 0.711536 0.000800002 0
0.298846 0.711534 0.000800002 0
0.298846 0.711534 0.0014 0
0.298847 0.711532 0.000800002 0
0.298847 0.711531 0.000800002 0
0.298847 0.711531 0.000800002 0
0.298847 0.711531 0.000700002 0
0.298846 0.71153 0.000700002 0
0.298847 0.71153 0.000700002 0
0.298846 0.711529 0.0011 0
0.298846 0.711527 0.0011 0
0.298845 0.711526 0.0013 0
0.298846 0.711525 0.0013 0
0.298845 0.711525 0.001 0
0.298846 0.711525 0.001 0
0.298845 0.711523 0.0014 0
0.298845 0.711523 0.0014 0
0.298844 0.711523 0.000700002 0
0.298844 0.711522 0.000700002 0
0.298844 0.711522 0.000700002 0
0.298845 0.711521 0.0013 0
0.298845 0.71152 0.0013 0
0.298845 0.71152 0.0011 0
0.298845 0.71152 0.0011 0
0.298845 0.711519 0.0011 0
0.298845 0.711518 0.001 0
0.298845 0.711518 0.001 0
0.298846 0.711517 0.0012 0
0.298847 0.711516 0.0012 0
0.298847 0.711516 0.0012 0
0.298847 0.711514 0.0016 0
0.298848 0.711514 0.0012 0
0.298848 0.711514 0.0012 0
0.298849 0.711513 0.0012 0
0.298903 0.708513 0.0013 0
0.29885 0.711512 0.0013 0
0.29885 0.711511 0.0013 0
0.298851 0.71151 0.0013 0
0.298851 0.71151 0.0013 0
0.298851 0.711509 0.0012 0
0.298852 0.711508 0.0012 0
0.298852 0.711506 0.0015 0
0.298852 0.711505 0.0015 0
0.298852 0.711504 0.0017 0
0.298852 0.711504 0.0017 0
0.298851 0.711504 0.0014 0
0.298852 0.711504 0.0014 0
0.298852 0.711504 0.0014 0
0.298852 0.711501 0.0011 0
0.298852 0.7115 0.0014 0
0.298852 0.711498 0.0014 0
0.298852 0.711497 0.0014 0
0.298871 0.710496 0.0011 0
0.298853 0.711495 0.0011 0
0.298854 0.711494 0.0013 0
0.298854 0.711495 0.0013 0
0.298855 0.711494 0.0011 0
0.298855 0.711494 0.0011 0
0.298855 0.711493 0.0012 0
0.298855 0.711492 0.0012 0
0.298854 0.711491 0.0012 0
0.298854 0.711491 0.0014 0
0.298853 0.71149 0.000700002 0
0.298852 0.711489 0.000700002 0
0.298851 0.711488 0.000700002 0
0.298851 0.711487 0.0013 0
0.298851 0.711486 0.0013 0
0.298851 0.711486 0.000800002 0
0.298904 0.708487 0.000800002 0
0.298851 0.711485 0.000800002 0
0.298852 0.711484 0.0011 0
0.298852 0.711483 0.0011 0
0.298852 0.711481 0.0011 0
0.298851 0.711479 0.001 0
0.29885 0.711478 0.0013 0
0.298849 0.711476 0.0013 0
0.298848 0.711475 0.000900002 0
0.298847 0.711474 0.000900002 0
0.298847 0.711473 0.0012 0
0.298846 0.711472 0.0012 0
0.298846 0.71147 0.0011 0
0.298845 0.71147 0.0011 0
0.298845 0.711468 0.000800002 0
0.298844 0.711468 0.000800002 0
0.298844 0.711467 0.0012 0
0.298843 0.711466 0.0012 0
0.298842 0.711465 0.0012 0
0.298877 0.709464 0.000600002 0
0.298841 0.711464 0.000600002 0
0.298877 0.709463 0.000900002 0
0.298841 0.711462 0.000900002 0
0.298841 0.711461 0.0012 0
0.298842 0.711459 0.0012 0
0.298841 0.711457 0.000700002 0
0.298841 0.711456 0.000700002 0
0.298841 0.711455 0.000700002 0
0.298963 0.711428 0.0016 0
0.298964 0.711427 0.0012 0
0.298963 0.711427 0.0012 0
0.298963 0.711427 0.0012 0
0.29884 0.711452 0.0011 0
0.29884 0.71145 0.0012 0
0.298963 0.711424 0.0012 0
0.298964 0.711423 0.0012 0
0.298842 0.711445 0.0013 0
0.298843 0.711444 0.0012 0
0.298844 0.711444 0.0012 0
0.298112 0.752437 0.0012 0
0.298845 0.711443 0.001 0
0.298863 0.710443 0.001 0
0.298844 0.711443 0.001 0
0.298844 0.711442 0.001 0
0.298967 0.711417 0.0013 0
0.298967 0.711416 0.0013 0
0.298966 0.711415 0.0011 0
0.298966 0.711414 0.0011 0
0.298966 0.711413 0.0013 0
0.298967 0.711413 0.0013 0
0.298968 0.711413 0.001 0
0.298968 0.711412 0.001 0
0.298967 0.71141 0.0015 0
0.298967 0.71141 0.0015 0
0.298967 0.711409 0.0015 0
0.298966 0.711406 0.001 0
0.298966 0.711405 0.0011 0
0.298965 0.711404 0.0011 0
0.298965 0.711403 0.0011 0
0.298965 0.711402 0.0015 0
0.298964 0.711401 0.0015 0
0.298965 0.7114 0.000900002 0
0.298964 0.711398 0.001 0
0.298965 0.711398 0.001 0
0.298966 0.711398 0.001 0
0.298966 0.711397 0.000900002 0
0.298967 0.711396 0.000900002 0
0.298966 0.711395 0.0013 0
0.298966 0.711394 0.0013 0
0.298966 0.711394 0.0013 0
0.298966 0.711393 0.0014 0
0.298966 0.711392 0.0014 0
0.298966 0.711391 0.0012 0
0.298966 0.71139 0.0012 0
0.298965 0.711388 0.0013 0
0.298965 0.711388 0.0013 0
0.298965 0.711387 0.0015 0
0.298966 0.711387 0.0015 0
0.298966 0.711387 0.0015 0
0.298965 0.711387 0.000900002 0
0.298966 0.711386 0.000900002 0
0.298966 0.711384 0.0012 0
0.298965 0.711382 0.0012 0
0.298965 0.711381 0.000700002 0
0.298965 0.711379 0.000700002 0
0.298842 0.711403 0.000700002 0
0.298841 0.7114 0.0011 0
0.298877 0.709399 0.0011 0
0.298842 0.711397 0.0011 0
0.298842 0.711395 0.000900002 0
0.298841 0.711393 0.000900002 0
0.298841 0.711393 0.000900002 0
0.298841 0.711391 0.0012 0
0.298841 0.71139 0.0012 0
0.29884 0.711389 0.001 0
0.298963 0.711362 0.001 0
0.29884 0.711385 0.001 0
0.298875 0.709385 0.001 0
0.298963 0.711358 0.0013 0
0.298839 0.711382 0.0013 0
0.298839 0.71138 0.0013 0
0.298838 0.711379 0.0015 0
0.298838 0.711378 0.0015 0
0.298838 0.711376 0.001 0
0.298838 0.711376 0.001 0
0.298838 0.711375 0.0014 0
0.298837 0.711374 0.0014 0
0.29896 0.711348 0.0014 0
0.298872 0.709372 0.0014 0
0.298837 0.71137 0.0014 0
0.298837 0.71137 0.001 0
0.29896 0.711341 0.001 0
0.298961 0.71134 0.0012 0
0.298962 0.711339 0.0012 0
0.298962 0.711337 0.0011 0
0.298962 0.711336 0.0011 0
0.298962 0.711334 0.0011 0
0.298962 0.711333 0.0016 0
0.298963 0.711332 0.0016 0
0.298963 0.711331 0.0011 0
0.298963 0.711331 0.0011 0
0.298963 0.711331 0.000800002 0
0.298963 0.71133 0.000800002 0
0.298963 0.711329 0.0015 0
0.298962 0.711329 0.0015 0
0.298961 0.711328 0.000700002 0
0.298961 0.711329 0.000700002 0
0.29896 0.71133 0.0011 0
0.298959 0.71133 0.0011 0
0.298959 0.71133 0.000700002 0
0.298958 0.711329 0.000700002 0
0.298958 0.711329 0.0013 0
0.298958 0.711327 0.000900002 0
0.298958 0.711325 0.000900002 0
0.298958 0.711324 0.000900002 0
0.298958 0.711322 0.000900002 0
0.298957 0.711319 0.000900002 0
0.298957 0.711317 0.0016 0
0.298958 0.711316 0.0016 0
0.298958 0.711314 0.0012 0
0.298957 0.711312 0.0011 0
0.298957 0.711311 0.0011 0
0.298957 0.711309 0.0011 0
0.298958 0.711308 0.001 0
0.298957 0.711306 0.0014 0
0.298957 0.711304 0.0014 0
0.298956 0.711303 0.0014 0
0.298954 0.711301 0.000900002 0
0.298954 0.711301 0.000900002 0
0.298954 0.7113 0.000900002 0
0.298954 0.711298 0.000900002 0
0.298954 0.711296 0.0015 0
0.298953 0.711295 0.0015 0
0.298952 0.711294 0.000900002 0
0.298952 0.711293 0.000900002 0
0.298952 0.711291 0.0015 0
0.298952 0.711289 0.001 0
0.298952 0.711287 0.001 0
0.298952 0.711285 0.001 0
0.298951 0.711283 0.0011 0
0.29895 0.711282 0.0011 0
0.29895 0.711281 0.0011 0
0.298949 0.71128 0.0011 0
0.298948 0.711279 0.000900002 0
0.298948 0.711278 0.000900002 0
0.298947 0.711277 0.000900002 0
0.298947 0.711276 0.000600002 0
0.298947 0.711276 0.000600002 0
0.298947 0.711275 0.0011 0
0.298946 0.711275 0.0011 0
0.298946 0.711275 0.0012 0
0.298945 0.711273 0.0012 0
0.298945 0.711271 0.000700002 0
0.298944 0.71127 0.000700002 0
0.298944 0.711267 0.001 0
0.298943 0.711264 0.001 0
0.298944 0.711263 0.000700002 0
0.298944 0.711263 0.000700002 0
0.298944 0.711262 0.0012 0
0.298945 0.711262 0.0012 0
0.298945 0.711261 0.0012 0
0.298946 0.711259 0.0012 0
0.298946 0.711259 0.0013 0
0.298946 0.711258 0.0013 0
0.298946 0.711257 0.0013 0
0.298946 0.711255 0.001 0
0.298946 0.711253 0.001 0
0.298945 0.711251 0.000600002 0
0.298945 0.71125 0.000600002 0
0.298946 0.71125 0.0012 0
0.298946 0.711249 0.0012 0
0.298947 0.711249 0.0011 0
0.298947 0.711248 0.0011 0
0.298948 0.711247 0.0011 0
0.298948 0.711247 0.0012 0
0.298948 0.711247 0.0012 0
0.298947 0.711246 0.0012 0
0.298947 0.711246 0.0019 0
0.298947 0.711243 0.0015 0
0.298947 0.711242 0.0015 0
0.298948 0.71124 0.0014 0
0.298948 0.711239 0.0014 0
0.298949 0.711238 0.0014 0
0.298949 0.711237 0.0012 0
0.29895 0.711235 0.0012 0
0.298951 0.711234 0.0013 0
0.298951 0.711234 0.0013 0
0.298952 0.711233 0.0013 0
0.298951 0.711232 0.000800002 0
0.298952 0.711232 0.000800002 0
0.298952 0.71123 0.001 0
0.298951 0.711226 0.001 0
0.298951 0.711225 0.001 0
0.29895 0.711225 0.001 0
0.29895 0.711224 0.0011 0
0.29895 0.711223 0.0011 0
0.298948 0.711222 0.0011 0
0.298948 0.711221 0.001 0
0.298948 0.71122 0.001 0
0.298949 0.711219 0.001 0
0.298949 0.711216 0.0015 0
0.298948 0.711215 0.0011 0
0.298948 0.711215 0.0011 0
0.298948 0.711214 0.001 0
0.298948 0.711213 0.001 0
0.298947 0.711211 0.001 0
0.298947 0.711208 0.000700002 0
0.298945 0.711205 0.000700002 0
0.298944 0.711204 0.0012 0
0.298943 0.711202 0.0012 0
0.298942 0.711201 0.0012 0
0.298942 0.7112 0.0012 0
0.298941 0.711199 0.0012 0
0.298939 0.711197 0.0012 0
0.298939 0.711196 0.001 0
0.298938 0.711194 0.001 0
0.298937 0.711192 0.001 0
0.298936 0.711191 0.001 0
0.298935 0.711189 0.001 0
0.298934 0.711189 0.0017 0
0.298934 0.711189 0.0017 0
0.298934 0.711188 0.0013 0
0.298933 0.711187 0.0013 0
0.298951 0.710186 0.0013 0
0.298933 0.711184 0.0011 0
0.298933 0.711183 0.0011 0
0.298933 0.711182 0.0011 0
0.298933 0.711181 0.0011 0
0.298932 0.71118 0.000900002 0
0.298932 0.711178 0.000900002 0
0.298932 0.711177 0.0011 0
0.298931 0.711176 0.0011 0
0.298931 0.711173 0.0011 0
0.298931 0.711173 0.0011 0
0.29893 0.711173 0.0017 0
0.29893 0.711172 0.0017 0
0.29893 0.711171 0.0017 0
0.298964 0.70917 0.0011 0
0.298928 0.711169 0.0011 0
0.298928 0.711168 0.0012 0
0.298928 0.711167 0.0012 0
0.298928 0.711166 0.0012 0
0.298928 0.711165 0.001 0
0.298928 0.711164 0.001 0
0.298928 0.711164 0.0016 0
0.298928 0.711161 0.0016 0
0.298928 0.711161 0.0014 0
0.298928 0.711161 0.0014 0
0.298928 0.71116 0.0015 0
0.298927 0.711159 0.0015 0
0.298927 0.711159 0.0015 0
0.298927 0.711159 0.001 0
0.298927 0.711157 0.001 0
0.298945 0.710156 0.0014 0
0.298944 0.710155 0.0014 0
0.298927 0.711154 0.0014 0
0.298926 0.711154 0.0013 0
0.299138 0.699155 0.000900002 0
0.298925 0.711152 0.000900002 0
0.298924 0.711151 0.000900002 0
0.298924 0.71115 0.0014 0
0.298924 0.71115 0.0014 0
0.298924 0.711149 0.001 0
0.298923 0.711147 0.001 0
0.298922 0.711147 0.0012 0
0.298798 0.711172 0.0012 0
0.298798 0.711172 0.0016 0
0.298798 0.711171 0.0016 0
0.298798 0.711171 0.001 0
0.298798 0.71117 0.001 0
0.298798 0.711169 0.001 0
0.298798 0.711169 0.0016 0
0.298798 0.711168 0.0016 0
0.298798 0.711168 0.0015 0
0.298798 0.711167 0.0015 0
0.298797 0.711167 0.0013 0
0.298798 0.711165 0.0013 0
0.298921 0.711139 0.0013 0
0.298922 0.711138 0.001 0
0.298921 0.711138 0.001 0
0.29892 0.711137 0.000800002 0
0.298796 0.711159 0.000800002 0
0.298796 0.711158 0.0011 0
0.298919 0.711132 0.0011 0
0.298919 0.71113 0.001 0
0.298972 0.70813 0.001 0
0.298918 0.711129 0.001 0
0.298917 0.711128 0.001 0
0.298916 0.711127 0.000400002 0
0.298915 0.711125 0.000400002 0
0.298915 0.711124 0.000600002 0
0.298914 0.711123 0.0016 0
0.298914 0.711122 0.0016 0
0.298915 0.711121 0.0016 0
0.298915 0.71112 0.001 0
0.298915 0.711119 0.000800002 0
0.298916 0.711118 0.000800002 0
0.298916 0.711117 0.000800002 0
0.298916 0.711116 0.001 0
0.298916 0.711113 0.0011 0
0.298916 0.711113 0.0011 0
0.298917 0.711111 0.000800002 0
0.298918 0.711111 0.000800002 0
0.298918 0.71111 0.0014 0
0.298919 0.711109 0.0014 0
0.29892 0.711108 0.0014 0
0.298921 0.711106 0.000700002 0
0.298921 0.711105 0.0012 0
0.298921 0.711104 0.0012 0
0.298921 0.711104 0.0012 0
0.298798 0.711127 0.0014 0
0.298798 0.711126 0.0013 0
0.298798 0.711125 0.0013 0
0.298799 0.711124 0.001 0
0.298799 0.711124 0.001 0
0.298799 0.711124 0.0014 0
0.298799 0.711124 0.0014 0
0.298799 0.711125 0.0011 0
0.2988 0.711125 0.0012 0
0.2988 0.711124 0.0012 0
0.2988 0.711124 0.0012 0
0.2988 0.711121 0.0012 0
0.298799 0.711119 0.0012 0
0.298799 0.711118 0.0012 0
0.299514 0.671124 0.0012 0
0.2988 0.711117 0.0013 0
0.2988 0.711117 0.0013 0
0.2988 0.711116 0.000900002 0
0.2988 0.711115 0.000900002 0
0.2988 0.711113 0.000900002 0
0.2988 0.711112 0.0012 0
0.2988 0.711112 0.0012 0
0.2988 0.711111 0.000800002 0
0.2988 0.71111 0.000800002 0
0.2988 0.711109 0.0013 0
0.2988 0.711107 0.0013 0
0.2988 0.711107 0.0011 0
0.298798 0.711104 0.0011 0
0.298797 0.711103 0.0011 0
0.298797 0.711101 0.0011 0
0.298795 0.7111 0.0012 0
0.298795 0.711098 0.0012 0
0.298795 0.711097 0.0012 0
0.298795 0.711096 0.0012 0
0.298795 0.711094 0.0012 0
0.298796 0.711093 0.0011 0
0.298796 0.711092 0.0011 0
0.298797 0.71109 0.0011 0
0.298798 0.711088 0.0011 0
0.298798 0.711087 0.001 0
0.298799 0.711086 0.001 0
0.298798 0.711085 0.001 0
0.298797 0.711084 0.0017 0
0.298797 0.711083 0.0017 0
0.298797 0.711082 0.000900002 0
0.298797 0.711081 0.000900002 0
0.298797 0.711081 0.000900002 0
0.298796 0.71108 0.0014 0
0.298796 0.71108 0.0014 0
0.298797 0.711079 0.0013 0
0.298799 0.711075 0.0013 0
0.2988 0.711073 0.0013 0
0.2988 0.711071 0.0013 0
0.298801 0.711069 0.000900002 0
0.298801 0.711067 0.000900002 0
0.298801 0.711066 0.000900002 0
0.298801 0.711064 0.0011 0
0.298801 0.711063 0.0016 0
0.298801 0.711061 0.0016 0
0.298802 0.71106 0.0012 0
0.298802 0.711059 0.0012 0
0.298803 0.711059 0.0012 0
0.298803 0.711058 0.0012 0
0.298804 0.711058 0.0013 0
0.298858 0.708057 0.0013 0
0.298804 0.711057 0.000800002 0
0.298804 0.711054 0.000800002 0
0.298803 0.711053 0.0013 0
0.298804 0.711053 0.0013 0
0.298839 0.709053 0.000900002 0
0.298803 0.71105 0.000900002 0
0.298803 0.71105 0.001 0
0.298803 0.711049 0.001 0
0.298803 0.711048 0.0018 0
0.298804 0.711047 0.0018 0
0.298803 0.711046 0.0012 0
0.298803 0.711045 0.0012 0
0.298926 0.711018 0.0011 0
0.298925 0.711014 0.0011 0
0.298924 0.711014 0.000900002 0
0.298924 0.711013 0.000900002 0
0.298924 0.711011 0.000900002 0
0.2988 0.711035 0.000900002 0
0.298799 0.711031 0.0013 0
0.298798 0.711031 0.0013 0
0.298798 0.71103 0.001 0
0.298796 0.711027 0.001 0
0.29885 0.708026 0.0011 0
0.298797 0.711025 0.0011 0
0.298797 0.711024 0.0012 0
0.298797 0.711023 0.0012 0
0.298798 0.711024 0.0012 0
0.299013 0.699025 0.0011 0
0.298799 0.711022 0.0011 0
0.298922 0.710996 0.001 0
0.298922 0.710996 0.001 0
0.298798 0.71102 0.001 0
0.298798 0.711019 0.0013 0
0.298798 0.711018 0.0013 0
0.298798 0.711017 0.0013 0
0.298798 0.711016 0.0013 0
0.298798 0.711015 0.001 0
0.298797 0.711014 0.001 0
0.298796 0.711012 0.0015 0
0.298796 0.711011 0.0015 0
0.298796 0.711011 0.0014 0
0.298795 0.71101 0.0014 0
0.298794 0.711008 0.0012 0
0.298794 0.711007 0.0012 0
0.298794 0.711006 0.0017 0
0.298794 0.711005 0.0017 0
0.298917 0.710977 0.0011 0
0.298916 0.710976 0.0011 0
0.298917 0.710974 0.0011 0
0.298918 0.710974 0.0011 0
0.298794 0.710997 0.0015 0
0.298918 0.710971 0.0015 0
0.298918 0.71097 0.001 0
0.298918 0.710968 0.001 0
0.298919 0.710966 0.001 0
0.298795 0.71099 0.001 0
0.298795 0.710989 0.0013 0
0.298795 0.710987 0.001 0
0.298795 0.710985 0.001 0
0.298795 0.710984 0.001 0
0.298795 0.710983 0.0015 0
0.298795 0.710981 0.0012 0
0.298795 0.71098 0.0012 0
0.298795 0.710979 0.0012 0
0.298795 0.710977 0.000900002 0
0.298794 0.710977 0.0012 0
0.298795 0.710977 0.0012 0
0.298797 0.710975 0.0012 0
0.29892 0.710949 0.0012 0
0.298919 0.710946 0.0011 0
0.29892 0.710945 0.0011 0
0.29892 0.710944 0.000800002 0
0.298919 0.710943 0.0014 0
0.298919 0.710941 0.0014 0
0.298919 0.710941 0.0014 0
0.298919 0.71094 0.000900002 0
0.29892 0.710939 0.000900002 0
0.29892 0.710938 0.0012 0
0.298921 0.710935 0.0012 0
0.298921 0.710933 0.000700002 0
0.298921 0.710931 0.000700002 0
0.29892 0.710929 0.0011 0
0.298797 0.710952 0.0011 0
0.298796 0.710951 0.0011 0
0.298796 0.710949 0.0013 0
0.298796 0.710948 0.0014 0
0.298795 0.710948 0.0014 0
0.298795 0.710947 0.0014 0
0.298795 0.710944 0.0013 0
0.298794 0.710942 0.000600002 0
0.298794 0.71094 0.000600002 0
0.298793 0.710939 0.000600002 0
0.298793 0.710939 0.000800002 0
0.298792 0.710938 0.001 0
0.298793 0.710938 0.001 0
0.298793 0.710937 0.001 0
0.298793 0.710937 0.0015 0
0.298794 0.710935 0.0016 0
0.298795 0.710935 0.0016 0
0.298795 0.710934 0.0016 0
0.298795 0.710934 0.0014 0
0.298795 0.710933 0.0011 0
0.298795 0.710933 0.0011 0
0.298795 0.710933 0.0011 0
0.298793 0.710931 0.000600002 0
0.298792 0.71093 0.0011 0
0.298792 0.710929 0.0011 0
0.298913 0.710903 0.0013 0
0.298912 0.710902 0.0013 0
0.298912 0.710901 0.0015 0
0.298912 0.710899 0.0015 0
0.298911 0.710898 0.001 0
0.298911 0.710898 0.001 0
0.29891 0.710897 0.0016 0
0.29891 0.710897 0.0016 0
0.298911 0.710895 0.000900002 0
0.298946 0.708894 0.000900002 0
0.298911 0.710892 0.000900002 0
0.298911 0.710891 0.000900002 0
0.298911 0.710888 0.0017 0
0.298912 0.710888 0.0017 0
0.298912 0.710888 0.0015 0
0.298912 0.710886 0.0015 0
0.298788 0.71091 0.000900002 0
0.298788 0.710909 0.000900002 0
0.298788 0.710908 0.000700002 0
0.298788 0.710908 0.000700002 0
0.298788 0.710908 0.000700002 0
0.298789 0.710907 0.0011 0
0.298789 0.710906 0.0011 0
0.298788 0.710906 0.000800002 0
0.298789 0.710905 0.000800002 0
0.298789 0.710903 0.000600002 0
0.298789 0.710903 0.000600002 0
0.298789 0.710901 0.0011 0
0.298789 0.710901 0.0011 0
0.298913 0.710874 0.0011 0
0.298791 0.710896 0.0012 0
0.298791 0.710895 0.000700002 0
0.29879 0.710895 0.000700002 0
0.298791 0.710895 0.000700002 0
0.298791 0.710894 0.0011 0
0.298791 0.710893 0.0011 0
0.298791 0.710892 0.000800002 0
0.298791 0.710891 0.000800002 0
0.298791 0.71089 0.000800002 0
0.298913 0.710863 0.000900002 0
0.298913 0.710863 0.0012 0
0.298913 0.710862 0.0012 0
0.298913 0.71086 0.0012 0
0.298912 0.710858 0.000900002 0
0.298911 0.710856 0.0014 0
0.29891 0.710855 0.0014 0
0.29891 0.710854 0.0014 0
0.298911 0.710854 0.0013 0
0.298911 0.710853 0.0013 0
0.298911 0.710852 0.000900002 0
0.298911 0.710851 0.000900002 0
0.298911 0.71085 0.000900002 0
0.298911 0.710849 0.0011 0
0.29891 0.710848 0.0011 0
0.29891 0.710847 0.0011 0
0.298963 0.707847 0.0011 0
0.29891 0.710846 0.0011 0
0.29891 0.710845 0.0013 0
0.298909 0.710845 0.0013 0
0.298909 0.710843 0.000900002 0
0.298907 0.71084 0.000900002 0
0.298942 0.708839 0.0013 0
0.298906 0.710837 0.0013 0
0.298905 0.710835 0.0011 0
0.298905 0.710833 0.0011 0
0.298904 0.710832 0.0013 0
0.298903 0.710831 0.0013 0
0.298903 0.710831 0.0011 0
0.298902 0.710829 0.0011 0
0.298993 0.698856 0.0011 0
0.298779 0.710853 0.0011 0
0.298778 0.710851 0.000700002 0
0.298779 0.71085 0.000700002 0
0.298778 0.710849 0.001 0
0.298777 0.710849 0.001 0
0.2989 0.710823 0.0014 0
0.2989 0.710822 0.0014 0
0.298777 0.710846 0.000500002 0
0.298776 0.710845 0.000500002 0
0.298775 0.710842 0.0018 0
0.298775 0.710841 0.0018 0
0.298775 0.710839 0.0013 0
0.298775 0.710838 0.0011 0
0.298775 0.710837 0.0011 0
0.298775 0.710836 0.0011 0
0.298776 0.710835 0.0012 0
0.298776 0.710833 0.0014 0
0.298776 0.710832 0.0014 0
0.298776 0.710831 0.0014 0
0.298776 0.710829 0.0012 0
0.298776 0.710828 0.0016 0
0.298775 0.710827 0.0016 0
0.298898 0.710801 0.0016 0
0.298898 0.7108 0.000800002 0
0.298774 0.710823 0.000800002 0
0.298773 0.710822 0.0014 0
0.298755 0.711821 0.0014 0
0.298895 0.710794 0.0014 0
0.298895 0.710793 0.0011 0
0.298895 0.710791 0.000900002 0
0.298895 0.71079 0.000900002 0
0.298895 0.710788 0.000900002 0
0.298895 0.710787 0.0012 0
0.298895 0.710786 0.0012 0
0.298896 0.710782 0.000900002 0
0.298896 0.710781 0.000900002 0
0.298897 0.710781 0.0012 0
0.298897 0.710781 0.0012 0
0.298898 0.710781 0.000700002 0
0.298898 0.710781 0.000700002 0
0.298898 0.71078 0.000700002 0
0.298899 0.710778 0.0015 0
0.298899 0.710778 0.0015 0
0.298898 0.710778 0.0015 0
0.298899 0.710778 0.001 0
0.298899 0.710777 0.001 0
0.2989 0.710773 0.0013 0
0.298901 0.710772 0.0013 0
0.298901 0.710771 0.0011 0
0.298919 0.70977 0.0012 0
0.298901 0.710769 0.0012 0
0.2989 0.710768 0.0012 0
0.2989 0.710767 0.000800002 0
0.2989 0.710766 0.000800002 0
0.298899 0.710765 0.0012 0
0.298899 0.710764 0.0012 0
0.298899 0.710764 0.0012 0
0.298899 0.710763 0.0013 0
0.298899 0.710759 0.0013 0
0.298899 0.710757 0.0013 0
0.2989 0.710755 0.0013 0
0.2989 0.710753 0.0015 0
0.298901 0.710753 0.0015 0
0.298901 0.710753 0.001 0
0.298902 0.710752 0.001 0
0.298901 0.710751 0.0016 0
0.298901 0.71075 0.0016 0
0.298901 0.71075 0.0015 0
0.298901 0.710751 0.0015 0
0.298901 0.71075 0.0015 0
0.298902 0.710748 0.000500002 0
0.298903 0.710747 0.0016 0
0.29892 0.709745 0.0016 0
0.298903 0.710744 0.0016 0
0.298902 0.710743 0.001 0
0.298902 0.710742 0.001 0
0.298902 0.710739 0.0015 0
0.298902 0.710738 0.0015 0
0.298937 0.708736 0.0015 0
0.298901 0.710734 0.0015 0
0.298901 0.710733 0.0015 0
0.29892 0.709732 0.0015 0
0.298902 0.71073 0.0015 0
0.298902 0.710728 0.0011 0
0.298902 0.710727 0.000800002 0
0.298175 0.75172 0.000800002 0
0.298901 0.710727 0.000800002 0
0.2989 0.710728 0.0014 0
0.2989 0.710727 0.0014 0
0.2989 0.710726 0.0013 0
0.2989 0.710726 0.0013 0
0.2989 0.710725 0.0013 0
0.298901 0.710723 0.0012 0
0.2989 0.710722 0.000900002 0
0.2989 0.710721 0.000900002 0
0.2989 0.71072 0.000900002 0
0.2989 0.71072 0.0013 0
0.2989 0.710719 0.0013 0
0.298899 0.710718 0.0012 0
0.298775 0.710741 0.0012 0
0.298775 0.71074 0.000900002 0
0.298775 0.710739 0.000900002 0
0.298043 0.751731 0.000700002 0
0.298775 0.710736 0.000700002 0
0.298775 0.710734 0.0013 0
0.298775 0.710733 0.0013 0
0.298774 0.710731 0.0012 0
0.298774 0.71073 0.0012 0
0.298774 0.71073 0.000700002 0
0.29881 0.708729 0.000700002 0
0.298773 0.710727 0.0014 0
0.298772 0.710726 0.0014 0
0.298772 0.710726 0.0013 0
0.298895 0.7107 0.0013 0
0.298896 0.710699 0.000400002 0
0.298896 0.710698 0.000400002 0
0.298896 0.710697 0.000400002 0
0.298896 0.710696 0.000700002 0
0.298895 0.710695 0.000700002 0
0.298895 0.710694 0.0013 0
0.298894 0.710693 0.0013 0
0.298893 0.710692 0.0014 0
0.298892 0.710691 0.0014 0
0.298892 0.710691 0.001 0
0.298891 0.71069 0.001 0
0.298891 0.710689 0.001 0
0.298891 0.710688 0.0017 0
0.298889 0.710687 0.0017 0
0.298905 0.709686 0.0013 0
0.298887 0.710684 0.0013 0
0.298886 0.710683 0.000400002 0
0.298885 0.710683 0.000400002 0
0.298885 0.710682 0.0019 0
0.298884 0.710682 0.0019 0
0.298883 0.71068 0.0013 0
0.298883 0.710679 0.0013 0
0.298883 0.710678 0.000800002 0
0.298883 0.710677 0.000800002 0
0.298883 0.710674 0.0013 0
0.298883 0.710672 0.0013 0
0.298882 0.710672 0.0018 0
0.298882 0.710672 0.0018 0
0.298758 0.710695 0.0014 0
0.298881 0.710668 0.0014 0
0.298881 0.710667 0.000500002 0
0.298758 0.710691 0.000500002 0
0.298759 0.710689 0.0015 0
0.298759 0.710689 0.0015 0
0.298759 0.71069 0.0013 0
0.29876 0.710689 0.0013 0
0.298813 0.707688 0.0012 0
0.298759 0.710687 0.0012 0
0.29876 0.710686 0.0013 0
0.298778 0.709685 0.0013 0
0.298761 0.710684 0.0013 0
0.298761 0.710683 0.001 0
0.298763 0.710683 0.001 0
0.298763 0.710683 0.0014 0
0.298764 0.710683 0.0014 0
0.298764 0.710682 0.0014 0
0.298764 0.710681 0.0014 0
0.298765 0.71068 0.001 0
0.298765 0.710679 0.001 0
0.298765 0.710677 0.001 0
0.298889 0.71065 0.0015 0
0.298889 0.71065 0.0015 0
0.298889 0.710648 0.0013 0
0.29889 0.710646 0.0013 0
0.29889 0.710645 0.000900002 0
0.298908 0.709645 0.000900002 0
0.298891 0.710643 0.000800002 0
0.298891 0.710643 0.000800002 0
0.29889 0.710642 0.000800002 0
0.29889 0.710641 0.001 0
0.29889 0.71064 0.001 0
0.298889 0.710639 0.001 0
0.298889 0.710638 0.001 0
0.298888 0.710637 0.001 0
0.298888 0.710638 0.001 0
0.298888 0.710637 0.0012 0
0.298887 0.710637 0.0012 0
0.298886 0.710636 0.0012 0
0.298885 0.710635 0.000800002 0
0.298885 0.710634 0.0015 0
0.298885 0.710634 0.0015 0
0.298884 0.710634 0.0015 0
0.29876 0.710659 0.000800002 0
0.298759 0.710659 0.0015 0
0.29876 0.710659 0.0015 0
0.29876 0.710659 0.0015 0
0.29876 0.710657 0.001 0
0.298759 0.710657 0.0013 0
0.298882 0.710631 0.0013 0
0.298882 0.710631 0.0013 0
0.298758 0.710656 0.0011 0
0.298757 0.710655 0.001 0
0.298757 0.710654 0.001 0
0.298757 0.710653 0.0012 0
0.298757 0.710653 0.0012 0
0.298881 0.710626 0.001 0
0.29888 0.710626 0.001 0
0.298879 0.710625 0.0013 0
0.298878 0.710625 0.0013 0
0.298754 0.710649 0.0016 0
0.298876 0.710624 0.0016 0
0.298875 0.710623 0.001 0
0.298874 0.710623 0.001 0
0.298874 0.710622 0.001 0
0.298874 0.710621 0.001 0
0.298873 0.710619 0.001 0
0.298926 0.707619 0.001 0
0.298873 0.710618 0.001 0
0.298874 0.710617 0.0014 0
0.298876 0.710615 0.0014 0
0.298876 0.710614 0.000700002 0
0.298876 0.710613 0.000700002 0
0.298876 0.710612 0.0018 0
0.298876 0.710611 0.0018 0
0.298875 0.71061 0.0012 0
0.298875 0.710609 0.0012 0
0.298875 0.710609 0.000600002 0
0.298875 0.710608 0.000600002 0
0.298874 0.710607 0.000600002 0
0.298875 0.710606 0.0016 0
0.298875 0.710604 0.000800002 0
0.298875 0.710604 0.000800002 0
0.298875 0.710604 0.000800002 0
0.298874 0.710603 0.000900002 0
0.29875 0.710627 0.000900002 0
0.29875 0.710626 0.0013 0
0.29875 0.710624 0.0013 0
0.298749 0.710622 0.0013 0
0.29875 0.710621 0.001 0
0.298749 0.710619 0.0014 0
0.298749 0.710618 0.0014 0
0.298749 0.710617 0.0014 0
0.298749 0.710616 0.0012 0
0.298749 0.710614 0.0012 0
0.298749 0.710612 0.0013 0
0.298749 0.710611 0.0013 0
0.298749 0.71061 0.0012 0
0.298748 0.710609 0.0012 0
0.298748 0.710608 0.000900002 0
0.298748 0.710607 0.000900002 0
0.298748 0.710606 0.000900002 0
0.298802 0.707605 0.0015 0
0.298748 0.710604 0.0015 0
0.298748 0.710603 0.0011 0
0.298748 0.710602 0.0011 0
0.298748 0.710601 0.000900002 0
0.298747 0.7106 0.000900002 0
0.298748 0.710599 0.0011 0
0.298748 0.710597 0.0011 0
0.298748 0.710596 0.0011 0
0.298872 0.710571 0.000800002 0
0.29889 0.709569 0.0016 0
0.298873 0.710568 0.0016 0
0.298873 0.710566 0.0016 0
0.298873 0.710565 0.000800002 0
0.298873 0.710564 0.000800002 0
0.298872 0.710562 0.0012 0
0.298871 0.710561 0.0012 0
0.298747 0.710585 0.0012 0
0.298748 0.710584 0.000900002 0
0.298871 0.710558 0.001 0
0.298872 0.710557 0.001 0
0.298872 0.710556 0.001 0
0.298872 0.710555 0.0013 0
0.298872 0.710555 0.0013 0
0.298926 0.707554 0.0011 0
0.298873 0.710551 0.0011 0
0.298873 0.710549 0.001 0
0.298872 0.710548 0.001 0
0.298872 0.710547 0.0013 0
0.298871 0.710547 0.0013 0
0.298871 0.710546 0.000700002 0
0.298871 0.710545 0.000700002 0
0.298871 0.710543 0.0013 0
0.298871 0.710541 0.0013 0
0.298872 0.710539 0.0013 0
0.298871 0.710538 0.0014 0
0.29887 0.710537 0.001 0
0.29887 0.710536 0.001 0
0.298869 0.710535 0.001 0
0.298868 0.710534 0.0013 0
0.298868 0.710533 0.0013 0
0.298868 0.710533 0.000800002 0
0.298868 0.710532 0.000800002 0
0.298868 0.710531 0.0012 0
0.298868 0.710531 0.0012 0
0.298867 0.71053 0.0012 0
0.298867 0.71053 0.0012 0
0.298866 0.710529 0.0012 0
0.298866 0.710529 0.0012 0
0.298865 0.710528 0.0012 0
0.298864 0.710527 0.001 0
0.298863 0.710526 0.001 0
0.298863 0.710525 0.0011 0
0.298863 0.710525 0.0011 0
0.298863 0.710524 0.0011 0
0.298862 0.710523 0.0011 0
0.298861 0.710522 0.0011 0
0.298861 0.710521 0.001 0
0.29886 0.71052 0.001 0
0.29886 0.710518 0.0013 0
0.29886 0.710517 0.0013 0
0.298859 0.710517 0.0014 0
0.298859 0.710515 0.0014 0
0.298859 0.710514 0.000400002 0
0.298858 0.710513 0.000400002 0
0.298858 0.710512 0.001 0
0.298858 0.71051 0.001 0
0.298857 0.710508 0.0013 0
0.298857 0.710507 0.0013 0
0.298858 0.710506 0.001 0
0.298858 0.710505 0.001 0
0.298788 0.707531 0.0016 0
0.298735 0.71053 0.0016 0
0.298858 0.710504 0.0011 0
0.298859 0.710504 0.0011 0
0.298858 0.710503 0.0012 0
0.298858 0.710502 0.0012 0
0.298858 0.710501 0.0012 0
0.298858 0.7105 0.000900002 0
0.298858 0.710499 0.000900002 0
0.298859 0.710498 0.0011 0
0.298859 0.710497 0.0011 0
0.298858 0.710496 0.0013 0
0.298858 0.710496 0.0013 0
0.298857 0.710493 0.001 0
0.298857 0.710493 0.001 0
0.298857 0.710492 0.0013 0
0.298857 0.710492 0.0013 0
0.298857 0.710491 0.000900002 0
0.298856 0.71049 0.000900002 0
0.298856 0.710489 0.0012 0
0.298855 0.710488 0.001 0
0.298856 0.710488 0.001 0
0.298856 0.710487 0.001 0
0.298856 0.710486 0.0015 0
0.298855 0.710486 0.0015 0
0.298857 0.710485 0.0014 0
0.298857 0.710485 0.0014 0
0.298857 0.710484 0.000900002 0
0.29891 0.707483 0.000900002 0
0.298857 0.710479 0.001 0
0.298857 0.710478 0.001 0
0.298857 0.710476 0.0017 0
0.298857 0.710476 0.0017 0
0.298857 0.710475 0.000900002 0
0.298858 0.710472 0.000900002 0
0.298858 0.710471 0.0013 0
0.298858 0.71047 0.0013 0
0.298858 0.710469 0.000700002 0
0.298858 0.710469 0.000700002 0
0.298858 0.710468 0.000700002 0
0.298858 0.710467 0.0016 0
0.298858 0.710467 0.0016 0
0.298857 0.710464 0.001 0
0.298857 0.710463 0.001 0
0.298857 0.710461 0.0014 0
0.298856 0.71046 0.0014 0
0.298857 0.710458 0.0013 0
0.298856 0.710456 0.0013 0
0.298855 0.710454 0.001 0
0.298854 0.710453 0.001 0
0.298852 0.710452 0.0011 0
0.298852 0.71045 0.0011 0
0.298852 0.710449 0.001 0
0.298851 0.710448 0.001 0
0.298851 0.710447 0.0013 0
0.29885 0.710447 0.0013 0
0.29885 0.710447 0.0013 0
0.29885 0.710447 0.000900002 0
0.29885 0.710446 0.000900002 0
0.29885 0.710444 0.0015 0
0.298849 0.710444 0.0015 0
0.298849 0.710443 0.000900002 0
0.298849 0.710443 0.000900002 0
0.298849 0.710443 0.0014 0
0.298849 0.710442 0.0014 0
0.298849 0.710443 0.0012 0
0.298849 0.710443 0.0012 0
0.298849 0.710442 0.0013 0
0.298849 0.710442 0.0013 0
0.298849 0.710441 0.0013 0
0.29885 0.71044 0.0013 0
0.298851 0.710437 0.0013 0
0.298851 0.710436 0.0013 0
0.298852 0.710435 0.0013 0
0.298851 0.710432 0.0013 0
0.298852 0.71043 0.0014 0
0.298851 0.71043 0.0014 0
0.29885 0.710429 0.0014 0
0.298727 0.710452 0.001 0
0.298726 0.710451 0.001 0
0.298726 0.71045 0.001 0
0.29869 0.712448 0.0014 0
0.298726 0.710447 0.0014 0
0.298726 0.710446 0.0014 0
0.298725 0.710446 0.0014 0
0.298725 0.710446 0.0014 0
0.298724 0.710444 0.0014 0
0.298847 0.710419 0.000800002 0
0.298724 0.710444 0.000800002 0
0.298724 0.710443 0.000800002 0
0.298723 0.710442 0.0013 0
0.298843 0.710414 0.000700002 0
0.29885 0.710413 0.000700002 0
0.298994 0.710388 0.000700002 0
0.299639 0.71026 0.0147 0
0.299864 0.710205 0.0512 0
0.300206 0.710123 0.0512 0
0.300475 0.709042 0.0014 0
0.300506 0.709018 0.0014 0
0.300537 0.708997 0.0367 0
0.300417 0.70902 0.0367 0
0.300271 0.70908 0.0367 0
0.299788 0.709225 0.0068 0
0.299651 0.709263 0.0119 0
0.299651 0.708273 0.0119 0
0.299637 0.708279 0.0119 0
0.299622 0.708293 -0.0019 0
0.29962 0.708298 0.000100002 0
0.299496 0.708326 0.000100002 0
0.299373 0.708351 0.000500002 0
0.299397 0.707352 0.000500002 0
0.299145 0.708401 0.0067 0
0.29905 0.707422 0.0067 0
0.2988 0.707465 0.0132 0
0.298655 0.708484 0.0132 0
0.298667 0.707477 0.0026 0
0.298174 0.707563 0.0026 0
0.29816 0.708551 0.0081 0
0.298043 0.708565 0.0081 0
0.298053 0.70856 0.003 0
0.298072 0.707568 0.003 0
0.298071 0.707578 0.0021 0
0.298073 0.707587 0.0021 0
0.298073 0.707591 0.0066 0
0.298071 0.707595 0.0066 0
0.29807 0.707595 0.0031 0
0.298071 0.707594 0.0031 0
0.298072 0.707593 0.004 0
0.298076 0.707596 0.004 0
0.298077 0.707596 0.007 0
0.298079 0.707596 0.007 0
0.298082 0.707594 0.0046 0
0.298082 0.707592 0.0046 0
0.298064 0.708593 0.0042 0
0.298084 0.707594 0.0042 0
0.298083 0.707595 0.0066 0
0.298082 0.707597 0.0066 0
0.29808 0.707597 0.0066 0
0.298058 0.708597 0.0043 0
0.298074 0.707597 0.0043 0
0.298076 0.7076 0.0016 0
0.298078 0.707603 0.0016 0
0.298077 0.707603 0.0063 0
0.298079 0.707602 0.0063 0
0.298081 0.707601 0.0046 0
0.298083 0.707597 0.0046 0
0.298084 0.707596 0.0046 0
0.298083 0.707592 0.0047 0
0.298083 0.707591 0.0068 0
0.298082 0.707591 0.0068 0
0.298081 0.707589 0.0068 0
0.298081 0.707586 0.000900002 0
0.298081 0.707588 0.0038 0
0.298081 0.707588 0.0038 0
0.298082 0.707589 0.0038 0
0.298082 0.707588 0.0026 0
0.298082 0.707586 0.0021 0
0.298083 0.707583 0.0021 0
0.298084 0.707583 0.0021 0
0.298084 0.707583 0.0065 0
0.298087 0.707583 0.0036 0
0.298088 0.707583 0.0036 0
0.298087 0.707582 0.0036 0
0.298069 0.708582 0.0033 0
0.298089 0.707581 0.0033 0
0.298089 0.707579 0.0047 0
0.29809 0.707578 0.0047 0
0.29809 0.707578 0.0022 0
0.29809 0.707577 0.0022 0
0.29809 0.707577 0.0048 0
0.298091 0.707577 0.0048 0
0.298091 0.707576 0.0051 0
0.29809 0.707575 0.0051 0
0.298091 0.707574 0.0037 0
0.298091 0.707572 0.0037 0
0.298091 0.707571 0.003 0
0.29809 0.70757 0.003 0
0.298088 0.707569 0.0035 0
0.298089 0.707572 0.0035 0
0.29809 0.707574 0.0022 0
0.298089 0.707571 0.0051 0
0.298086 0.707569 0.0051 0
0.298062 0.708564 0.0051 0
0.298081 0.707561 0.0062 0
0.298082 0.70756 0.0062 0
0.298089 0.707562 0.0046 0
0.29807 0.708562 0.0046 0
0.29809 0.707562 0.0026 0
0.29807 0.708558 0.0067 0
0.29809 0.707557 0.0067 0
0.298089 0.707555 0.0067 0
0.298087 0.707554 0.0055 0
0.298066 0.708553 0.0055 0
0.298067 0.708549 0.0019 0
0.298086 0.707549 0.0019 0
0.298086 0.707549 0.0053 0
0.298067 0.708549 0.0053 0
0.298066 0.708547 0.0047 0
0.298124 0.705547 0.0047 0
0.298085 0.707545 0.0041 0
0.298084 0.707545 0.0041 0
0.298063 0.708543 0.002 0
0.298081 0.707543 0.002 0
0.297958 0.707568 0.0013 0
0.298081 0.707541 0.0013 0
0.298063 0.70854 0.0066 0
0.298084 0.707542 0.0066 0
0.298087 0.707542 0.0066 0
0.298094 0.707544 0.005 0
0.298095 0.707543 0.0028 0
0.298096 0.707543 0.0028 0
0.298092 0.707539 0.0042 0
0.298091 0.70754 0.0042 0
0.298091 0.707538 0.0033 0
0.298089 0.707537 0.0033 0
0.298087 0.707535 0.0064 0
0.298069 0.708535 0.0064 0
0.29809 0.707533 0.0023 0
0.298087 0.707534 0.0023 0
0.298086 0.707534 0.0082 0
0.298086 0.707533 0.0082 0
0.298086 0.707532 0.0034 0
0.298084 0.707528 0.0034 0
0.298084 0.707527 0.0049 0
0.298084 0.707528 0.0049 0
0.298084 0.707526 0.0035 0
0.298065 0.708525 0.0035 0
0.298083 0.707525 0.0067 0
0.298082 0.707524 0.0067 0
0.298082 0.707524 0.0061 0
0.29806 0.708522 0.0061 0
0.301296 0.537552 0.0061 0
0.298079 0.70752 0.0074 0
0.298078 0.707518 0.0074 0
0.298079 0.707517 0.0059 0
0.29808 0.707516 0.0059 0
0.29808 0.707514 0.0044 0
0.298083 0.707515 0.0044 0
0.298083 0.707517 0.0027 0
0.298122 0.705517 0.0027 0
0.298085 0.707515 0.0027 0
0.298087 0.707514 0.0034 0
0.298088 0.707515 0.0034 0
0.298088 0.707515 0.0041 0
0.298088 0.707514 0.0041 0
0.298087 0.707514 0.0041 0
0.298086 0.707511 0.002 0
0.298084 0.707509 0.002 0
0.298081 0.707507 0.0053 0
0.29808 0.707506 0.0053 0
0.298081 0.707505 0.0053 0
0.29808 0.707504 0.0077 0
0.298079 0.707502 0.0077 0
0.298079 0.707502 0.003 0
0.298079 0.707502 0.003 0
0.298082 0.707502 0.0054 0
0.29808 0.7075 0.0054 0
0.298072 0.707497 0.0049 0
0.298859 0.665502 0.0049 0
0.298057 0.707494 0.0049 0
0.297997 0.707492 0.0051 0
0.297852 0.708488 0.0051 0
0.297716 0.707485 0.0017 0
0.297505 0.708479 0.0017 0
0.29727 0.707473 0.0017 0
0.296622 0.707483 0.0038 0
0.29632 0.707474 0.0022 0
0.295993 0.707464 0.0022 0
0.295869 0.696459 0.0022 0
0.295317 0.70745 0.0016 0
0.294634 0.705517 0.0016 0
0.294088 0.707534 0.002 0
0.293553 0.707549 0.002 0
0.292567 0.707552 0.0042 0
