ply
format ascii 1.0
element vertex 1605
property float x
property float y
property float z
property float intensity
end_header
-0.0304161 0.717476 -0.0042 0
-0.030417 0.717474 -0.0041 0
-0.0304173 0.717471 -0.0041 0
-0.0304176 0.717469 -0.004 0
-0.0304177 0.717467 -0.004 0
-0.0304184 0.717466 -0.0039 0
-0.030419 0.717465 -0.0039 0
-0.0304196 0.717463 -0.0039 0
-0.0305442 0.717484 -0.004 0
-0.0305455 0.717482 -0.004 0
-0.0305455 0.71748 -0.0042 0
-0.0305457 0.717477 -0.0042 0
-0.0305456 0.717475 -0.0043 0
-0.0305465 0.717473 -0.0043 0
-0.0304226 0.717447 -0.0044 0
-0.0304221 0.717446 -0.0044 0
-0.0304217 0.717445 -0.0041 0
-0.030422 0.717443 -0.0041 0
-0.0304219 0.717442 -0.0035 0
-0.0304212 0.717441 -0.0035 0
-0.0304207 0.71744 -0.0043 0
-0.0304207 0.717439 -0.0043 0
-0.0304209 0.717438 -0.0044 0
-0.0304211 0.717438 -0.0044 0
-0.0305449 0.71746 -0.004 0
-0.0305443 0.717459 -0.0042 0
-0.0305438 0.717458 -0.0042 0
-0.0305439 0.717457 -0.0042 0
-0.0305437 0.717455 -0.0045 0
-0.0304198 0.717431 -0.0042 0
-0.0304201 0.717431 -0.0042 0
-0.0304211 0.71743 -0.0042 0
-0.0304214 0.717429 -0.0044 0
-0.0304216 0.717427 -0.0044 0
-0.030422 0.717426 -0.0044 0
-0.0304222 0.717425 -0.0044 0
-0.0304217 0.717424 -0.0044 0
-0.0304218 0.717423 -0.0042 0
-0.0304216 0.717422 -0.0042 0
-0.0304216 0.71742 -0.0042 0
-0.0304216 0.717419 -0.0041 0
-0.0304213 0.717419 -0.0041 0
-0.0304224 0.717418 -0.0041 0
-0.0304226 0.717418 -0.0044 0
-0.0304228 0.717417 -0.0044 0
-0.030423 0.717416 -0.0044 0
-0.0304226 0.717414 -0.0044 0
-0.0304226 0.717411 -0.0041 0
-0.0304227 0.71741 -0.0041 0
-0.030423 0.71741 -0.0045 0
-0.0304233 0.717409 -0.0045 0
-0.0304239 0.717409 -0.0037 0
-0.0304239 0.717408 -0.0037 0
-0.0304246 0.717407 -0.0037 0
-0.0304252 0.717407 -0.004 0
-0.0304256 0.717406 -0.004 0
-0.0304254 0.717405 -0.0041 0
-0.0304259 0.717404 -0.0041 0
-0.0304262 0.717403 -0.0045 0
-0.0304273 0.717402 -0.0045 0
-0.0304277 0.717401 -0.0045 0
-0.0304287 0.717401 -0.0043 0
-0.0304298 0.7174 -0.0043 0
-0.0304313 0.717399 -0.0043 0
-0.0304319 0.717398 -0.0043 0
-0.0304324 0.717397 -0.0041 0
-0.0304329 0.717396 -0.0041 0
-0.0304339 0.717395 -0.004 0
-0.0304348 0.717394 -0.004 0
-0.0304364 0.717393 -0.0045 0
-0.0304375 0.717392 -0.0045 0
-0.0304383 0.717391 -0.0043 0
-0.0304383 0.71739 -0.0043 0
-0.0304387 0.717389 -0.0043 0
-0.030439 0.717388 -0.0043 0
-0.0304391 0.717387 -0.0042 0
-0.0305651 0.717408 -0.0039 0
-0.0305657 0.717407 -0.0039 0
-0.0305662 0.717405 -0.0039 0
-0.0301723 0.706412 -0.0045 0
-0.0305671 0.717404 -0.0045 0
-0.0305673 0.717403 -0.0045 0
-0.0305681 0.717402 -0.0046 0
-0.0305688 0.717401 -0.0046 0
-0.030569 0.7174 -0.004 0
-0.0305693 0.717399 -0.004 0
-0.030569 0.717398 -0.0045 0
-0.0305689 0.717397 -0.0045 0
-0.030569 0.717397 -0.0049 0
-0.0305692 0.717396 -0.0049 0
-0.0305696 0.717395 -0.0042 0
-0.0305693 0.717392 -0.0042 0
-0.0305683 0.717391 -0.0042 0
-0.0305676 0.717389 -0.0043 0
-0.0305663 0.717389 -0.0043 0
-0.0305648 0.717391 -0.0051 0
-0.0305637 0.71739 -0.0051 0
-0.0305637 0.71739 -0.004 0
-0.0305638 0.71739 -0.004 0
-0.0305636 0.71739 -0.004 0
-0.0305637 0.717389 -0.004 0
-0.0304402 0.717363 -0.0038 0
-0.0304405 0.717363 -0.0038 0
-0.0304409 0.717362 -0.0047 0
-0.0304405 0.71736 -0.0047 0
-0.0304403 0.71736 -0.0047 0
-0.0304403 0.717359 -0.0044 0
-0.0304404 0.717358 -0.0044 0
-0.0305644 0.717381 -0.0039 0
-0.0305652 0.71738 -0.0039 0
-0.0305656 0.71738 -0.0043 0
-0.030566 0.71738 -0.0043 0
-0.0305657 0.71738 -0.0043 0
-0.0305647 0.717379 -0.0041 0
-0.0305642 0.717378 -0.0041 0
-0.030564 0.717377 -0.0047 0
-0.0304401 0.717352 -0.0042 0
-0.03044 0.717351 -0.0042 0
-0.030564 0.717372 -0.0042 0
-0.0305634 0.717371 -0.004 0
-0.0305633 0.717371 -0.004 0
-0.0305628 0.717369 -0.0046 0
-0.0305628 0.717367 -0.0046 0
-0.0305623 0.717365 -0.0042 0
-0.0305612 0.717364 -0.0042 0
-0.0305605 0.717362 -0.0042 0
-0.0305603 0.717361 -0.0042 0
-0.0304367 0.717337 -0.0042 0
-0.0305602 0.71736 -0.0048 0
-0.030472 0.718336 -0.0048 0
-0.0305603 0.717359 -0.0048 0
-0.0304359 0.717335 -0.0047 0
-0.0304356 0.717334 -0.0047 0
-0.0304355 0.717332 -0.0045 0
-0.0304353 0.717331 -0.0041 0
-0.0303641 0.715332 -0.0041 0
-0.0304358 0.71733 -0.0041 0
-0.0304354 0.717329 -0.0041 0
-0.030436 0.717328 -0.0041 0
-0.0305598 0.71735 -0.0041 0
-0.0304358 0.717327 -0.0043 0
-0.0304358 0.717326 -0.0044 0
-0.0305595 0.717348 -0.0044 0
-0.0305595 0.717347 -0.0044 0
-0.0305596 0.717345 -0.004 0
-0.0305597 0.717342 -0.0046 0
-0.0304355 0.717317 -0.0046 0
-0.0304353 0.717316 -0.0038 0
-0.0304346 0.717315 -0.0038 0
-0.0304337 0.717314 -0.0038 0
-0.0304336 0.717313 -0.005 0
-0.0304336 0.717312 -0.005 0
-0.0304338 0.717311 -0.0044 0
-0.0304342 0.717307 -0.0044 0
-0.0304345 0.717306 -0.0042 0
-0.0304348 0.717306 -0.0042 0
-0.0304352 0.717306 -0.0046 0
-0.0304357 0.717305 -0.0046 0
-0.0305605 0.717327 -0.0046 0
-0.030561 0.717327 -0.0041 0
-0.0305623 0.717325 -0.0042 0
-0.0305628 0.717323 -0.0042 0
-0.0305629 0.717323 -0.0042 0
-0.0305633 0.717322 -0.0046 0
-0.0305628 0.717322 -0.0046 0
-0.0305623 0.717322 -0.0046 0
-0.030562 0.717321 -0.0042 0
-0.0305621 0.717321 -0.0044 0
-0.0305625 0.71732 -0.0044 0
-0.0305619 0.717318 -0.0044 0
-0.0305614 0.717317 -0.004 0
-0.0305621 0.717316 -0.004 0
-0.0305622 0.717314 -0.0044 0
-0.0305627 0.717313 -0.0045 0
-0.0305628 0.717311 -0.0045 0
-0.0305634 0.71731 -0.0043 0
-0.0305627 0.717309 -0.0043 0
-0.0305632 0.717307 -0.0042 0
-0.0305632 0.717304 -0.0042 0
-0.0305629 0.717303 -0.0039 0
-0.0305625 0.717302 -0.0039 0
-0.0305623 0.717302 -0.0043 0
-0.0305627 0.7173 -0.0043 0
-0.0305625 0.717298 -0.0043 0
-0.0305625 0.717297 -0.0043 0
-0.0305622 0.717296 -0.0039 0
-0.030562 0.717295 -0.0039 0
-0.0305619 0.717294 -0.004 0
-0.030562 0.717294 -0.004 0
-0.0305618 0.717292 -0.0043 0
-0.0305622 0.717292 -0.0043 0
-0.030562 0.717291 -0.004 0
-0.030562 0.717291 -0.004 0
-0.0305623 0.717291 -0.0045 0
-0.0305626 0.717291 -0.0045 0
-0.0305629 0.71729 -0.0039 0
-0.0305632 0.717289 -0.0039 0
-0.0305636 0.717289 -0.0039 0
-0.0305634 0.717289 -0.0039 0
-0.030563 0.717289 -0.0044 0
-0.0305625 0.717288 -0.0044 0
-0.0305623 0.717287 -0.0044 0
-0.0305625 0.717286 -0.0043 0
-0.0305622 0.717285 -0.0043 0
-0.0305618 0.717284 -0.0039 0
-0.0305618 0.717281 -0.0039 0
-0.0305614 0.717279 -0.0041 0
-0.030561 0.717279 -0.0041 0
-0.0305608 0.717278 -0.0041 0
-0.0305604 0.717276 -0.004 0
-0.0305605 0.717276 -0.004 0
-0.0305605 0.717275 -0.004 0
-0.0305603 0.717274 -0.0044 0
-0.0304522 0.714274 -0.0044 0
-0.030559 0.717271 -0.0044 0
-0.0305588 0.717271 -0.0044 0
-0.0305585 0.71727 -0.0043 0
-0.0305586 0.717269 -0.0043 0
-0.0305583 0.717268 -0.0043 0
-0.0305581 0.717268 -0.0046 0
-0.0305581 0.717266 -0.0046 0
-0.0305579 0.717266 -0.004 0
-0.0305574 0.717264 -0.0046 0
-0.0305572 0.717263 -0.0046 0
-0.0305571 0.717263 -0.0046 0
-0.0305572 0.717263 -0.0047 0
-0.0305577 0.717263 -0.0047 0
-0.0305577 0.717262 -0.0047 0
-0.0305581 0.717261 -0.0043 0
-0.0305581 0.71726 -0.0043 0
-0.0305586 0.717258 -0.0041 0
-0.0305586 0.717257 -0.0041 0
-0.0305587 0.717257 -0.0044 0
-0.0305585 0.717257 -0.0044 0
-0.0305589 0.717255 -0.004 0
-0.030559 0.717255 -0.004 0
-0.0305596 0.717255 -0.0047 0
-0.0305597 0.717254 -0.0047 0
-0.0305596 0.717254 -0.0047 0
-0.0305589 0.717253 -0.0041 0
-0.0305587 0.717252 -0.0041 0
-0.0305588 0.717252 -0.0043 0
-0.0305589 0.717252 -0.0043 0
-0.0305594 0.717251 -0.0043 0
-0.0305594 0.71725 -0.0044 0
-0.0305589 0.71725 -0.0044 0
-0.0305581 0.717249 -0.0042 0
-0.0305573 0.717248 -0.0042 0
-0.030557 0.717248 -0.0042 0
-0.0305565 0.717247 -0.0038 0
-0.030556 0.717246 -0.0042 0
-0.0305555 0.717246 -0.0042 0
-0.0305552 0.717245 -0.0042 0
-0.0304469 0.714246 -0.0041 0
-0.0305538 0.717244 -0.0041 0
-0.0305537 0.717243 -0.0041 0
-0.0305528 0.717242 -0.0041 0
-0.0305525 0.717242 -0.0041 0
-0.0305526 0.717241 -0.0042 0
-0.0305523 0.71724 -0.0042 0
-0.030552 0.717238 -0.0039 0
-0.0305518 0.717237 -0.0039 0
-0.0305519 0.717236 -0.0037 0
-0.030552 0.717236 -0.0037 0
-0.0305522 0.717236 -0.004 0
-0.0305522 0.717236 -0.004 0
-0.0305522 0.717236 -0.004 0
-0.0305516 0.717233 -0.0043 0
-0.0305517 0.717232 -0.004 0
-0.0305512 0.71723 -0.004 0
-0.0305513 0.717229 -0.004 0
-0.0305148 0.716229 -0.0043 0
-0.0305504 0.717227 -0.0043 0
-0.0305495 0.717227 -0.0041 0
-0.0305491 0.717227 -0.0041 0
-0.030549 0.717226 -0.0043 0
-0.0305485 0.717226 -0.0043 0
-0.0305485 0.717225 -0.0042 0
-0.0305488 0.717225 -0.0042 0
-0.0305492 0.717224 -0.0042 0
-0.0305497 0.717223 -0.004 0
-0.030551 0.717222 -0.0047 0
-0.0305518 0.717221 -0.0047 0
-0.0305523 0.71722 -0.0047 0
-0.0305525 0.717219 -0.0041 0
-0.0305523 0.717218 -0.0041 0
-0.0305524 0.717218 -0.0046 0
-0.0304451 0.71422 -0.0046 0
-0.0305521 0.717218 -0.0046 0
-0.0305516 0.717216 -0.0043 0
-0.0305515 0.717215 -0.0043 0
-0.0305517 0.717213 -0.0043 0
-0.0305526 0.717211 -0.0044 0
-0.030553 0.71721 -0.0041 0
-0.030554 0.717208 -0.0041 0
-0.030555 0.717207 -0.0045 0
-0.030556 0.717206 -0.0045 0
-0.0305563 0.717205 -0.0042 0
-0.0305568 0.717204 -0.0042 0
-0.0305575 0.717202 -0.0043 0
-0.0305579 0.717202 -0.0043 0
-0.0305581 0.7172 -0.0046 0
-0.0305588 0.7172 -0.0046 0
-0.0305595 0.717199 -0.0042 0
-0.03056 0.717198 -0.0042 0
-0.0305614 0.717197 -0.0042 0
-0.0304902 0.715197 -0.0048 0
-0.0305624 0.717196 -0.0048 0
-0.0304903 0.715196 -0.0045 0
-0.0305617 0.717194 -0.0045 0
-0.0305616 0.717193 -0.0042 0
-0.0305612 0.717191 -0.0042 0
-0.0305614 0.717189 -0.0047 0
-0.0305616 0.717188 -0.0047 0
-0.030562 0.717187 -0.0047 0
-0.0304389 0.717162 -0.0038 0
-0.0304388 0.717162 -0.0042 0
-0.0304389 0.717161 -0.0042 0
-0.0304391 0.717162 -0.0042 0
-0.0305628 0.717184 -0.0043 0
-0.030563 0.717182 -0.0042 0
-0.0304392 0.717159 -0.0042 0
-0.0304387 0.717157 -0.0042 0
-0.0305606 0.717177 -0.0041 0
-0.0305592 0.717176 -0.0042 0
-0.0305587 0.717176 -0.0042 0
-0.0320277 0.758149 -0.0042 0
-0.0305575 0.717176 -0.0044 0
-0.0305213 0.716176 -0.0044 0
-0.0305581 0.717175 -0.0044 0
-0.0305586 0.717175 -0.0044 0
-0.0304352 0.717151 -0.0041 0
-0.0304356 0.717151 -0.0041 0
-0.0304365 0.717149 -0.0043 0
-0.0304363 0.717148 -0.0043 0
-0.0304359 0.717147 -0.0041 0
-0.0304353 0.717147 -0.0041 0
-0.0304345 0.717147 -0.0044 0
-0.0304343 0.717146 -0.0044 0
-0.0304347 0.717144 -0.0039 0
-0.0304351 0.717144 -0.0039 0
-0.0304352 0.717143 -0.0039 0
-0.0304355 0.71714 -0.0044 0
-0.0304356 0.717139 -0.0043 0
-0.0304365 0.717138 -0.0043 0
-0.0304365 0.717137 -0.0043 0
-0.0304374 0.717136 -0.0039 0
-0.0304375 0.717135 -0.0039 0
-0.0304374 0.717134 -0.0045 0
-0.0304375 0.717133 -0.0044 0
-0.0304367 0.717133 -0.0044 0
-0.0304359 0.717132 -0.0044 0
-0.0304358 0.717132 -0.0045 0
-0.0304352 0.71713 -0.0045 0
-0.0304356 0.717129 -0.0041 0
-0.0304353 0.717129 -0.0041 0
-0.0304353 0.717128 -0.0041 0
-0.0304354 0.717127 -0.004 0
-0.0304356 0.717126 -0.004 0
-0.0304359 0.717125 -0.0042 0
-0.0304361 0.717124 -0.0042 0
-0.030437 0.717123 -0.0041 0
-0.0304369 0.717122 -0.0041 0
-0.0304368 0.717121 -0.0039 0
-0.0304361 0.717121 -0.0039 0
-0.030436 0.717121 -0.0039 0
-0.0304363 0.717121 -0.0045 0
-0.0304361 0.71712 -0.0045 0
-0.0304361 0.717118 -0.0042 0
-0.0304362 0.717116 -0.0042 0
-0.0304364 0.717115 -0.0047 0
-0.0304364 0.717114 -0.0047 0
-0.0305602 0.717135 -0.0047 0
-0.0305606 0.717132 -0.0043 0
-0.0304885 0.715132 -0.0043 0
-0.03056 0.717129 -0.0043 0
-0.0305598 0.717127 -0.0045 0
-0.0305605 0.717125 -0.0045 0
-0.0305606 0.717125 -0.0045 0
-0.030561 0.717123 -0.0042 0
-0.0305611 0.717122 -0.0042 0
-0.0305614 0.717121 -0.0044 0
-0.0304379 0.717096 -0.0044 0
-0.0305617 0.717117 -0.0044 0
-0.0304902 0.715118 -0.0044 0
-0.0304383 0.717092 -0.0041 0
-0.0305623 0.717114 -0.0041 0
-0.0305626 0.717112 -0.0041 0
-0.0305631 0.717111 -0.0039 0
-0.0305631 0.71711 -0.0039 0
-0.0305635 0.717108 -0.0044 0
-0.0305631 0.717108 -0.0044 0
-0.0305638 0.717107 -0.004 0
-0.0305642 0.717106 -0.004 0
-0.0304409 0.717082 -0.004 0
-0.0304932 0.715105 -0.004 0
-0.0305645 0.717102 -0.004 0
-0.0305643 0.717102 -0.0044 0
-0.0304404 0.717075 -0.0044 0
-0.0304402 0.717074 -0.0042 0
-0.0304391 0.717073 -0.0042 0
-0.030439 0.717071 -0.0043 0
-0.0304387 0.71707 -0.0043 0
-0.0304388 0.717069 -0.0043 0
-0.0304384 0.717067 -0.0038 0
-0.030438 0.717066 -0.0038 0
-0.0304378 0.717066 -0.0043 0
-0.0304374 0.717065 -0.0043 0
-0.0304375 0.717065 -0.0046 0
-0.0304377 0.717064 -0.0046 0
-0.030438 0.717063 -0.0039 0
-0.0304387 0.717063 -0.0039 0
-0.0304394 0.717063 -0.0047 0
-0.0304399 0.717063 -0.0047 0
-0.0304405 0.717064 -0.0043 0
-0.0304412 0.717064 -0.0043 0
-0.030442 0.717064 -0.0047 0
-0.0304424 0.717063 -0.0047 0
-0.0304429 0.717063 -0.0041 0
-0.0304427 0.717061 -0.0045 0
-0.0304428 0.717059 -0.0045 0
-0.0304424 0.717058 -0.0045 0
-0.0304426 0.717056 -0.0045 0
-0.0304431 0.717053 -0.0045 0
-0.030443 0.717051 -0.0038 0
-0.0304427 0.71705 -0.0038 0
-0.0304424 0.717048 -0.0042 0
-0.030443 0.717046 -0.0043 0
-0.0304434 0.717045 -0.0043 0
-0.0304431 0.717043 -0.0043 0
-0.0304423 0.717042 -0.0044 0
-0.0304429 0.71704 -0.004 0
-0.0304434 0.717038 -0.004 0
-0.030444 0.717038 -0.004 0
-0.0304456 0.717035 -0.0045 0
-0.0304457 0.717035 -0.0045 0
-0.0304459 0.717034 -0.0045 0
-0.0304461 0.717032 -0.0045 0
-0.0304465 0.71703 -0.0039 0
-0.0304473 0.717029 -0.0039 0
-0.0304481 0.717028 -0.0045 0
-0.0304482 0.717027 -0.0045 0
-0.030448 0.717025 -0.0039 0
-0.0304481 0.717023 -0.0044 0
-0.0304482 0.717021 -0.0044 0
-0.0304479 0.717019 -0.0044 0
-0.0304489 0.717017 -0.0043 0
-0.0304493 0.717016 -0.0043 0
-0.0304501 0.717015 -0.0043 0
-0.0304507 0.717014 -0.0043 0
-0.0304512 0.717013 -0.0045 0
-0.0304517 0.717012 -0.0045 0
-0.0304524 0.717011 -0.0045 0
-0.0304524 0.71701 -0.0048 0
-0.0304525 0.71701 -0.0048 0
-0.0304527 0.717009 -0.0043 0
-0.0304533 0.717008 -0.0043 0
-0.030454 0.717008 -0.0042 0
-0.0304546 0.717007 -0.0042 0
-0.0304551 0.717005 -0.0047 0
-0.0304557 0.717003 -0.0047 0
-0.0304557 0.717001 -0.0044 0
-0.0304561 0.716998 -0.0044 0
-0.0304556 0.716997 -0.0047 0
-0.030455 0.716996 -0.0047 0
-0.030455 0.716996 -0.0042 0
-0.0304547 0.716995 -0.0042 0
-0.0304541 0.716995 -0.0042 0
-0.0304532 0.716993 -0.0042 0
-0.0304531 0.716993 -0.0041 0
-0.0304532 0.716992 -0.0041 0
-0.0304534 0.71699 -0.0041 0
-0.0304535 0.716989 -0.0044 0
-0.0304532 0.716987 -0.0044 0
-0.0304539 0.716985 -0.0048 0
-0.030454 0.716984 -0.0048 0
-0.0304535 0.716984 -0.0042 0
-0.0304529 0.716983 -0.0042 0
-0.0304523 0.716983 -0.0043 0
-0.0304517 0.716982 -0.0043 0
-0.0304515 0.716981 -0.0043 0
-0.0304515 0.716981 -0.0042 0
-0.0304516 0.716981 -0.0042 0
-0.0304517 0.71698 -0.0042 0
-0.0304519 0.716979 -0.0035 0
-0.030452 0.716977 -0.0039 0
-0.0304516 0.716976 -0.0039 0
-0.0304509 0.716974 -0.004 0
-0.0304508 0.716973 -0.004 0
-0.0304502 0.716972 -0.004 0
-0.0304495 0.716971 -0.0042 0
-0.0304491 0.716969 -0.0042 0
-0.030448 0.716968 -0.0041 0
-0.0304475 0.716968 -0.0041 0
-0.0304472 0.716967 -0.0041 0
-0.0304474 0.716967 -0.0046 0
-0.030447 0.716966 -0.0046 0
-0.0304469 0.716964 -0.0044 0
-0.0304477 0.71696 -0.0044 0
-0.030448 0.716959 -0.0044 0
-0.0304484 0.716959 -0.0044 0
-0.0304486 0.716958 -0.0043 0
-0.0304492 0.716956 -0.0043 0
-0.0304505 0.716956 -0.0043 0
-0.0304505 0.716955 -0.0044 0
-0.0304502 0.716954 -0.0044 0
-0.0304497 0.716953 -0.0044 0
-0.03045 0.71695 -0.0039 0
-0.0304501 0.716949 -0.0043 0
-0.0304501 0.716949 -0.0043 0
-0.0304503 0.716947 -0.0044 0
-0.0304507 0.716946 -0.0044 0
-0.0304512 0.716945 -0.0044 0
-0.0304518 0.716942 -0.0047 0
-0.0304534 0.716939 -0.0047 0
-0.0304543 0.716937 -0.0042 0
-0.0304551 0.716936 -0.0042 0
-0.0304559 0.716935 -0.0042 0
-0.0304567 0.716934 -0.0042 0
-0.0304575 0.716933 -0.0042 0
-0.0304589 0.716931 -0.0042 0
-0.0304594 0.716929 -0.0044 0
-0.0304606 0.716928 -0.0044 0
-0.0304616 0.716926 -0.0044 0
-0.0304625 0.716925 -0.0044 0
-0.0304633 0.716923 -0.0044 0
-0.0304638 0.716922 -0.0037 0
-0.0304643 0.716922 -0.0037 0
-0.0304645 0.716922 -0.0041 0
-0.0304646 0.716921 -0.0041 0
-0.0304289 0.71592 -0.0041 0
-0.0304653 0.716917 -0.0043 0
-0.0304648 0.716917 -0.0043 0
-0.030465 0.716916 -0.0043 0
-0.0304653 0.716915 -0.0043 0
-0.0304657 0.716913 -0.0045 0
-0.0304655 0.716912 -0.0045 0
-0.0304658 0.716911 -0.0043 0
-0.0304667 0.716909 -0.0043 0
-0.0304672 0.716907 -0.0043 0
-0.0304671 0.716907 -0.0043 0
-0.0304673 0.716906 -0.0037 0
-0.0304677 0.716906 -0.0037 0
-0.0304682 0.716905 -0.0037 0
-0.0303974 0.714905 -0.0043 0
-0.0304696 0.716903 -0.0043 0
-0.0304695 0.716902 -0.0042 0
-0.0304694 0.716901 -0.0042 0
-0.03047 0.7169 -0.0042 0
-0.0304697 0.716898 -0.0044 0
-0.0304694 0.716898 -0.0044 0
-0.0304695 0.716897 -0.0038 0
-0.0304698 0.716895 -0.0038 0
-0.0304695 0.716894 -0.004 0
-0.0304695 0.716894 -0.004 0
-0.0304698 0.716893 -0.0039 0
-0.0304701 0.716893 -0.0039 0
-0.0304705 0.716892 -0.0039 0
-0.0304709 0.716892 -0.0044 0
-0.0304708 0.716891 -0.0044 0
-0.0304349 0.71589 -0.004 0
-0.0304351 0.71589 -0.004 0
-0.0304706 0.716888 -0.004 0
-0.0304711 0.716887 -0.0041 0
-0.0300437 0.704894 -0.0045 0
-0.0304728 0.716886 -0.0045 0
-0.0304734 0.716885 -0.0045 0
-0.0304735 0.716884 -0.004 0
-0.0304736 0.716883 -0.004 0
-0.0304737 0.716882 -0.0044 0
-0.0304742 0.716881 -0.0044 0
-0.030475 0.716881 -0.0042 0
-0.0305995 0.716903 -0.0042 0
-0.0305997 0.716903 -0.0038 0
-0.0305999 0.716902 -0.0038 0
-0.0306001 0.716902 -0.0044 0
-0.0305998 0.716901 -0.0044 0
-0.0306001 0.716901 -0.0044 0
-0.0305997 0.716901 -0.0038 0
-0.0305994 0.716899 -0.0038 0
-0.0305992 0.716899 -0.0039 0
-0.0305998 0.716899 -0.0039 0
-0.0306002 0.716898 -0.0041 0
-0.0305999 0.716897 -0.0041 0
-0.0304758 0.716873 -0.0041 0
-0.0304755 0.716872 -0.0044 0
-0.0304763 0.716871 -0.0044 0
-0.0304772 0.71687 -0.0046 0
-0.030602 0.716891 -0.0046 0
-0.030602 0.716889 -0.0043 0
-0.030478 0.716865 -0.0043 0
-0.0304779 0.716864 -0.0044 0
-0.0303708 0.713864 -0.0044 0
-0.0304786 0.716862 -0.0044 0
-0.0304799 0.716861 -0.0044 0
-0.030481 0.71686 -0.005 0
-0.0304818 0.716859 -0.005 0
-0.0304819 0.716858 -0.0048 0
-0.0304825 0.716856 -0.0038 0
-0.0304824 0.716855 -0.0038 0
-0.0304823 0.716854 -0.0038 0
-0.0304821 0.716853 -0.0044 0
-0.0304816 0.716852 -0.0046 0
-0.0304809 0.716851 -0.0046 0
-0.0304806 0.71685 -0.0046 0
-0.0304805 0.716849 -0.0044 0
-0.0304804 0.716847 -0.0043 0
-0.0304806 0.716846 -0.0043 0
-0.0304796 0.716845 -0.0046 0
-0.0304791 0.716844 -0.0046 0
-0.0304785 0.716843 -0.004 0
-0.0304773 0.716842 -0.004 0
-0.0304766 0.716842 -0.004 0
-0.030476 0.716839 -0.0047 0
-0.0304754 0.716838 -0.0042 0
-0.0304752 0.716838 -0.0042 0
-0.0304754 0.716837 -0.0042 0
-0.0305988 0.716859 -0.004 0
-0.0305993 0.716857 -0.0041 0
-0.0305992 0.716856 -0.0041 0
-0.0305983 0.716855 -0.0044 0
-0.030598 0.716856 -0.0044 0
-0.0305979 0.716855 -0.004 0
-0.0305977 0.716856 -0.004 0
-0.0305974 0.716856 -0.0043 0
-0.0305973 0.716856 -0.0042 0
-0.0305969 0.716855 -0.0042 0
-0.030597 0.716855 -0.0042 0
-0.030597 0.716852 -0.0042 0
-0.0305976 0.71685 -0.0042 0
-0.0305975 0.716849 -0.0042 0
-0.0291636 0.676875 -0.0042 0
-0.030597 0.716849 -0.0041 0
-0.0305968 0.716848 -0.0041 0
-0.0305965 0.716847 -0.0045 0
-0.0305964 0.716846 -0.0045 0
-0.0305964 0.716844 -0.0045 0
-0.0305965 0.716843 -0.0042 0
-0.0305964 0.716843 -0.0042 0
-0.0305968 0.716842 -0.0046 0
-0.0305963 0.716841 -0.0046 0
-0.0305964 0.71684 -0.0041 0
-0.0305965 0.716838 -0.0041 0
-0.0305967 0.716838 -0.0043 0
-0.0305988 0.716836 -0.0043 0
-0.0305995 0.716834 -0.0043 0
-0.0306 0.716833 -0.0043 0
-0.0306011 0.716831 -0.0042 0
-0.0306017 0.716829 -0.0042 0
-0.0306019 0.716828 -0.0042 0
-0.0306015 0.716827 -0.0042 0
-0.0306015 0.716826 -0.0042 0
-0.0306008 0.716824 -0.0043 0
-0.0306006 0.716823 -0.0043 0
-0.0305995 0.716821 -0.0043 0
-0.0305985 0.71682 -0.0043 0
-0.030598 0.716819 -0.0044 0
-0.0305976 0.716817 -0.0044 0
-0.0305983 0.716816 -0.0044 0
-0.0305989 0.716815 -0.0037 0
-0.0305991 0.716814 -0.0037 0
-0.0305993 0.716813 -0.0045 0
-0.0305992 0.716813 -0.0045 0
-0.0305993 0.716812 -0.0045 0
-0.0305997 0.716812 -0.004 0
-0.0305997 0.716811 -0.004 0
-0.0305991 0.71681 -0.0041 0
-0.0305972 0.716806 -0.0041 0
-0.0305964 0.716804 -0.0041 0
-0.0305962 0.716802 -0.0041 0
-0.0305953 0.7168 -0.0045 0
-0.0305945 0.716799 -0.0045 0
-0.0305945 0.716797 -0.0045 0
-0.0305945 0.716795 -0.0043 0
-0.0305947 0.716794 -0.0038 0
-0.0305943 0.716793 -0.0038 0
-0.0305937 0.716792 -0.0042 0
-0.0305933 0.716791 -0.0042 0
-0.0305929 0.71679 -0.0042 0
-0.0305924 0.716789 -0.0042 0
-0.030592 0.716789 -0.0041 0
-0.0304839 0.71379 -0.0041 0
-0.0305914 0.716788 -0.0046 0
-0.0305919 0.716786 -0.0046 0
-0.0305922 0.716785 -0.0041 0
-0.0305921 0.716784 -0.0041 0
-0.0305206 0.714785 -0.0045 0
-0.0305928 0.716782 -0.0045 0
-0.0305926 0.716781 -0.0044 0
-0.0305922 0.71678 -0.0044 0
-0.0305921 0.71678 -0.0036 0
-0.0305918 0.716778 -0.0036 0
-0.0305923 0.716777 -0.0042 0
-0.0305925 0.716776 -0.0042 0
-0.0304691 0.716751 -0.0043 0
-0.0304702 0.716748 -0.0043 0
-0.030471 0.716747 -0.0045 0
-0.0304709 0.716746 -0.0045 0
-0.030471 0.716745 -0.0045 0
-0.0305951 0.716766 -0.0045 0
-0.0305959 0.716763 -0.0041 0
-0.0305968 0.716762 -0.0041 0
-0.0305976 0.716761 -0.0044 0
-0.0305987 0.716758 -0.0044 0
-0.0304908 0.713759 -0.0043 0
-0.0305985 0.716756 -0.0043 0
-0.0305978 0.716755 -0.0042 0
-0.0305977 0.716755 -0.0042 0
-0.0305969 0.716755 -0.0042 0
-0.0301662 0.704762 -0.0043 0
-0.0305963 0.716754 -0.0043 0
-0.0304725 0.71673 -0.0044 0
-0.0304727 0.716729 -0.0044 0
-0.0305967 0.716751 -0.0044 0
-0.0305969 0.71675 -0.0041 0
-0.0305968 0.716749 -0.0041 0
-0.0305969 0.716748 -0.0041 0
-0.0305974 0.716747 -0.0041 0
-0.0305974 0.716746 -0.0044 0
-0.0305978 0.716745 -0.0044 0
-0.0305986 0.716743 -0.0039 0
-0.030599 0.716743 -0.0039 0
-0.0305992 0.716742 -0.004 0
-0.0305999 0.716741 -0.004 0
-0.0306008 0.71674 -0.0042 0
-0.0306007 0.716739 -0.0042 0
-0.0306007 0.716737 -0.0037 0
-0.0306009 0.716737 -0.0037 0
-0.0304774 0.716711 -0.0043 0
-0.0304778 0.716709 -0.0043 0
-0.0304771 0.716708 -0.0043 0
-0.0304767 0.716707 -0.0043 0
-0.0306002 0.716728 -0.0039 0
-0.0304759 0.716704 -0.0039 0
-0.0304757 0.716703 -0.0044 0
-0.0304759 0.716702 -0.0044 0
-0.0304755 0.7167 -0.0044 0
-0.0305994 0.716722 -0.0044 0
-0.0305995 0.716721 -0.0041 0
-0.0305994 0.716718 -0.0044 0
-0.0305998 0.716716 -0.0044 0
-0.0305995 0.716715 -0.0044 0
-0.0305997 0.716714 -0.0039 0
-0.0305991 0.716712 -0.0042 0
-0.0305989 0.716711 -0.0042 0
-0.0305989 0.71671 -0.0042 0
-0.0305994 0.716709 -0.0045 0
-0.0305998 0.716708 -0.0042 0
-0.0305994 0.716708 -0.0042 0
-0.0305973 0.716707 -0.0042 0
-0.0304739 0.716683 -0.0042 0
-0.0304743 0.71668 -0.0043 0
-0.030474 0.716679 -0.0043 0
-0.0304739 0.716677 -0.0046 0
-0.0304742 0.716676 -0.004 0
-0.0304744 0.716675 -0.004 0
-0.0304749 0.716674 -0.004 0
-0.0304743 0.716673 -0.0045 0
-0.0304738 0.716672 -0.0045 0
-0.0304738 0.716671 -0.0042 0
-0.0304724 0.716668 -0.0042 0
-0.0304726 0.716666 -0.0047 0
-0.0304729 0.716665 -0.0047 0
-0.0304732 0.716663 -0.0043 0
-0.0305973 0.716683 -0.0043 0
-0.0305976 0.716683 -0.0043 0
-0.0305977 0.71668 -0.0041 0
-0.0305979 0.716679 -0.004 0
-0.0305982 0.716679 -0.004 0
-0.0305985 0.716678 -0.004 0
-0.0305991 0.716675 -0.0041 0
-0.0305994 0.716673 -0.0048 0
-0.0305997 0.716672 -0.0048 0
-0.0306001 0.716671 -0.0048 0
-0.0306005 0.716671 -0.0046 0
-0.0306013 0.716669 -0.0044 0
-0.0306009 0.716669 -0.0044 0
-0.030601 0.716669 -0.0044 0
-0.0306005 0.716668 -0.0039 0
-0.0305992 0.716666 -0.0038 0
-0.0305989 0.716666 -0.0038 0
-0.0305985 0.716666 -0.0038 0
-0.0305987 0.716665 -0.004 0
-0.0305987 0.716664 -0.0043 0
-0.0305987 0.716664 -0.0043 0
-0.0305986 0.716664 -0.0043 0
-0.0306002 0.716662 -0.0048 0
-0.030601 0.716661 -0.0043 0
-0.0306017 0.71666 -0.0043 0
-0.0304802 0.716636 -0.0041 0
-0.0304809 0.716635 -0.0041 0
-0.0304806 0.716634 -0.0039 0
-0.0304807 0.716633 -0.0039 0
-0.0304814 0.716632 -0.0044 0
-0.0304818 0.716631 -0.0044 0
-0.0304825 0.71663 -0.0038 0
-0.0304824 0.71663 -0.0038 0
-0.0304821 0.716628 -0.0045 0
-0.0304105 0.714628 -0.0045 0
-0.030482 0.716625 -0.0045 0
-0.0304817 0.716624 -0.0045 0
-0.0304814 0.716621 -0.0037 0
-0.0304809 0.716621 -0.0037 0
-0.0304808 0.716621 -0.0039 0
-0.0304807 0.71662 -0.0039 0
-0.0306051 0.716641 -0.0045 0
-0.0306046 0.71664 -0.0045 0
-0.0306047 0.716639 -0.0047 0
-0.0306045 0.716639 -0.0047 0
-0.0306046 0.716639 -0.0047 0
-0.0306044 0.716638 -0.0043 0
-0.0306044 0.716638 -0.0043 0
-0.0306045 0.716637 -0.0046 0
-0.0306044 0.716636 -0.0046 0
-0.0306044 0.716635 -0.0048 0
-0.030604 0.716634 -0.0048 0
-0.030604 0.716633 -0.0043 0
-0.0306035 0.716632 -0.0043 0
-0.0304792 0.716607 -0.0043 0
-0.0306021 0.716627 -0.0042 0
-0.0306021 0.716626 -0.0047 0
-0.0306025 0.716626 -0.0047 0
-0.0306022 0.716626 -0.0047 0
-0.0306018 0.716625 -0.0043 0
-0.0306017 0.716624 -0.0043 0
-0.0306017 0.716623 -0.0046 0
-0.0306021 0.716622 -0.0046 0
-0.030602 0.716621 -0.0046 0
-0.0304789 0.716596 -0.0045 0
-0.0304789 0.716596 -0.0042 0
-0.030479 0.716595 -0.0042 0
-0.0304794 0.716594 -0.0042 0
-0.0304799 0.716592 -0.0045 0
-0.0304811 0.716589 -0.004 0
-0.0304819 0.716588 -0.004 0
-0.0304818 0.716588 -0.004 0
-0.0304808 0.716587 -0.0041 0
-0.0304808 0.716586 -0.0041 0
-0.030481 0.716585 -0.0045 0
-0.0304812 0.716584 -0.0045 0
-0.0304814 0.716583 -0.0045 0
-0.0304814 0.716582 -0.0043 0
-0.0304815 0.716581 -0.0043 0
-0.0304816 0.71658 -0.0043 0
-0.0303751 0.713582 -0.0043 0
-0.030482 0.716579 -0.0043 0
-0.0304821 0.716579 -0.0041 0
-0.0304825 0.716578 -0.0041 0
-0.0304828 0.716577 -0.0045 0
-0.0304844 0.716573 -0.0045 0
-0.0304139 0.714573 -0.0041 0
-0.0304859 0.71657 -0.0041 0
-0.0304864 0.716568 -0.0043 0
-0.0304871 0.716567 -0.0043 0
-0.0304876 0.716565 -0.0041 0
-0.0304882 0.716565 -0.0041 0
-0.0304884 0.716564 -0.0043 0
-0.0304894 0.716563 -0.0043 0
-0.0301831 0.704592 -0.0043 0
-0.0306134 0.716584 -0.0043 0
-0.0306135 0.716582 -0.0047 0
-0.0306134 0.716581 -0.0047 0
-0.030614 0.71658 -0.0044 0
-0.0306145 0.71658 -0.0044 0
-0.0304911 0.716556 -0.004 0
-0.0304913 0.716555 -0.004 0
-0.0306154 0.716577 -0.0049 0
-0.0306157 0.716576 -0.0049 0
-0.0306163 0.716573 -0.0036 0
-0.0306166 0.716572 -0.0036 0
-0.0306169 0.71657 -0.0041 0
-0.0306167 0.716569 -0.0043 0
-0.0306166 0.716568 -0.0043 0
-0.0306164 0.716567 -0.0043 0
-0.0306154 0.716566 -0.0042 0
-0.0306153 0.716564 -0.004 0
-0.0306159 0.716563 -0.004 0
-0.0306158 0.716562 -0.004 0
-0.0306152 0.71656 -0.0042 0
-0.0306155 0.716559 -0.0038 0
-0.030616 0.716558 -0.0038 0
-0.0304928 0.716534 -0.0038 0
-0.0304932 0.716533 -0.0046 0
-0.0306172 0.716554 -0.0046 0
-0.030618 0.716553 -0.004 0
-0.0306549 0.717551 -0.004 0
-0.0304962 0.716527 -0.004 0
-0.0304961 0.716526 -0.0043 0
-0.0304962 0.716524 -0.0045 0
-0.0304961 0.716523 -0.0045 0
-0.0304961 0.716521 -0.0045 0
-0.0304957 0.71652 -0.0042 0
-0.0304956 0.716519 -0.0042 0
-0.0304947 0.716515 -0.0045 0
-0.0304944 0.716514 -0.0045 0
-0.0304936 0.716514 -0.0042 0
-0.0304932 0.716514 -0.0042 0
-0.0304932 0.716514 -0.0047 0
-0.030493 0.716514 -0.0047 0
-0.0304931 0.716513 -0.0047 0
-0.0304921 0.716512 -0.0039 0
-0.0304918 0.716512 -0.0039 0
-0.0304923 0.716511 -0.0039 0
-0.0304918 0.716511 -0.0044 0
-0.0304916 0.71651 -0.0044 0
-0.0304906 0.716507 -0.0041 0
-0.0304898 0.716505 -0.0041 0
-0.0304893 0.716504 -0.0043 0
-0.0304536 0.715503 -0.0042 0
-0.0304897 0.716502 -0.0042 0
-0.0304901 0.716501 -0.0042 0
-0.0304905 0.7165 -0.0046 0
-0.0304909 0.716499 -0.0046 0
-0.0304915 0.716498 -0.0042 0
-0.0304915 0.716497 -0.0042 0
-0.0304918 0.716497 -0.0042 0
-0.0304915 0.716496 -0.0041 0
-0.030491 0.716492 -0.0041 0
-0.0304912 0.71649 -0.0041 0
-0.0304905 0.716488 -0.0041 0
-0.0304903 0.716486 -0.0039 0
-0.0304895 0.716486 -0.0039 0
-0.0304887 0.716486 -0.0044 0
-0.0304882 0.716486 -0.0044 0
-0.0304888 0.716484 -0.0038 0
-0.0304894 0.716484 -0.0038 0
-0.0304895 0.716483 -0.0039 0
-0.0304888 0.716484 -0.0039 0
-0.0304887 0.716483 -0.0039 0
-0.030488 0.716481 -0.0049 0
-0.0304876 0.71648 -0.0038 0
-0.0304518 0.715479 -0.0038 0
-0.0304875 0.716478 -0.0038 0
-0.0304876 0.716476 -0.0044 0
-0.0304878 0.716475 -0.0044 0
-0.030488 0.716472 -0.0039 0
-0.0304881 0.716471 -0.0039 0
-0.0304168 0.71447 -0.0039 0
-0.0304884 0.716467 -0.0039 0
-0.0304888 0.716467 -0.0039 0
-0.0304523 0.715465 -0.0039 0
-0.0304878 0.716463 -0.0039 0
-0.030488 0.716461 -0.0043 0
-0.030488 0.71646 -0.0046 0
-0.0319512 0.757434 -0.0046 0
-0.0304889 0.71646 -0.0046 0
-0.0304893 0.716461 -0.004 0
-0.0304899 0.71646 -0.004 0
-0.0304897 0.71646 -0.0041 0
-0.0304894 0.716459 -0.0041 0
-0.0304896 0.716459 -0.0041 0
-0.0304889 0.716457 -0.0042 0
-0.0304894 0.716455 -0.0045 0
-0.0304894 0.716454 -0.0045 0
-0.0304896 0.716453 -0.0045 0
-0.0304901 0.716453 -0.0041 0
-0.03049 0.716452 -0.0041 0
-0.0304904 0.716451 -0.0042 0
-0.0306151 0.716472 -0.0042 0
-0.0306146 0.716471 -0.0045 0
-0.0306145 0.71647 -0.0045 0
-0.032084 0.757442 -0.0047 0
-0.0306152 0.716467 -0.0047 0
-0.030615 0.716465 -0.0041 0
-0.030615 0.716464 -0.0041 0
-0.0306153 0.716462 -0.0042 0
-0.0306156 0.716461 -0.0042 0
-0.0306159 0.71646 -0.0047 0
-0.0305437 0.714461 -0.0047 0
-0.0306172 0.716458 -0.004 0
-0.030618 0.716457 -0.004 0
-0.0306181 0.716457 -0.0041 0
-0.0304943 0.716433 -0.0041 0
-0.0304936 0.716432 -0.005 0
-0.0304932 0.716431 -0.005 0
-0.0304931 0.71643 -0.005 0
-0.0304932 0.716429 -0.0047 0
-0.0304937 0.716428 -0.0047 0
-0.0304945 0.716427 -0.0041 0
-0.0304952 0.716426 -0.0041 0
-0.0304961 0.716425 -0.004 0
-0.0304972 0.716424 -0.004 0
-0.0304975 0.716424 -0.0044 0
-0.0304978 0.716423 -0.0044 0
-0.0304979 0.716422 -0.0044 0
-0.0304985 0.716421 -0.0037 0
-0.0304999 0.71642 -0.0037 0
-0.0304658 0.715419 -0.0041 0
-0.030502 0.716417 -0.0041 0
-0.0305025 0.716416 -0.005 0
-0.0305035 0.716416 -0.005 0
-0.0305043 0.716415 -0.0035 0
-0.0305049 0.716415 -0.0035 0
-0.0305055 0.716413 -0.0041 0
-0.0305054 0.716412 -0.0041 0
-0.0305054 0.716411 -0.0046 0
-0.0305056 0.71641 -0.0046 0
-0.0305062 0.716407 -0.0041 0
-0.0305061 0.716405 -0.0041 0
-0.0305065 0.716405 -0.0036 0
-0.0305069 0.716405 -0.0036 0
-0.0306316 0.716425 -0.004 0
-0.0305077 0.716401 -0.004 0
-0.0305074 0.7164 -0.0049 0
-0.0306316 0.716422 -0.0049 0
-0.03063 0.71642 -0.0039 0
-0.0306297 0.71642 -0.0039 0
-0.0306296 0.71642 -0.0041 0
-0.0306295 0.716419 -0.0041 0
-0.0305222 0.71342 -0.0042 0
-0.0306296 0.716417 -0.0042 0
-0.0306291 0.716417 -0.0041 0
-0.0305929 0.715416 -0.0041 0
-0.0306278 0.716414 -0.0041 0
-0.0306279 0.716414 -0.0044 0
-0.0306264 0.716413 -0.0044 0
-0.0306255 0.716414 -0.004 0
-0.0306251 0.716414 -0.004 0
-0.0306249 0.716413 -0.004 0
-0.0306249 0.716412 -0.004 0
-0.0306244 0.716411 -0.0044 0
-0.0306238 0.716409 -0.0044 0
-0.0306237 0.716407 -0.0044 0
-0.0304995 0.716383 -0.0039 0
-0.0304996 0.716383 -0.0039 0
-0.0304991 0.716381 -0.0041 0
-0.0304985 0.716379 -0.0041 0
-0.0304979 0.716378 -0.0045 0
-0.0304618 0.715379 -0.0045 0
-0.0304975 0.716376 -0.0046 0
-0.0304976 0.716376 -0.0046 0
-0.0304978 0.716375 -0.0046 0
-0.0304978 0.716374 -0.0044 0
-0.0304982 0.716373 -0.0044 0
-0.030499 0.716372 -0.0044 0
-0.0304994 0.716371 -0.0044 0
-0.0304997 0.71637 -0.0044 0
-0.0305001 0.716371 -0.0044 0
-0.0305003 0.71637 -0.0042 0
-0.0305011 0.71637 -0.0042 0
-0.0305018 0.716369 -0.0042 0
-0.0305026 0.716368 -0.0046 0
-0.0305028 0.716367 -0.0039 0
-0.0305029 0.716367 -0.0039 0
-0.0305039 0.716367 -0.0039 0
-0.0306288 0.716389 -0.0046 0
-0.0306291 0.71639 -0.0039 0
-0.0306287 0.71639 -0.0039 0
-0.0306284 0.716389 -0.0039 0
-0.0306288 0.716388 -0.0044 0
-0.0306291 0.716387 -0.0041 0
-0.0305056 0.716364 -0.0041 0
-0.0305056 0.716364 -0.0041 0
-0.0306308 0.716387 -0.0043 0
-0.0306311 0.716386 -0.0044 0
-0.0306316 0.716385 -0.0044 0
-0.0306313 0.716384 -0.0042 0
-0.0306312 0.716383 -0.0042 0
-0.0305074 0.716359 -0.0044 0
-0.0305081 0.716359 -0.0044 0
-0.0305085 0.716358 -0.0041 0
-0.0305094 0.716357 -0.0041 0
-0.0306343 0.716379 -0.0038 0
-0.0305121 0.716356 -0.0038 0
-0.0305131 0.716356 -0.0044 0
-0.0305138 0.716356 -0.0044 0
-0.030514 0.716355 -0.0044 0
-0.0305143 0.716354 -0.0044 0
-0.0305148 0.716352 -0.0044 0
-0.0304078 0.713353 -0.0044 0
-0.0305147 0.71635 -0.0044 0
-0.030514 0.71635 -0.004 0
-0.030512 0.716348 -0.004 0
-0.0305117 0.716347 -0.0047 0
-0.0305113 0.716345 -0.0047 0
-0.0305114 0.716345 -0.0036 0
-0.0305117 0.716344 -0.0036 0
-0.0305123 0.716342 -0.0042 0
-0.0305126 0.716342 -0.0042 0
-0.0305129 0.716341 -0.0048 0
-0.0305129 0.716341 -0.0048 0
-0.0305132 0.71634 -0.0048 0
-0.0305127 0.716338 -0.0038 0
-0.0305126 0.716337 -0.0046 0
-0.0305126 0.716337 -0.0046 0
-0.0305125 0.716336 -0.0046 0
-0.0305132 0.716336 -0.0045 0
-0.0306375 0.716358 -0.0045 0
-0.0306382 0.716356 -0.0041 0
-0.0306382 0.716354 -0.0041 0
-0.0306385 0.716353 -0.0041 0
-0.0306383 0.716351 -0.0044 0
-0.0306384 0.716349 -0.004 0
-0.0306386 0.716349 -0.004 0
-0.0306388 0.716347 -0.004 0
-0.0306391 0.716346 -0.0042 0
-0.0306388 0.716345 -0.0042 0
-0.0306391 0.716343 -0.0041 0
-0.030639 0.716342 -0.0041 0
-0.0306391 0.71634 -0.0042 0
-0.0306393 0.716339 -0.0042 0
-0.0306395 0.716338 -0.0045 0
-0.0306397 0.716337 -0.0045 0
-0.0306391 0.716336 -0.0045 0
-0.0305319 0.713337 -0.0039 0
-0.03064 0.716334 -0.0039 0
-0.0306395 0.716333 -0.0043 0
-0.0306398 0.716332 -0.0043 0
-0.0306398 0.716331 -0.0045 0
-0.0306402 0.71633 -0.0045 0
-0.0306399 0.716329 -0.0043 0
-0.0306394 0.716328 -0.0043 0
-0.0306389 0.716327 -0.0043 0
-0.030515 0.716303 -0.0046 0
-0.0304786 0.715303 -0.0038 0
-0.030514 0.716301 -0.0038 0
-0.030514 0.716299 -0.0038 0
-0.0305141 0.716298 -0.0046 0
-0.0305143 0.716296 -0.0046 0
-0.0305151 0.716295 -0.0042 0
-0.0305155 0.716293 -0.0042 0
-0.0306399 0.716315 -0.0042 0
-0.0306396 0.716314 -0.0045 0
-0.0305154 0.716291 -0.0044 0
-0.0305146 0.716289 -0.0044 0
-0.0305145 0.716289 -0.0044 0
-0.0305145 0.716288 -0.0041 0
-0.0305143 0.716288 -0.0041 0
-0.0304072 0.713288 -0.0043 0
-0.0305137 0.716284 -0.0043 0
-0.0305139 0.716282 -0.0044 0
-0.0305141 0.716281 -0.0044 0
-0.0305144 0.71628 -0.0041 0
-0.0305151 0.716279 -0.0041 0
-0.0305158 0.716279 -0.0047 0
-0.0305153 0.716277 -0.0047 0
-0.0305151 0.716276 -0.0041 0
-0.030515 0.716274 -0.0041 0
-0.0305145 0.716272 -0.0041 0
-0.0305153 0.716271 -0.004 0
-0.030516 0.716269 -0.0044 0
-0.0305167 0.716268 -0.0044 0
-0.0305178 0.716268 -0.0044 0
-0.0305183 0.716266 -0.0041 0
-0.0305181 0.716266 -0.0041 0
-0.0305182 0.716265 -0.0046 0
-0.0305185 0.716265 -0.0046 0
-0.0305183 0.716264 -0.0042 0
-0.0305185 0.716263 -0.0042 0
-0.0305191 0.716263 -0.0042 0
-0.0305196 0.716262 -0.0042 0
-0.03052 0.716262 -0.0042 0
-0.0305202 0.716261 -0.0042 0
-0.0305211 0.716261 -0.0042 0
-0.0305221 0.71626 -0.0044 0
-0.0305231 0.716259 -0.0044 0
-0.0305234 0.716258 -0.0043 0
-0.0305234 0.716257 -0.0043 0
-0.0305236 0.716257 -0.0043 0
-0.0305241 0.716256 -0.0043 0
-0.0305246 0.716254 -0.0043 0
-0.0305254 0.716253 -0.0044 0
-0.0305257 0.716252 -0.0044 0
-0.0305264 0.716251 -0.0041 0
-0.0305261 0.71625 -0.0041 0
-0.0305269 0.716249 -0.004 0
-0.0305269 0.716248 -0.004 0
-0.030527 0.716247 -0.005 0
-0.0305277 0.716245 -0.005 0
-0.030528 0.716244 -0.0044 0
-0.0305282 0.716243 -0.0044 0
-0.0305284 0.71624 -0.0041 0
-0.0305287 0.71624 -0.0041 0
-0.0305281 0.716238 -0.0044 0
-0.0305279 0.716238 -0.0044 0
-0.0305439 0.713262 -0.0038 0
-0.0306515 0.71626 -0.0038 0
-0.030528 0.716237 -0.0043 0
-0.0305272 0.716236 -0.0043 0
-0.0305273 0.716235 -0.0042 0
-0.0305276 0.716234 -0.0042 0
-0.0305278 0.716233 -0.0042 0
-0.030528 0.716232 -0.0045 0
-0.0305276 0.716232 -0.0045 0
-0.0305271 0.716231 -0.0043 0
-0.0305271 0.71623 -0.0043 0
-0.0305272 0.716228 -0.0041 0
-0.0305281 0.716228 -0.0041 0
-0.0305283 0.716226 -0.0044 0
-0.0305287 0.716225 -0.0044 0
-0.0305288 0.716225 -0.0041 0
-0.0305284 0.716224 -0.0041 0
-0.0305289 0.716223 -0.0045 0
-0.0305292 0.716222 -0.0045 0
-0.0305295 0.716222 -0.0042 0
-0.03053 0.716221 -0.0044 0
-0.0305297 0.71622 -0.0044 0
-0.0305296 0.716219 -0.0044 0
-0.0305297 0.716219 -0.0039 0
-0.0305301 0.716218 -0.0039 0
-0.0305287 0.716218 -0.004 0
-0.0305279 0.716217 -0.004 0
-0.0305282 0.716216 -0.0045 0
-0.0304216 0.713217 -0.0045 0
-0.0305286 0.716211 -0.0044 0
-0.0305283 0.71621 -0.0044 0
-0.0305282 0.716209 -0.0037 0
-0.030528 0.716209 -0.0037 0
-0.0305279 0.716207 -0.0045 0
-0.0305273 0.716205 -0.0045 0
-0.0305271 0.716204 -0.0041 0
-0.0305273 0.716203 -0.0041 0
-0.030527 0.716202 -0.0047 0
-0.0305269 0.716201 -0.0047 0
-0.030527 0.716201 -0.0047 0
-0.0305274 0.7162 -0.0038 0
-0.030527 0.716199 -0.0038 0
-0.0305278 0.716197 -0.0044 0
-0.0305278 0.716195 -0.0044 0
-0.0305283 0.716193 -0.004 0
-0.0305286 0.716192 -0.004 0
-0.0305281 0.71619 -0.0041 0
-0.0305285 0.716189 -0.0041 0
-0.0305301 0.716187 -0.0044 0
-0.0305312 0.716185 -0.0044 0
-0.0305323 0.716185 -0.0043 0
-0.0305329 0.716183 -0.0043 0
-0.0305332 0.716182 -0.0044 0
-0.0305336 0.716181 -0.0044 0
-0.0305339 0.716179 -0.0041 0
-0.0305346 0.716179 -0.0041 0
-0.030535 0.716179 -0.0041 0
-0.030535 0.716179 -0.0045 0
-0.0305351 0.716178 -0.0045 0
-0.0305351 0.716176 -0.0039 0
-0.0305352 0.716176 -0.0039 0
-0.0305354 0.716175 -0.0045 0
-0.0305353 0.716175 -0.0045 0
-0.0305354 0.716175 -0.004 0
-0.0305357 0.716174 -0.004 0
-0.0305356 0.716175 -0.0042 0
-0.0305357 0.716175 -0.0042 0
-0.0305356 0.716174 -0.0041 0
-0.0305358 0.716174 -0.0041 0
-0.0305351 0.716173 -0.0041 0
-0.0305345 0.716172 -0.0041 0
-0.0305335 0.71617 -0.0041 0
-0.030533 0.716168 -0.0041 0
-0.0305328 0.716167 -0.0041 0
-0.030533 0.716165 -0.0041 0
-0.0305329 0.716163 -0.004 0
-0.0305338 0.716162 -0.004 0
-0.030534 0.716161 -0.004 0
-0.0306583 0.716182 -0.0044 0
-0.0306585 0.716181 -0.0044 0
-0.0306586 0.71618 -0.0044 0
-0.0307307 0.718177 -0.004 0
-0.0306591 0.716177 -0.004 0
-0.030659 0.716176 -0.004 0
-0.0306595 0.716176 -0.004 0
-0.0306599 0.716176 -0.004 0
-0.0306606 0.716174 -0.004 0
-0.0305374 0.716151 -0.0046 0
-0.0306611 0.716174 -0.0046 0
-0.0306609 0.716173 -0.0046 0
-0.0306615 0.716172 -0.0041 0
-0.0305413 0.716146 -0.0047 0
-0.0305342 0.716146 -0.0047 0
-0.0303893 0.716123 -0.0047 0
-0.029742 0.716007 0.0093 0
-0.0295168 0.715955 0.0458 0
-0.0291728 0.71588 0.0458 0
-0.0288852 0.714804 -0.004 0
-0.0288536 0.71478 -0.004 0
-0.0288218 0.714759 0.0313 0
-0.0289421 0.714781 0.0313 0
-0.0290891 0.714838 0.0313 0
-0.0295745 0.714974 0.0014 0
-0.0297123 0.71501 0.0065 0
-0.0296951 0.71402 0.0065 0
-0.0297091 0.714026 0.0065 0
-0.0297239 0.714039 -0.0073 0
-0.0297266 0.714044 -0.0053 0
-0.0298506 0.714071 -0.0053 0
-0.0299742 0.714093 -0.0049 0
-0.0299324 0.713094 -0.0049 0
-0.0302034 0.714139 0.0013 0
-0.0302805 0.713159 0.0013 0
-0.030531 0.713197 0.0078 0
-0.0306944 0.714213 0.0078 0
-0.0306647 0.713207 -0.0028 0
-0.0311585 0.713284 -0.0028 0
-0.0311908 0.714272 0.0027 0
-0.0313074 0.714283 0.0027 0
-0.0312977 0.714279 -0.0024 0
-0.0312612 0.713287 -0.0024 0
-0.0312621 0.713297 -0.0033 0
-0.0312606 0.713306 -0.0033 0
-0.03126 0.71331 0.0012 0
-0.0312625 0.713314 0.0012 0
-0.0312633 0.713314 -0.0023 0
-0.031262 0.713313 -0.0023 0
-0.0312609 0.713312 -0.0014 0
-0.0312576 0.713314 -0.0014 0
-0.0312564 0.713315 0.0016 0
-0.0312545 0.713315 0.0016 0
-0.0312515 0.713313 -0.000799998 0
-0.0312514 0.713311 -0.000799998 0
-0.0312875 0.714312 -0.0012 0
-0.0312493 0.713313 -0.0012 0
-0.0312504 0.713314 0.0012 0
-0.0312512 0.713315 0.0012 0
-0.0312535 0.713315 0.0012 0
-0.0312937 0.714315 -0.0011 0
-0.0312591 0.713316 -0.0011 0
-0.0312572 0.713319 -0.0038 0
-0.0312555 0.713322 -0.0038 0
-0.0312566 0.713322 0.000900001 0
-0.0312545 0.713321 0.000900001 0
-0.0312521 0.71332 -0.000799998 0
-0.0312507 0.713316 -0.000799998 0
-0.0312492 0.713315 -0.000799998 0
-0.0312498 0.713311 -0.000699998 0
-0.03125 0.71331 0.0014 0
-0.0312514 0.713309 0.0014 0
-0.0312523 0.713308 0.0014 0
-0.0312523 0.713305 -0.0045 0
-0.031252 0.713307 -0.0016 0
-0.031252 0.713307 -0.0016 0
-0.031251 0.713307 -0.0016 0
-0.0312512 0.713307 -0.0028 0
-0.0312515 0.713305 -0.0033 0
-0.0312503 0.713302 -0.0033 0
-0.0312495 0.713302 -0.0033 0
-0.0312488 0.713302 0.0011 0
-0.0312461 0.713302 -0.0018 0
-0.0312455 0.713302 -0.0018 0
-0.0312459 0.713301 -0.0018 0
-0.0312819 0.7143 -0.0021 0
-0.031244 0.7133 -0.0021 0
-0.0312436 0.713298 -0.000699999 0
-0.0312435 0.713297 -0.000699999 0
-0.0312426 0.713297 -0.0032 0
-0.0312427 0.713296 -0.0032 0
-0.0312431 0.713296 -0.000599999 0
-0.0312417 0.713296 -0.000599999 0
-0.0312422 0.713295 -0.000299999 0
-0.0312426 0.713294 -0.000299999 0
-0.0312422 0.713293 -0.0017 0
-0.0312414 0.713291 -0.0017 0
-0.0312417 0.71329 -0.0024 0
-0.0312426 0.713289 -0.0024 0
-0.0312446 0.713288 -0.0019 0
-0.0312437 0.713291 -0.0019 0
-0.0312424 0.713293 -0.0032 0
-0.0312443 0.71329 -0.000299999 0
-0.0312467 0.713288 -0.000299999 0
-0.0312883 0.714283 -0.000299999 0
-0.0312516 0.71328 0.000800001 0
-0.0312509 0.713279 0.000800001 0
-0.0312441 0.713281 -0.000799999 0
-0.0312806 0.714281 -0.000799999 0
-0.0312429 0.713282 -0.0028 0
-0.0312806 0.714276 0.0013 0
-0.0312424 0.713276 0.0013 0
-0.0312435 0.713274 0.0013 0
-0.0312454 0.713273 0.000100001 0
-0.0312842 0.714271 0.000100001 0
-0.031283 0.714268 -0.0035 0
-0.0312462 0.713268 -0.0035 0
-0.0312461 0.713268 -9.99991e-05 0
-0.0312834 0.714267 -9.99991e-05 0
-0.0312847 0.714266 -0.000699999 0
-0.0311726 0.711267 -0.000699999 0
-0.0312472 0.713264 -0.0013 0
-0.0312483 0.713264 -0.0013 0
-0.0312869 0.714262 -0.0034 0
-0.0312511 0.713262 -0.0034 0
-0.0313752 0.713285 -0.0041 0
-0.0312513 0.71326 -0.0041 0
-0.0312871 0.714259 0.0012 0
-0.031248 0.713261 0.0012 0
-0.0312458 0.713261 0.0012 0
-0.0312382 0.713263 -0.000399999 0
-0.031237 0.713262 -0.0026 0
-0.0312364 0.713262 -0.0026 0
-0.0312404 0.713258 -0.0012 0
-0.0312409 0.713259 -0.0012 0
-0.0312415 0.713257 -0.0021 0
-0.031243 0.713256 -0.0021 0
-0.0312449 0.713254 0.001 0
-0.0312807 0.714253 0.001 0
-0.0312422 0.713252 -0.0031 0
-0.0312453 0.713253 -0.0031 0
-0.0312463 0.713253 0.0028 0
-0.0312459 0.713252 0.0028 0
-0.0312457 0.713251 -0.002 0
-0.0312481 0.713247 -0.002 0
-0.0312481 0.713246 -0.000499999 0
-0.0312477 0.713247 -0.000499999 0
-0.0312483 0.713245 -0.0019 0
-0.031285 0.714244 -0.0019 0
-0.031249 0.713244 0.0013 0
-0.0312503 0.713243 0.0013 0
-0.0312499 0.713243 0.000700001 0
-0.0312895 0.71424 0.000700001 0
-0.024981 0.543356 0.000700001 0
-0.0312534 0.713239 0.002 0
-0.0312538 0.713237 0.002 0
-0.0312532 0.713236 0.000500001 0
-0.0312519 0.713235 0.000500001 0
-0.0312514 0.713233 -0.000999999 0
-0.0312494 0.713234 -0.000999999 0
-0.0312485 0.713236 -0.0027 0
-0.0311736 0.711237 -0.0027 0
-0.0312467 0.713234 -0.0027 0
-0.0312451 0.713233 -0.002 0
-0.0312437 0.713234 -0.002 0
-0.0312438 0.713234 -0.0013 0
-0.0312435 0.713233 -0.0013 0
-0.0312449 0.713233 -0.0013 0
-0.0312457 0.71323 -0.0034 0
-0.0312481 0.713228 -0.0034 0
-0.0312507 0.713226 -9.99989e-05 0
-0.0312515 0.713225 -9.99989e-05 0
-0.0312504 0.713224 -9.99989e-05 0
-0.0312521 0.713223 0.0023 0
-0.0312523 0.713221 0.0023 0
-0.0312522 0.713221 -0.0024 0
-0.0312525 0.713221 -0.0024 0
-0.0312497 0.713221 1.16415e-09 0
-0.0312515 0.713219 1.16415e-09 0
-0.0312594 0.713215 -0.000499999 0
-0.0297178 0.671241 -0.000499999 0
-0.031274 0.713212 -0.000499999 0
-0.0313348 0.713209 -0.000299999 0
-0.0314973 0.714203 -0.000299999 0
-0.0316156 0.713197 -0.0037 0
-0.0318443 0.714187 -0.0037 0
-0.0320607 0.713177 -0.0037 0
-0.0327093 0.713175 -0.0016 0
-0.0330112 0.713161 -0.0032 0
-0.0333374 0.713145 -0.0032 0
-0.0332641 0.70214 -0.0032 0
-0.0340132 0.71312 -0.0038 0
-0.0346618 0.711174 -0.0038 0
-0.0352439 0.713181 -0.0034 0
-0.0357789 0.713187 -0.0034 0
-0.0367642 0.713172 -0.0012 0
-0.0375805 0.71322 -0.0012 0
-0.0380378 0.713202 -0.0032 0
-0.0386457 0.713207 -0.0032 0
-0.0398893 0.713216 -0.0028 0
-0.0404928 0.712219 -0.0028 0
-0.0411868 0.713223 -0.0042 0
-0.0418409 0.713229 -0.0042 0
-0.0426014 0.712262 -0.0042 0
-0.0443746 0.712347 0.0014 0
-0.0451014 0.712351 0.000200001 0
-0.0459397 0.711372 0.000200001 0
-0.0467229 0.711368 0.000200001 0
-0.048269 0.710355 0.000300001 0
-0.0491398 0.711342 -0.0042 0
-0.0499909 0.711329 -0.0042 0
-0.0506888 0.710294 -0.0042 0
-0.0514913 0.708282 0.0011 0
-0.0531628 0.710201 -0.0011 0
-0.0539806 0.710171 -0.0011 0
-0.0552015 0.710207 -0.0011 0
-0.0558885 0.672284 0.000500001 0
-0.0569627 0.671293 0.0037 0
-0.057945 0.670282 0.0037 0
-0.0604731 0.669351 0.0004 0
-0.0616814 0.669352 0.0004 0
-0.0629001 0.669349 -0.0032 0
-0.0652884 0.669309 -0.0032 0
-0.066382 0.668274 -0.0027 0
-0.0674643 0.668213 -0.0027 0
-0.0686848 0.668176 -0.0014 0
-0.0710419 0.66708 -0.0014 0
-0.0722789 0.666047 -0.000599999 0
-0.0735223 0.666986 -0.000599999 0
-0.0759313 0.665862 0.0011 0
-0.077218 0.665803 0.0011 0
-0.0786729 0.664793 0.000800001 0
-0.0801399 0.663783 0.000800001 0
-0.0831213 0.663733 0.000900001 0
-0.0847159 0.663713 0.000900001 0
-0.0864146 0.662711 -0.000199999 0
-0.0896164 0.662625 -0.0035 0
-0.0912527 0.661586 -0.0035 0
-0.0928367 0.661522 -0.0035 0
-0.094457 0.661455 -0.0031 0
-0.0959367 0.66036 -0.0031 0
-0.0975332 0.660288 -0.005 0
-0.0990822 0.660201 -0.005 0
-0.100504 0.660089 -0.005 0
-0.103296 0.65983 0.0006 0
-0.104548 0.659666 0.0034 0
-0.105827 0.659505 0.0034 0
-0.108142 0.659111 0.0009 0
-0.109346 0.659902 0.0009 0
-0.110583 0.658714 -0.0001 0
-0.111782 0.659504 -0.0001 0
-0.113781 0.658993 -0.0007 0
-0.11513 0.660784 -0.0007 0
-0.116654 0.660627 0.0009 0
-0.118205 0.660476 0.0009 0
-0.118858 0.66016 0.0009 0
-0.121847 0.659842 -0.0052 0
-0.123408 0.660677 -0.0062 0
-0.125057 0.660534 -0.0062 0
-0.126532 0.660374 -0.0062 0
-0.129909 0.660089 -0.0005 0
-0.131674 0.659982 -0.0064 0
-0.133505 0.658876 -0.0064 0
-0.135325 0.659743 -0.0064 0
-0.139088 0.65948 -0.0026 0
-0.140817 0.659302 -0.0006 0
-0.142483 0.659095 -0.0006 0
-0.1447 0.660007 -0.0006 0
-0.148584 0.697466 0.001 0
-0.150354 0.699278 0.0014 0
-0.15212 0.70009 0.0014 0
-0.155426 0.699666 -0.0036 0
-0.157194 0.698481 -0.0036 0
-0.159018 0.699298 -0.001 0
-0.160838 0.69912 -0.001 0
-0.16457 0.698769 -0.0045 0
-0.166529 0.698625 -0.0045 0
-0.168712 0.699502 -0.0054 0
-0.170782 0.699347 -0.0054 0
-0.172648 0.698175 -0.0054 0
-0.173591 0.621061 0.0021 0
-0.177006 0.697896 0.0021 0
-0.179532 0.697823 -0.0059 0
-0.181605 0.698648 -0.0059 0
-0.183792 0.697499 -0.0059 0
-0.186404 0.698427 -0.0028 0
-0.191141 0.697184 -0.000700001 0
-0.193683 0.697098 -0.000700001 0
-0.196255 0.698013 -0.000700001 0
-0.198736 0.697933 -0.000500001 0
-0.20131 0.697851 -0.000500001 0
-0.203627 0.696712 0.0067 0
-0.206811 0.697227 0.0067 0
-0.20822 0.697013 -0.0018 0
-0.209743 0.696852 -0.0018 0
-0.211237 0.697714 0.004 0
-0.214653 0.696652 0.004 0
-0.216274 0.696658 0.0042 0
-0.21765 0.696641 0.0042 0
-0.218793 0.696601 -0.000100001 0
-0.221023 0.696583 -0.000100001 0
-0.222001 0.696577 0.0014 0
-0.223022 0.697599 0.0014 0
-0.223848 0.697591 0.000899999 0
-0.224597 0.696584 0.000899999 0
-0.225298 0.697577 0.000899999 0
-0.226636 0.697592 -0.000200001 0
-0.227161 0.696585 0.0021 0
-0.227645 0.696576 0.0021 0
-0.22837 0.696538 -0.0016 0
-0.228743 0.696533 -0.0016 0
-0.229083 0.696529 -0.0017 0
-0.229397 0.697526 -0.0017 0
-0.229677 0.696524 -0.0017 0
-0.229945 0.697521 0.000599998 0
-0.230185 0.697517 0.000599998 0
-0.230403 0.697513 -0.0029 0
-0.230596 0.696508 -0.0029 0
-0.230776 0.696503 -0.0029 0
-0.230938 0.697499 -0.0041 0
-0.231087 0.696496 -0.0041 0
-0.231353 0.696486 -0.0031 0
-0.231467 0.696482 -0.0031 0
-0.231361 0.657477 0.000899998 0
-0.231665 0.696472 0.000899998 0
-0.230776 0.518473 0.0017 0
-0.231828 0.697468 0.0017 0
-0.231889 0.696465 0.0017 0
-0.231958 0.697463 0.000599998 0
-0.232 0.696461 0.000599998 0
-0.232045 0.696458 -0.0011 0
-0.232083 0.695456 -0.0011 0
-0.232177 0.696448 -0.000300002 0
-0.232204 0.696447 -0.000300002 0
-0.232225 0.695444 -0.0017 0
-0.232253 0.696443 -0.0017 0
-0.232298 0.69644 -0.0019 0
-0.232323 0.697439 -0.0019 0
-0.232347 0.696437 -0.0015 0
-0.232317 0.696436 -0.0015 0
-0.232251 0.697435 -0.0015 0
-0.23198 0.697433 -0.000700002 0
-0.231662 0.696407 -0.000200002 0
-0.231452 0.697407 -0.000200002 0
-0.231257 0.696408 -0.000200002 0
-0.231298 0.696463 0.0023 0
-0.231302 0.696461 -0.000500002 0
-0.231454 0.696486 -0.000500002 0
-0.231546 0.696484 -0.000500002 0
-0.231679 0.69648 -1.62981e-09 0
-0.231659 0.696476 -0.0015 0
-0.231577 0.696472 -0.0015 0
