ply
format ascii 1.0
element vertex 1703
property float x
property float y
property float z
property float intensity
end_header
-1.2757 0.265825 -0.0014 0
-1.27569 0.265824 -0.0014 0
-1.27569 0.265824 -0.0014 0
-1.27569 0.265823 -0.0017 0
-1.27569 0.265822 -0.0017 0
-1.27581 0.265768 -0.001 0
-1.27581 0.265768 -0.001 0
-1.27581 0.265767 -0.001 0
-1.2752 0.26497 -0.0016 0
-1.27581 0.265766 -0.0016 0
-1.27581 0.265765 -0.000300002 0
-1.2752 0.264968 -0.000300002 0
-1.2758 0.265764 -0.000300002 0
-1.2758 0.265765 -0.0021 0
-1.2758 0.265764 -0.0021 0
-1.2758 0.265763 -0.0016 0
-1.2758 0.265762 -0.0016 0
-1.2758 0.265762 -0.0015 0
-1.2758 0.265761 -0.0015 0
-1.2758 0.26576 -0.0014 0
-1.2758 0.265758 -0.0014 0
-1.2758 0.265758 -0.000700002 0
-1.2758 0.265757 -0.000700002 0
-1.2758 0.265756 -0.000900002 0
-1.2758 0.265756 -0.000900002 0
-1.27579 0.265755 -0.000900002 0
-1.27579 0.265754 -0.0019 0
-1.27579 0.265753 -0.0019 0
-1.27579 0.265753 -0.0019 0
-1.27579 0.265752 -0.0018 0
-1.27579 0.265751 -0.0016 0
-1.27579 0.26575 -0.0016 0
-1.27579 0.26575 -0.0012 0
-1.27579 0.265749 -0.0012 0
-1.27579 0.265748 -0.0012 0
-1.27579 0.265747 -0.0012 0
-1.27579 0.265746 -0.0015 0
-1.27579 0.265745 -0.0015 0
-1.27579 0.265744 -0.0015 0
-1.27579 0.265743 -0.0019 0
-1.27579 0.265743 -0.0019 0
-1.27579 0.265742 -0.0014 0
-1.27579 0.265742 -0.0014 0
-1.27579 0.265741 -0.0014 0
-1.27579 0.26574 -0.0013 0
-1.27579 0.265738 -0.0013 0
-1.27579 0.265737 -0.000900001 0
-1.27579 0.265737 -0.000900001 0
-1.27579 0.265736 -0.0013 0
-1.27579 0.265736 -0.0013 0
-1.27518 0.264938 -0.0011 0
-1.27579 0.265734 -0.0011 0
-1.27579 0.265733 -0.0011 0
-1.27579 0.265732 -0.0015 0
-1.27579 0.265731 -0.0015 0
-1.27578 0.265729 -0.0011 0
-1.27579 0.265728 -0.0011 0
-1.27579 0.265727 -0.001 0
-1.27579 0.265727 -0.001 0
-1.27579 0.265726 -0.0014 0
-1.27458 0.264132 -0.0014 0
-1.27579 0.265725 -0.0014 0
-1.27579 0.265724 -0.0015 0
-1.27579 0.265723 -0.0015 0
-1.27579 0.265721 -0.0013 0
-1.27579 0.265721 -0.0013 0
-1.27579 0.265721 -0.0015 0
-1.27579 0.26572 -0.0015 0
-1.27579 0.265719 -0.001 0
-1.27579 0.265718 -0.001 0
-1.27579 0.265717 -0.0012 0
-1.27579 0.265717 -0.0012 0
-1.27578 0.265716 -0.0017 0
-1.27579 0.265715 -0.0017 0
-1.27567 0.265767 -0.0013 0
-1.27567 0.265766 -0.0013 0
-1.27386 0.263375 -0.0014 0
-1.27578 0.265711 -0.0014 0
-1.27578 0.26571 -0.0014 0
-1.27567 0.265762 -0.0014 0
-1.27567 0.26576 -0.001 0
-1.27567 0.26576 -0.001 0
-1.27567 0.265759 -0.001 0
-1.27567 0.265758 -0.0016 0
-1.27566 0.265756 -0.0012 0
-1.27566 0.265755 -0.0012 0
-1.27566 0.265754 -0.0012 0
-1.27566 0.265754 -0.0015 0
-1.27566 0.265753 -0.0015 0
-1.27566 0.265753 -0.0013 0
-1.27566 0.265752 -0.0013 0
-1.27566 0.26575 -0.0014 0
-1.27566 0.265749 -0.0014 0
-1.27565 0.265749 -0.0012 0
-1.27565 0.265748 -0.0012 0
-1.27565 0.265747 -0.0013 0
-1.27565 0.265747 -0.0013 0
-1.27565 0.265746 -0.0016 0
-1.27565 0.265745 -0.0016 0
-1.27565 0.265744 -0.0019 0
-1.27565 0.265742 -0.0019 0
-1.27565 0.265741 -0.0015 0
-1.27564 0.26574 -0.0015 0
-1.27564 0.265739 -0.0013 0
-1.27564 0.265739 -0.0013 0
-1.27564 0.265739 -0.0014 0
-1.27575 0.265684 -0.0014 0
-1.27575 0.265682 -0.0014 0
-1.27575 0.265681 -0.0014 0
-1.27575 0.26568 -0.0017 0
-1.27575 0.265678 -0.0017 0
-1.27575 0.265678 -0.0015 0
-1.27575 0.265677 -0.0015 0
-1.27575 0.265676 -0.0015 0
-1.27575 0.265673 -0.0013 0
-1.27575 0.265672 -0.001 0
-1.27575 0.265671 -0.001 0
-1.27574 0.26567 -0.0013 0
-1.27574 0.265669 -0.0013 0
-1.27574 0.265669 -0.0013 0
-1.27574 0.265668 -0.0013 0
-1.27574 0.265668 -0.0013 0
-1.27574 0.265668 -0.0012 0
-1.27574 0.265667 -0.0012 0
-1.27574 0.265666 -0.0012 0
-1.27574 0.265665 -0.0011 0
-1.27563 0.265717 -0.0011 0
-1.27574 0.265663 -0.0016 0
-1.27574 0.265663 -0.0016 0
-1.27574 0.265663 -0.0015 0
-1.27574 0.265663 -0.0015 0
-1.27574 0.265663 -0.0016 0
-1.27562 0.265715 -0.0016 0
-1.27562 0.265715 -0.0016 0
-1.27562 0.265715 -0.0015 0
-1.27574 0.265662 -0.0015 0
-1.27574 0.265662 -0.0015 0
-1.27574 0.265662 -0.0015 0
-1.27574 0.265662 -0.0016 0
-1.27563 0.265714 -0.0016 0
-1.27562 0.265714 -0.0012 0
-1.27562 0.265714 -0.0012 0
-1.27562 0.265714 -0.0012 0
-1.27562 0.265713 -0.0015 0
-1.27502 0.264916 -0.0015 0
-1.27562 0.265712 -0.0011 0
-1.27562 0.265712 -0.0011 0
-1.27562 0.26571 -0.0012 0
-1.27562 0.265709 -0.0017 0
-1.27562 0.265708 -0.0017 0
-1.27573 0.265656 -0.000800002 0
-1.27573 0.265656 -0.000800002 0
-1.27573 0.265655 -0.000800002 0
-1.27573 0.265654 -0.0013 0
-1.27573 0.265652 -0.0017 0
-1.27573 0.265651 -0.0017 0
-1.27573 0.26565 -0.0015 0
-1.27561 0.265701 -0.0015 0
-1.27561 0.265698 -0.0016 0
-1.27501 0.264901 -0.0016 0
-1.27561 0.265697 -0.0016 0
-1.27561 0.265694 -0.0016 0
-1.27561 0.265693 -0.0015 0
-1.27561 0.265691 -0.0015 0
-1.27561 0.265689 -0.0012 0
-1.27561 0.265687 -0.0012 0
-1.27561 0.265684 -0.0013 0
-1.27561 0.265682 -0.0013 0
-1.27561 0.26568 -0.0012 0
-1.2756 0.265677 -0.0012 0
-1.2756 0.265675 -0.0011 0
-1.2756 0.265674 -0.0011 0
-1.2756 0.265672 -0.001 0
-1.2756 0.265671 -0.001 0
-1.2756 0.26567 -0.001 0
-1.27572 0.265615 -0.0011 0
-1.27572 0.265612 -0.0011 0
-1.27571 0.26561 -0.0013 0
-1.27571 0.265608 -0.0013 0
-1.27571 0.265606 -0.0014 0
-1.27571 0.265605 -0.0014 0
-1.27559 0.265655 -0.0015 0
-1.27559 0.265654 -0.0015 0
-1.27559 0.265653 -0.0012 0
-1.27559 0.265652 -0.0012 0
-1.27559 0.265651 -0.000600002 0
-1.27559 0.26565 -0.000600002 0
-1.27559 0.26565 -0.0014 0
-1.27559 0.265649 -0.0014 0
-1.27559 0.265648 -0.0015 0
-1.27559 0.265648 -0.0015 0
-1.2757 0.265595 -0.0011 0
-1.2757 0.265594 -0.0013 0
-1.2757 0.265593 -0.0013 0
-1.2757 0.265593 -0.0013 0
-1.2757 0.265591 -0.0016 0
-1.27558 0.265643 -0.0013 0
-1.27558 0.265642 -0.0013 0
-1.27558 0.265641 -0.0013 0
-1.27558 0.26564 -0.0015 0
-1.27558 0.265639 -0.0015 0
-1.27558 0.265638 -0.0015 0
-1.27558 0.265636 -0.0015 0
-1.27558 0.265636 -0.0015 0
-1.27558 0.265635 -0.0013 0
-1.27558 0.265634 -0.0013 0
-1.27558 0.265633 -0.0013 0
-1.27558 0.265632 -0.0012 0
-1.27558 0.265632 -0.0012 0
-1.27558 0.265631 -0.0012 0
-1.27558 0.265631 -0.0015 0
-1.27558 0.26563 -0.0015 0
-1.27558 0.265629 -0.0015 0
-1.27558 0.265627 -0.0015 0
-1.27557 0.265625 -0.0012 0
-1.27557 0.265624 -0.0012 0
-1.27557 0.265624 -0.0016 0
-1.27557 0.265623 -0.0016 0
-1.27557 0.265622 -0.000800002 0
-1.27557 0.265621 -0.000800002 0
-1.27557 0.26562 -0.000800002 0
-1.27557 0.26562 -0.0011 0
-1.27557 0.265619 -0.0011 0
-1.27557 0.265618 -0.0012 0
-1.27557 0.265617 -0.0012 0
-1.27557 0.265616 -0.0016 0
-1.27557 0.265615 -0.0016 0
-1.27557 0.265614 -0.0016 0
-1.27557 0.265613 -0.0014 0
-1.27557 0.265612 -0.0014 0
-1.27557 0.26561 -0.0014 0
-1.27557 0.265609 -0.0014 0
-1.27557 0.265608 -0.0012 0
-1.27557 0.265607 -0.0012 0
-1.27557 0.265605 -0.0011 0
-1.27557 0.265604 -0.0011 0
-1.27558 0.265603 -0.0016 0
-1.27558 0.265601 -0.0016 0
-1.27558 0.2656 -0.0014 0
-1.27558 0.265599 -0.0014 0
-1.27557 0.265598 -0.0014 0
-1.27557 0.265597 -0.0014 0
-1.27557 0.265596 -0.0013 0
-1.27569 0.265541 -0.001 0
-1.27569 0.265539 -0.001 0
-1.27569 0.265537 -0.001 0
-1.26904 0.256774 -0.0016 0
-1.27569 0.265536 -0.0016 0
-1.27569 0.265535 -0.0016 0
-1.27569 0.265534 -0.0017 0
-1.27569 0.265533 -0.0017 0
-1.27569 0.265532 -0.0011 0
-1.27569 0.265531 -0.0011 0
-1.27569 0.26553 -0.0016 0
-1.27569 0.265529 -0.0016 0
-1.27569 0.265529 -0.002 0
-1.27569 0.265528 -0.002 0
-1.27569 0.265527 -0.0013 0
-1.27568 0.265525 -0.0013 0
-1.27568 0.265525 -0.0013 0
-1.27568 0.265524 -0.0014 0
-1.27568 0.265525 -0.0014 0
-1.27568 0.265526 -0.0022 0
-1.27568 0.265527 -0.0022 0
-1.27568 0.265526 -0.0011 0
-1.27568 0.265526 -0.0011 0
-1.27568 0.265526 -0.0011 0
-1.27568 0.265526 -0.0011 0
-1.27556 0.265576 -0.000900002 0
-1.27556 0.265575 -0.000900002 0
-1.27556 0.265574 -0.000900002 0
-1.27556 0.265573 -0.0018 0
-1.27556 0.265573 -0.0018 0
-1.27556 0.265572 -0.0015 0
-1.27556 0.265572 -0.0015 0
-1.27567 0.265519 -0.001 0
-1.27567 0.265518 -0.001 0
-1.27567 0.265518 -0.0014 0
-1.27567 0.265517 -0.0014 0
-1.27567 0.265517 -0.0014 0
-1.27567 0.265517 -0.0012 0
-1.27567 0.265516 -0.0012 0
-1.27567 0.265516 -0.0018 0
-1.27555 0.265567 -0.0013 0
-1.27555 0.265566 -0.0013 0
-1.27567 0.265512 -0.0013 0
-1.27567 0.265511 -0.0011 0
-1.27567 0.265511 -0.0011 0
-1.27566 0.26551 -0.0017 0
-1.27566 0.265508 -0.0017 0
-1.27566 0.265507 -0.0013 0
-1.27566 0.265506 -0.0013 0
-1.27566 0.265505 -0.0013 0
-1.27566 0.265504 -0.0013 0
-1.27554 0.265556 -0.0013 0
-1.27566 0.265504 -0.0019 0
-1.27615 0.266353 -0.0019 0
-1.27566 0.265503 -0.0019 0
-1.27554 0.265555 -0.0018 0
-1.27554 0.265555 -0.0018 0
-1.27554 0.265553 -0.0016 0
-1.27554 0.265552 -0.0012 0
-1.27433 0.263958 -0.0012 0
-1.27554 0.265551 -0.0012 0
-1.27554 0.265551 -0.0012 0
-1.27554 0.265549 -0.0012 0
-1.27565 0.265496 -0.0012 0
-1.27554 0.265548 -0.0014 0
-1.27554 0.265548 -0.0015 0
-1.27565 0.265494 -0.0015 0
-1.27565 0.265493 -0.0015 0
-1.27565 0.265492 -0.0011 0
-1.27565 0.265489 -0.0017 0
-1.27553 0.265541 -0.0017 0
-1.27553 0.26554 -0.000900002 0
-1.27553 0.26554 -0.000900002 0
-1.27553 0.265539 -0.000900002 0
-1.27553 0.265539 -0.0021 0
-1.27553 0.265537 -0.0021 0
-1.27553 0.265537 -0.0015 0
-1.27552 0.265533 -0.0015 0
-1.27552 0.265532 -0.0013 0
-1.27552 0.265532 -0.0013 0
-1.27552 0.265531 -0.0017 0
-1.27552 0.265531 -0.0017 0
-1.27564 0.265477 -0.0017 0
-1.27564 0.265476 -0.0012 0
-1.27564 0.265474 -0.0012 0
-1.27564 0.265473 -0.0013 0
-1.27564 0.265472 -0.0013 0
-1.27564 0.265471 -0.0017 0
-1.27564 0.265471 -0.0017 0
-1.27564 0.265471 -0.0017 0
-1.27564 0.265471 -0.0013 0
-1.27564 0.265471 -0.0015 0
-1.27564 0.26547 -0.0015 0
-1.27563 0.265469 -0.0015 0
-1.27563 0.265468 -0.0011 0
-1.27563 0.265467 -0.0011 0
-1.27563 0.265465 -0.0015 0
-1.27563 0.265464 -0.0016 0
-1.27563 0.265463 -0.0016 0
-1.27563 0.265461 -0.0014 0
-1.27563 0.265461 -0.0014 0
-1.27563 0.265459 -0.0013 0
-1.27563 0.265457 -0.0013 0
-1.27563 0.265456 -0.001 0
-1.27563 0.265456 -0.001 0
-1.27563 0.265455 -0.0014 0
-1.27562 0.265453 -0.0014 0
-1.27562 0.265452 -0.0014 0
-1.27562 0.265451 -0.0014 0
-1.27562 0.265451 -0.001 0
-1.27562 0.26545 -0.001 0
-1.27562 0.265449 -0.0011 0
-1.27562 0.265449 -0.0011 0
-1.27562 0.265448 -0.0014 0
-1.27562 0.265447 -0.0014 0
-1.27562 0.265447 -0.0011 0
-1.27562 0.265447 -0.0011 0
-1.27562 0.265446 -0.0016 0
-1.27562 0.265446 -0.0016 0
-1.27562 0.265445 -0.001 0
-1.27562 0.265444 -0.001 0
-1.27562 0.265444 -0.001 0
-1.27562 0.265444 -0.001 0
-1.27562 0.265444 -0.0015 0
-1.27562 0.265444 -0.0015 0
-1.27562 0.265443 -0.0015 0
-1.27562 0.265443 -0.0014 0
-1.27562 0.265442 -0.0014 0
-1.27561 0.265441 -0.001 0
-1.27561 0.265439 -0.001 0
-1.27561 0.265437 -0.0012 0
-1.27561 0.265437 -0.0012 0
-1.27561 0.265436 -0.0012 0
-1.27561 0.265436 -0.0011 0
-1.27561 0.265435 -0.0011 0
-1.27561 0.265435 -0.0011 0
-1.27561 0.265434 -0.0015 0
-1.27379 0.263043 -0.0015 0
-1.27561 0.265432 -0.0015 0
-1.2756 0.265432 -0.0015 0
-1.2756 0.265431 -0.0014 0
-1.2756 0.26543 -0.0014 0
-1.2756 0.26543 -0.0014 0
-1.2756 0.26543 -0.0017 0
-1.2756 0.265429 -0.0017 0
-1.2756 0.265428 -0.0011 0
-1.2756 0.265427 -0.0017 0
-1.2756 0.265427 -0.0017 0
-1.2756 0.265427 -0.0017 0
-1.2756 0.265426 -0.0018 0
-1.2756 0.265426 -0.0018 0
-1.2756 0.265425 -0.0018 0
-1.2756 0.265424 -0.0014 0
-1.2756 0.265423 -0.0014 0
-1.2756 0.265422 -0.0012 0
-1.2756 0.265421 -0.0012 0
-1.2756 0.26542 -0.0015 0
-1.2756 0.26542 -0.0015 0
-1.2756 0.265419 -0.0011 0
-1.2756 0.265419 -0.0011 0
-1.2756 0.265418 -0.0018 0
-1.2756 0.265418 -0.0018 0
-1.2756 0.265417 -0.0018 0
-1.27559 0.265417 -0.0012 0
-1.27559 0.265417 -0.0012 0
-1.27559 0.265416 -0.0014 0
-1.27559 0.265416 -0.0014 0
-1.27559 0.265415 -0.0014 0
-1.27559 0.265415 -0.0015 0
-1.27559 0.265415 -0.0015 0
-1.27559 0.265415 -0.0013 0
-1.27559 0.265414 -0.0013 0
-1.27559 0.265414 -0.0013 0
-1.27559 0.265413 -0.000900002 0
-1.27559 0.265413 -0.0013 0
-1.27559 0.265413 -0.0013 0
-1.27559 0.265413 -0.0013 0
-1.27377 0.263023 -0.0012 0
-1.27559 0.265413 -0.0012 0
-1.27558 0.265412 -0.0012 0
-1.27558 0.265412 -0.0012 0
-1.27558 0.265412 -0.0012 0
-1.27558 0.265411 -0.0013 0
-1.27558 0.26541 -0.0013 0
-1.27558 0.265409 -0.001 0
-1.27558 0.265408 -0.001 0
-1.27558 0.265408 -0.000800002 0
-1.27558 0.265407 -0.000800002 0
-1.27558 0.265407 -0.0011 0
-1.27558 0.265407 -0.0011 0
-1.27558 0.265407 -0.0011 0
-1.27558 0.265405 -0.0014 0
-1.27558 0.265404 -0.0011 0
-1.27558 0.265403 -0.0011 0
-1.27557 0.265402 -0.0011 0
-1.27497 0.264605 -0.0014 0
-1.27557 0.265401 -0.0014 0
-1.27557 0.265401 -0.0012 0
-1.27557 0.265401 -0.0012 0
-1.27557 0.265401 -0.0014 0
-1.27557 0.265401 -0.0014 0
-1.27557 0.265401 -0.0013 0
-1.27557 0.2654 -0.0013 0
-1.27557 0.265399 -0.0013 0
-1.27557 0.265398 -0.0011 0
-1.27557 0.265397 -0.0018 0
-1.27557 0.265395 -0.0018 0
-1.27557 0.265394 -0.0018 0
-1.27557 0.265393 -0.0012 0
-1.27557 0.265393 -0.0012 0
-1.27557 0.265393 -0.0017 0
-1.27376 0.263003 -0.0017 0
-1.27557 0.265392 -0.0017 0
-1.27557 0.265392 -0.0014 0
-1.27557 0.265391 -0.0014 0
-1.27557 0.265389 -0.0014 0
-1.27557 0.265387 -0.0015 0
-1.27557 0.265386 -0.0012 0
-1.27556 0.265384 -0.0012 0
-1.27556 0.265382 -0.0016 0
-1.27557 0.26538 -0.0016 0
-1.27556 0.265379 -0.0013 0
-1.27556 0.265379 -0.0013 0
-1.27556 0.265377 -0.0014 0
-1.27556 0.265376 -0.0014 0
-1.27556 0.265375 -0.0017 0
-1.27556 0.265374 -0.0017 0
-1.27556 0.265373 -0.0013 0
-1.27556 0.265372 -0.0013 0
-1.27556 0.26537 -0.0013 0
-1.27436 0.263776 -0.0019 0
-1.27556 0.265368 -0.0019 0
-1.27435 0.263775 -0.0016 0
-1.27556 0.265368 -0.0016 0
-1.27556 0.265367 -0.0013 0
-1.27556 0.265365 -0.0013 0
-1.27556 0.265364 -0.0018 0
-1.27556 0.265363 -0.0018 0
-1.27556 0.265361 -0.0018 0
-1.27544 0.265412 -0.000900002 0
-1.27544 0.265412 -0.0013 0
-1.27544 0.265411 -0.0013 0
-1.27544 0.265411 -0.0013 0
-1.27556 0.265359 -0.0014 0
-1.27556 0.265357 -0.0013 0
-1.27544 0.265409 -0.0013 0
-1.27544 0.265408 -0.0013 0
-1.27555 0.265354 -0.0012 0
-1.27555 0.265354 -0.0013 0
-1.27555 0.265354 -0.0013 0
-1.30033 0.298014 -0.0013 0
-1.27555 0.265355 -0.0015 0
-1.27494 0.264558 -0.0015 0
-1.27555 0.265354 -0.0015 0
-1.27555 0.265353 -0.0015 0
-1.27543 0.265405 -0.0012 0
-1.27543 0.265404 -0.0012 0
-1.27543 0.265403 -0.0014 0
-1.27543 0.265402 -0.0014 0
-1.27543 0.265402 -0.0012 0
-1.27543 0.265402 -0.0012 0
-1.27543 0.265402 -0.0015 0
-1.27543 0.265402 -0.0015 0
-1.27543 0.2654 -0.001 0
-1.27543 0.265399 -0.001 0
-1.27543 0.265399 -0.001 0
-1.27543 0.265396 -0.0015 0
-1.27543 0.265395 -0.0014 0
-1.27543 0.265393 -0.0014 0
-1.27543 0.265393 -0.0014 0
-1.27543 0.265392 -0.001 0
-1.27543 0.265391 -0.001 0
-1.27543 0.26539 -0.0016 0
-1.27543 0.265389 -0.0015 0
-1.27543 0.265389 -0.0015 0
-1.27542 0.265389 -0.0015 0
-1.27542 0.265389 -0.0016 0
-1.27542 0.265388 -0.0016 0
-1.27542 0.265387 -0.0012 0
-1.27542 0.265387 -0.0012 0
-1.27542 0.265386 -0.0012 0
-1.27542 0.265385 -0.0011 0
-1.27542 0.265384 -0.0011 0
-1.27542 0.265384 -0.0013 0
-1.27542 0.265383 -0.0013 0
-1.27542 0.265381 -0.0012 0
-1.27542 0.265381 -0.0012 0
-1.27542 0.26538 -0.001 0
-1.27542 0.26538 -0.001 0
-1.27542 0.26538 -0.001 0
-1.27542 0.26538 -0.0016 0
-1.27542 0.265379 -0.0016 0
-1.27542 0.265377 -0.0013 0
-1.27542 0.265376 -0.0013 0
-1.27541 0.265375 -0.0018 0
-1.27541 0.265374 -0.0018 0
-1.27553 0.26532 -0.0018 0
-1.27553 0.265317 -0.0014 0
-1.27432 0.263723 -0.0014 0
-1.27552 0.265315 -0.0014 0
-1.27552 0.265314 -0.0016 0
-1.27552 0.265312 -0.0016 0
-1.27552 0.265311 -0.0016 0
-1.27552 0.26531 -0.0013 0
-1.27552 0.265309 -0.0013 0
-1.27552 0.265308 -0.0015 0
-1.27541 0.265359 -0.0015 0
-1.27552 0.265305 -0.0015 0
-1.27431 0.263711 -0.0015 0
-1.2754 0.265355 -0.0015 0
-1.27552 0.265302 -0.0012 0
-1.27552 0.2653 -0.0012 0
-1.27552 0.265298 -0.001 0
-1.27552 0.265298 -0.001 0
-1.27551 0.265296 -0.0015 0
-1.27551 0.265296 -0.0015 0
-1.27551 0.265295 -0.0011 0
-1.27551 0.265294 -0.0011 0
-1.2754 0.265345 -0.0011 0
-1.2743 0.263699 -0.0011 0
-1.27551 0.265291 -0.0011 0
-1.27551 0.26529 -0.0015 0
-1.2754 0.26534 -0.0015 0
-1.27539 0.265339 -0.0013 0
-1.27539 0.265339 -0.0013 0
-1.27539 0.265338 -0.0014 0
-1.27539 0.265337 -0.0014 0
-1.27539 0.265336 -0.0014 0
-1.27539 0.265335 -0.000900002 0
-1.27539 0.265334 -0.000900002 0
-1.27539 0.265334 -0.0014 0
-1.27539 0.265334 -0.0014 0
-1.27539 0.265333 -0.0017 0
-1.27539 0.265333 -0.0017 0
-1.27539 0.265332 -0.001 0
-1.27539 0.265331 -0.001 0
-1.27539 0.26533 -0.0018 0
-1.27539 0.265331 -0.0018 0
-1.27539 0.265331 -0.0014 0
-1.27539 0.265331 -0.0014 0
-1.27539 0.26533 -0.0018 0
-1.27539 0.265329 -0.0018 0
-1.27539 0.265328 -0.0012 0
-1.27539 0.265327 -0.0016 0
-1.27539 0.265326 -0.0016 0
-1.27539 0.265325 -0.0016 0
-1.27539 0.265323 -0.0016 0
-1.27538 0.26532 -0.0016 0
-1.27538 0.265319 -0.000900002 0
-1.27538 0.265318 -0.000900002 0
-1.27538 0.265317 -0.0013 0
-1.27538 0.265315 -0.0014 0
-1.27538 0.265313 -0.0014 0
-1.27538 0.265312 -0.0014 0
-1.27538 0.265312 -0.0015 0
-1.27538 0.26531 -0.0015 0
-1.27538 0.265308 -0.0011 0
-1.27538 0.265307 -0.0011 0
-1.27538 0.265305 -0.0016 0
-1.27538 0.265304 -0.0016 0
-1.27538 0.265303 -0.0016 0
-1.27538 0.265301 -0.0016 0
-1.27537 0.2653 -0.001 0
-1.27537 0.265298 -0.001 0
-1.27537 0.265297 -0.0016 0
-1.27537 0.265296 -0.0016 0
-1.27537 0.265295 -0.001 0
-1.27537 0.265293 -0.0015 0
-1.27537 0.265291 -0.0015 0
-1.27537 0.26529 -0.0015 0
-1.27537 0.265288 -0.0014 0
-1.27537 0.265286 -0.0014 0
-1.27537 0.265285 -0.0014 0
-1.27537 0.265284 -0.0014 0
-1.27537 0.265283 -0.0016 0
-1.27537 0.265282 -0.0016 0
-1.27537 0.265281 -0.0016 0
-1.27537 0.26528 -0.0019 0
-1.27537 0.26528 -0.0019 0
-1.27537 0.265279 -0.0014 0
-1.27537 0.265278 -0.0014 0
-1.27537 0.265278 -0.0013 0
-1.27537 0.265276 -0.0013 0
-1.27537 0.265274 -0.0018 0
-1.27537 0.265273 -0.0018 0
-1.27537 0.265271 -0.0015 0
-1.27536 0.265268 -0.0015 0
-1.27536 0.265268 -0.0018 0
-1.27536 0.265267 -0.0018 0
-1.27536 0.265267 -0.0013 0
-1.27536 0.265267 -0.0013 0
-1.27536 0.265267 -0.0013 0
-1.27536 0.265266 -0.0013 0
-1.27536 0.265266 -0.0012 0
-1.27536 0.265264 -0.0012 0
-1.27536 0.265263 -0.0012 0
-1.27536 0.265262 -0.0015 0
-1.27535 0.26526 -0.0015 0
-1.27535 0.265258 -0.0019 0
-1.27535 0.265258 -0.0019 0
-1.27535 0.265258 -0.0013 0
-1.27535 0.265258 -0.0013 0
-1.27535 0.265258 -0.0014 0
-1.27535 0.265258 -0.0014 0
-1.27535 0.265257 -0.0014 0
-1.27535 0.265257 -0.0013 0
-1.27535 0.265256 -0.0013 0
-1.27535 0.265256 -0.0013 0
-1.27535 0.265255 -0.000600002 0
-1.27535 0.265253 -0.001 0
-1.27535 0.265252 -0.001 0
-1.27535 0.265251 -0.0011 0
-1.27535 0.265251 -0.0011 0
-1.27534 0.26525 -0.0011 0
-1.27534 0.265249 -0.0013 0
-1.27534 0.265249 -0.0013 0
-1.27534 0.265248 -0.0012 0
-1.27534 0.265248 -0.0012 0
-1.27534 0.265248 -0.0012 0
-1.27534 0.265247 -0.0017 0
-1.27534 0.265247 -0.0017 0
-1.27534 0.265245 -0.0015 0
-1.27534 0.265242 -0.0015 0
-1.27533 0.265241 -0.0015 0
-1.27533 0.26524 -0.0015 0
-1.27533 0.265239 -0.0015 0
-1.27533 0.265238 -0.0014 0
-1.27533 0.265237 -0.0014 0
-1.27533 0.265236 -0.0015 0
-1.27533 0.265235 -0.0015 0
-1.27533 0.265234 -0.0015 0
-1.27533 0.265232 -0.001 0
-1.27533 0.265232 -0.0014 0
-1.27533 0.265231 -0.0014 0
-1.27533 0.26523 -0.0015 0
-1.27533 0.265229 -0.0015 0
-1.27533 0.265227 -0.0015 0
-1.27533 0.265225 -0.0018 0
-1.27533 0.265221 -0.0018 0
-1.27533 0.265219 -0.0013 0
-1.27533 0.265218 -0.0013 0
-1.27533 0.265216 -0.0013 0
-1.27533 0.265215 -0.0013 0
-1.27533 0.265214 -0.0013 0
-1.27533 0.265211 -0.0013 0
-1.27533 0.26521 -0.0015 0
-1.27533 0.265208 -0.0015 0
-1.27533 0.265206 -0.0015 0
-1.27533 0.265204 -0.0015 0
-1.27533 0.265202 -0.0015 0
-1.27533 0.265202 -0.000800002 0
-1.27533 0.265201 -0.000800002 0
-1.27533 0.265201 -0.0012 0
-1.27533 0.2652 -0.0012 0
-1.27472 0.264402 -0.0012 0
-1.27532 0.265197 -0.0014 0
-1.27532 0.265196 -0.0014 0
-1.27532 0.265196 -0.0014 0
-1.27532 0.265195 -0.0014 0
-1.27532 0.265193 -0.0016 0
-1.27532 0.265192 -0.0016 0
-1.27532 0.265191 -0.0014 0
-1.27532 0.265189 -0.0014 0
-1.27532 0.265187 -0.0014 0
-1.27532 0.265187 -0.0014 0
-1.27532 0.265186 -0.000800002 0
-1.27532 0.265186 -0.000800002 0
-1.27532 0.265185 -0.000800002 0
-1.27411 0.26359 -0.0014 0
-1.27532 0.265182 -0.0014 0
-1.27532 0.265181 -0.0013 0
-1.27532 0.265181 -0.0013 0
-1.27532 0.26518 -0.0013 0
-1.27532 0.265179 -0.0015 0
-1.27532 0.265178 -0.0015 0
-1.27532 0.265178 -0.000900002 0
-1.27532 0.265176 -0.000900002 0
-1.27532 0.265176 -0.0011 0
-1.27531 0.265175 -0.0011 0
-1.27531 0.265174 -0.001 0
-1.27531 0.265174 -0.001 0
-1.27531 0.265173 -0.001 0
-1.27531 0.265173 -0.0015 0
-1.27531 0.265172 -0.0015 0
-1.27471 0.264374 -0.0011 0
-1.27471 0.264374 -0.0011 0
-1.27531 0.26517 -0.0011 0
-1.27531 0.265169 -0.0012 0
-1.26806 0.255608 -0.0016 0
-1.27531 0.265166 -0.0016 0
-1.27531 0.265165 -0.0016 0
-1.27531 0.265164 -0.0011 0
-1.27531 0.265164 -0.0011 0
-1.27531 0.265163 -0.0015 0
-1.27531 0.265162 -0.0015 0
-1.27531 0.265161 -0.0013 0
-1.27543 0.265108 -0.0013 0
-1.27543 0.265108 -0.000900001 0
-1.27543 0.265107 -0.000900001 0
-1.27543 0.265106 -0.000900001 0
-1.27543 0.265106 -0.0015 0
-1.27543 0.265105 -0.0015 0
-1.27543 0.265106 -0.000900001 0
-1.27542 0.265105 -0.000900001 0
-1.27542 0.265104 -0.001 0
-1.27542 0.265104 -0.001 0
-1.27542 0.265103 -0.0012 0
-1.27542 0.265102 -0.0012 0
-1.27531 0.265154 -0.0012 0
-1.27531 0.265154 -0.0015 0
-1.27531 0.265153 -0.0015 0
-1.27531 0.265151 -0.0017 0
-1.27542 0.265096 -0.0017 0
-1.27542 0.265095 -0.0014 0
-1.27531 0.265147 -0.0014 0
-1.2753 0.265146 -0.0015 0
-1.27349 0.262754 -0.0015 0
-1.2753 0.265144 -0.0015 0
-1.2753 0.265142 -0.0015 0
-1.2753 0.265141 -0.0021 0
-1.2753 0.265139 -0.0021 0
-1.2753 0.265138 -0.0019 0
-1.2753 0.265137 -0.000900001 0
-1.2753 0.265136 -0.000900001 0
-1.2753 0.265135 -0.000900001 0
-1.2753 0.265134 -0.0015 0
-1.2753 0.265134 -0.0017 0
-1.2753 0.265134 -0.0017 0
-1.2753 0.265133 -0.0017 0
-1.2753 0.265132 -0.0015 0
-1.2753 0.26513 -0.0014 0
-1.2753 0.26513 -0.0014 0
-1.27529 0.265129 -0.0017 0
-1.27529 0.265129 -0.0017 0
-1.27529 0.265128 -0.0011 0
-1.27529 0.265128 -0.0011 0
-1.27529 0.265128 -0.0011 0
-1.27529 0.265127 -0.0018 0
-1.27529 0.265126 -0.0013 0
-1.27529 0.265126 -0.0013 0
-1.27529 0.265126 -0.0013 0
-1.2754 0.265072 -0.0011 0
-1.2754 0.26507 -0.0012 0
-1.2754 0.26507 -0.0012 0
-1.2754 0.265069 -0.0015 0
-1.2754 0.26507 -0.0015 0
-1.2754 0.26507 -0.0011 0
-1.2754 0.26507 -0.0011 0
-1.2754 0.265071 -0.0014 0
-1.2754 0.26507 -0.0013 0
-1.2754 0.26507 -0.0013 0
-1.2754 0.26507 -0.0013 0
-1.27539 0.265067 -0.0013 0
-1.27539 0.265066 -0.0013 0
-1.27539 0.265065 -0.0013 0
-1.25121 0.233201 -0.0013 0
-1.27539 0.265065 -0.0012 0
-1.27539 0.265064 -0.0012 0
-1.27539 0.265064 -0.0016 0
-1.27539 0.265063 -0.0016 0
-1.27539 0.265062 -0.0016 0
-1.27539 0.265061 -0.0013 0
-1.27539 0.265061 -0.0013 0
-1.27539 0.265059 -0.0017 0
-1.27539 0.265059 -0.0017 0
-1.27539 0.265058 -0.0012 0
-1.27539 0.265056 -0.0012 0
-1.27539 0.265056 -0.0014 0
-1.27539 0.265053 -0.0014 0
-1.27539 0.265051 -0.0014 0
-1.27539 0.26505 -0.0014 0
-1.27539 0.265048 -0.0013 0
-1.27539 0.265046 -0.0013 0
-1.27539 0.265045 -0.0013 0
-1.27538 0.265044 -0.0013 0
-1.27538 0.265043 -0.0013 0
-1.27538 0.265043 -0.0014 0
-1.27538 0.265041 -0.0014 0
-1.27538 0.26504 -0.0014 0
-1.27538 0.26504 -0.0014 0
-1.27538 0.265039 -0.0015 0
-1.27538 0.265039 -0.0015 0
-1.27538 0.265037 -0.0015 0
-1.27538 0.265036 -0.000800001 0
-1.27538 0.265035 -0.000800001 0
-1.27537 0.265034 -0.0016 0
-1.27537 0.265034 -0.0016 0
-1.27537 0.265034 -0.0016 0
-1.27537 0.265033 -0.0011 0
-1.27537 0.265032 -0.0011 0
-1.27537 0.265032 -0.0012 0
-1.27537 0.26503 -0.0012 0
-1.27537 0.265029 -0.0012 0
-1.27537 0.265027 -0.0012 0
-1.27536 0.265026 -0.0016 0
-1.27536 0.265025 -0.0016 0
-1.27536 0.265024 -0.0016 0
-1.27536 0.265022 -0.0014 0
-1.27536 0.265021 -0.000900001 0
-1.27536 0.265021 -0.000900001 0
-1.27536 0.26502 -0.0013 0
-1.27536 0.265019 -0.0013 0
-1.27536 0.265019 -0.0013 0
-1.27536 0.265019 -0.0013 0
-1.27535 0.265019 -0.0012 0
-1.27354 0.262629 -0.0012 0
-1.27535 0.265019 -0.0017 0
-1.27535 0.265016 -0.0017 0
-1.27535 0.265015 -0.0012 0
-1.27535 0.265015 -0.0012 0
-1.27414 0.263421 -0.0016 0
-1.27535 0.265012 -0.0016 0
-1.27535 0.265012 -0.0015 0
-1.27535 0.265011 -0.0015 0
-1.27535 0.265011 -0.000700001 0
-1.27535 0.26501 -0.000700001 0
-1.27535 0.265009 -0.0013 0
-1.27535 0.265008 -0.0013 0
-1.27523 0.265059 -0.0014 0
-1.27523 0.265055 -0.0014 0
-1.27523 0.265054 -0.0016 0
-1.27523 0.265054 -0.0016 0
-1.27523 0.265052 -0.0016 0
-1.27534 0.264998 -0.0016 0
-1.27534 0.264995 -0.0012 0
-1.27534 0.264994 -0.0012 0
-1.27534 0.264993 -0.0015 0
-1.27534 0.26499 -0.0015 0
-1.27353 0.262599 -0.0014 0
-1.27534 0.264988 -0.0014 0
-1.27534 0.264988 -0.0013 0
-1.27534 0.264987 -0.0013 0
-1.27534 0.264988 -0.0013 0
-1.26808 0.255429 -0.0014 0
-1.27534 0.264987 -0.0014 0
-1.27522 0.265039 -0.0015 0
-1.27522 0.265039 -0.0015 0
-1.27534 0.264985 -0.0015 0
-1.27534 0.264984 -0.0012 0
-1.27534 0.264983 -0.0012 0
-1.27534 0.264983 -0.0012 0
-1.27533 0.264982 -0.0012 0
-1.27533 0.264981 -0.0015 0
-1.27533 0.26498 -0.0015 0
-1.27533 0.264978 -0.001 0
-1.27533 0.264977 -0.001 0
-1.27533 0.264976 -0.0011 0
-1.27533 0.264975 -0.0011 0
-1.27533 0.264973 -0.0013 0
-1.27533 0.264973 -0.0013 0
-1.27533 0.264972 -0.000800001 0
-1.27533 0.264971 -0.000800001 0
-1.27522 0.265021 -0.0014 0
-1.27522 0.265019 -0.0014 0
-1.27521 0.265018 -0.0014 0
-1.27521 0.265018 -0.0014 0
-1.27533 0.264964 -0.001 0
-1.27521 0.265016 -0.001 0
-1.27521 0.265016 -0.0015 0
-1.27521 0.265014 -0.0015 0
-1.27521 0.265013 -0.0015 0
-1.27532 0.264959 -0.0015 0
-1.27532 0.264959 -0.0012 0
-1.27532 0.264957 -0.0015 0
-1.27532 0.264955 -0.0015 0
-1.27532 0.264954 -0.0015 0
-1.27532 0.264953 -0.001 0
-1.27532 0.264952 -0.0013 0
-1.27532 0.264951 -0.0013 0
-1.27531 0.26495 -0.0013 0
-1.27531 0.264949 -0.0016 0
-1.27531 0.264948 -0.0013 0
-1.27531 0.264948 -0.0013 0
-1.27531 0.264948 -0.0013 0
-1.2752 0.265 -0.0013 0
-1.2752 0.264997 -0.0014 0
-1.27519 0.264997 -0.0014 0
-1.27519 0.264996 -0.0017 0
-1.27519 0.264994 -0.0011 0
-1.27519 0.264993 -0.0011 0
-1.27519 0.264992 -0.0011 0
-1.27519 0.264992 -0.0016 0
-1.27519 0.264991 -0.0016 0
-1.27519 0.264991 -0.0013 0
-1.27519 0.264989 -0.0013 0
-1.27519 0.264987 -0.0018 0
-1.27519 0.264986 -0.0018 0
-1.27518 0.264984 -0.0014 0
-1.2753 0.264929 -0.0014 0
-1.2753 0.264929 -0.0014 0
-1.2753 0.264927 -0.0012 0
-1.2753 0.264926 -0.0011 0
-1.2753 0.264925 -0.0011 0
-1.2753 0.264924 -0.0011 0
-1.27529 0.264922 -0.0012 0
-1.27529 0.26492 -0.0019 0
-1.27529 0.264918 -0.0019 0
-1.27529 0.264917 -0.0019 0
-1.27529 0.264917 -0.0017 0
-1.27529 0.264916 -0.0015 0
-1.27529 0.264915 -0.0015 0
-1.27529 0.264915 -0.0015 0
-1.27529 0.264915 -0.001 0
-1.27529 0.264914 -0.000900001 0
-1.27529 0.264914 -0.000900001 0
-1.27529 0.264914 -0.000900001 0
-1.27529 0.264913 -0.0011 0
-1.27529 0.264913 -0.0014 0
-1.27529 0.264913 -0.0014 0
-1.27529 0.264913 -0.0014 0
-1.27529 0.26491 -0.0019 0
-1.27529 0.264909 -0.0014 0
-1.27529 0.264908 -0.0014 0
-1.27518 0.264958 -0.0012 0
-1.27518 0.264957 -0.0012 0
-1.27517 0.264956 -0.001 0
-1.27517 0.264955 -0.001 0
-1.27517 0.264954 -0.0015 0
-1.27517 0.264953 -0.0015 0
-1.27517 0.264952 -0.000900001 0
-1.27517 0.264952 -0.000900001 0
-1.27517 0.26495 -0.0016 0
-1.27396 0.263356 -0.0016 0
-1.27517 0.264948 -0.0016 0
-1.27517 0.264947 -0.0016 0
-1.27517 0.264945 -0.000800001 0
-1.27517 0.264945 -0.000800001 0
-1.27517 0.264946 -0.001 0
-1.27517 0.264944 -0.001 0
-1.27528 0.26489 -0.0016 0
-1.27528 0.26489 -0.0016 0
-1.27528 0.264889 -0.0018 0
-1.27528 0.264889 -0.0018 0
-1.27528 0.264889 -0.0018 0
-1.27528 0.264888 -0.0014 0
-1.27528 0.264888 -0.0014 0
-1.27528 0.264887 -0.0017 0
-1.27528 0.264886 -0.0017 0
-1.27528 0.264885 -0.0019 0
-1.27527 0.264885 -0.0019 0
-1.27527 0.264884 -0.0014 0
-1.27527 0.264883 -0.0014 0
-1.27516 0.264935 -0.0014 0
-1.27527 0.264881 -0.0013 0
-1.27527 0.26488 -0.0018 0
-1.27527 0.26488 -0.0018 0
-1.27527 0.264879 -0.0018 0
-1.27527 0.264879 -0.0014 0
-1.27527 0.264878 -0.0014 0
-1.27527 0.264877 -0.0017 0
-1.27527 0.264877 -0.0017 0
-1.27527 0.264876 -0.0017 0
-1.27515 0.264926 -0.0016 0
-1.27515 0.264926 -0.0013 0
-1.27515 0.264925 -0.0013 0
-1.27515 0.264924 -0.0013 0
-1.27515 0.264922 -0.0016 0
-1.27515 0.264919 -0.0011 0
-1.27515 0.264918 -0.0011 0
-1.27515 0.264917 -0.0011 0
-1.27515 0.264917 -0.0012 0
-1.27515 0.264917 -0.0012 0
-1.27515 0.264916 -0.0016 0
-1.27515 0.264915 -0.0016 0
-1.27515 0.264914 -0.0016 0
-1.27515 0.264913 -0.0014 0
-1.27514 0.264912 -0.0014 0
-1.27514 0.264911 -0.0014 0
-1.27333 0.262521 -0.0014 0
-1.27514 0.264911 -0.0014 0
-1.27514 0.26491 -0.0012 0
-1.27514 0.264909 -0.0012 0
-1.27514 0.264908 -0.0016 0
-1.27514 0.264904 -0.0016 0
-1.27393 0.263309 -0.0012 0
-1.27514 0.264901 -0.0012 0
-1.27514 0.264899 -0.0014 0
-1.27514 0.264897 -0.0014 0
-1.27514 0.264896 -0.0012 0
-1.27514 0.264895 -0.0012 0
-1.27514 0.264894 -0.0014 0
-1.27514 0.264893 -0.0014 0
-1.268 0.25528 -0.0014 0
-1.27525 0.264839 -0.0014 0
-1.27525 0.264837 -0.0018 0
-1.27525 0.264837 -0.0018 0
-1.27525 0.264835 -0.0015 0
-1.27525 0.264835 -0.0015 0
-1.27514 0.264886 -0.0011 0
-1.27514 0.264885 -0.0011 0
-1.27525 0.264832 -0.002 0
-1.27525 0.264831 -0.002 0
-1.27525 0.264828 -0.000700001 0
-1.27525 0.264827 -0.000700001 0
-1.27525 0.264826 -0.0012 0
-1.27525 0.264825 -0.0014 0
-1.27525 0.264824 -0.0014 0
-1.27525 0.264823 -0.0014 0
-1.27525 0.264823 -0.0013 0
-1.27524 0.264822 -0.0011 0
-1.27524 0.26482 -0.0011 0
-1.27524 0.264819 -0.0011 0
-1.27524 0.264818 -0.0013 0
-1.27524 0.264817 -0.000900001 0
-1.27524 0.264816 -0.000900001 0
-1.27513 0.264867 -0.000900001 0
-1.27513 0.264866 -0.0017 0
-1.27524 0.264812 -0.0017 0
-1.27524 0.264811 -0.0011 0
-1.27584 0.265606 -0.0011 0
-1.27513 0.26486 -0.0011 0
-1.27512 0.264859 -0.0014 0
-1.27512 0.264857 -0.0016 0
-1.27512 0.264856 -0.0016 0
-1.27512 0.264855 -0.0016 0
-1.27512 0.264855 -0.0013 0
-1.27512 0.264854 -0.0013 0
-1.27512 0.264851 -0.0016 0
-1.27512 0.26485 -0.0016 0
-1.27512 0.26485 -0.0013 0
-1.27512 0.26485 -0.0013 0
-1.27512 0.264851 -0.0018 0
-1.27512 0.264851 -0.0018 0
-1.27512 0.26485 -0.0018 0
-1.27511 0.264849 -0.001 0
-1.27511 0.26485 -0.001 0
-1.27511 0.264849 -0.001 0
-1.27511 0.264849 -0.0015 0
-1.27511 0.264848 -0.0015 0
-1.27511 0.264846 -0.0012 0
-1.27511 0.264845 -0.0012 0
-1.27511 0.264845 -0.0014 0
-1.2745 0.264047 -0.0013 0
-1.27511 0.264843 -0.0013 0
-1.27511 0.264842 -0.0013 0
-1.27511 0.264841 -0.0017 0
-1.2751 0.26484 -0.0017 0
-1.2751 0.264838 -0.0013 0
-1.2751 0.264838 -0.0013 0
-1.2751 0.264837 -0.0013 0
-1.2751 0.264837 -0.0012 0
-1.2751 0.264834 -0.0012 0
-1.2751 0.264833 -0.0012 0
-1.2751 0.264831 -0.0012 0
-1.2751 0.26483 -0.001 0
-1.2751 0.26483 -0.001 0
-1.2751 0.26483 -0.0015 0
-1.27509 0.26483 -0.0015 0
-1.27509 0.264829 -0.000900001 0
-1.27509 0.264828 -0.000900001 0
-1.27509 0.264828 -0.001 0
-1.27509 0.264829 -0.001 0
-1.27509 0.264828 -0.001 0
-1.27509 0.264827 -0.002 0
-1.27509 0.264826 -0.000900001 0
-1.27449 0.264028 -0.000900001 0
-1.27509 0.264824 -0.000900001 0
-1.27509 0.264823 -0.0015 0
-1.27509 0.264822 -0.0015 0
-1.27509 0.26482 -0.001 0
-1.27509 0.264819 -0.001 0
-1.27388 0.263223 -0.001 0
-1.27508 0.264816 -0.001 0
-1.27508 0.264815 -0.001 0
-1.27448 0.264017 -0.001 0
-1.27508 0.264812 -0.001 0
-1.27508 0.264811 -0.0014 0
-1.27508 0.26481 -0.0017 0
-1.29986 0.297474 -0.0017 0
-1.27508 0.264809 -0.0017 0
-1.27508 0.264809 -0.0011 0
-1.27508 0.264809 -0.0011 0
-1.27508 0.264808 -0.0012 0
-1.27508 0.264808 -0.0012 0
-1.27508 0.264808 -0.0012 0
-1.27508 0.264806 -0.0013 0
-1.27508 0.264805 -0.0016 0
-1.27508 0.264804 -0.0016 0
-1.27508 0.264803 -0.0016 0
-1.27508 0.264802 -0.0012 0
-1.27508 0.264802 -0.0012 0
-1.27508 0.264801 -0.0013 0
-1.27519 0.264746 -0.0013 0
-1.27519 0.264746 -0.0016 0
-1.27519 0.264745 -0.0016 0
-1.29997 0.297404 -0.0018 0
-1.27519 0.264742 -0.0018 0
-1.27519 0.264741 -0.0012 0
-1.27519 0.26474 -0.0012 0
-1.27519 0.264738 -0.0013 0
-1.27519 0.264737 -0.0013 0
-1.27518 0.264736 -0.0018 0
-1.27398 0.263143 -0.0018 0
-1.27518 0.264734 -0.0011 0
-1.27518 0.264732 -0.0011 0
-1.27518 0.264732 -0.0012 0
-1.27507 0.264784 -0.0012 0
-1.27507 0.264783 -0.0021 0
-1.27507 0.264783 -0.0021 0
-1.27507 0.264782 -0.0021 0
-1.27507 0.264781 -0.0018 0
-1.27507 0.26478 -0.0018 0
-1.27507 0.264779 -0.0012 0
-1.27507 0.264778 -0.0012 0
-1.27507 0.264776 -0.0011 0
-1.27507 0.264775 -0.0011 0
-1.27507 0.264774 -0.0015 0
-1.27507 0.264773 -0.0015 0
-1.27507 0.264773 -0.0015 0
-1.27507 0.264772 -0.000800002 0
-1.27507 0.26477 -0.000800002 0
-1.27446 0.263971 -0.0012 0
-1.27507 0.264766 -0.0012 0
-1.27507 0.264765 -0.0021 0
-1.27507 0.264764 -0.0021 0
-1.27507 0.264764 -0.000600002 0
-1.27507 0.264763 -0.000600002 0
-1.27507 0.264761 -0.0012 0
-1.27507 0.26476 -0.0012 0
-1.27507 0.264759 -0.0017 0
-1.27507 0.264759 -0.0017 0
-1.27506 0.264756 -0.0012 0
-1.27506 0.264755 -0.0012 0
-1.27506 0.264754 -0.000700002 0
-1.27506 0.264754 -0.000700002 0
-1.27518 0.264699 -0.0011 0
-1.27506 0.26475 -0.0011 0
-1.27506 0.264749 -0.002 0
-1.27518 0.264696 -0.002 0
-1.27517 0.264695 -0.001 0
-1.27517 0.264695 -0.001 0
-1.27517 0.264696 -0.0012 0
-1.27517 0.264695 -0.0012 0
-1.27336 0.262304 -0.0013 0
-1.27517 0.264693 -0.0013 0
-1.27517 0.264693 -0.0012 0
-1.27457 0.263896 -0.0012 0
-1.27517 0.264692 -0.0012 0
-1.27517 0.264691 -0.0015 0
-1.27517 0.264692 -0.0015 0
-1.27517 0.264693 -0.0011 0
-1.27517 0.264693 -0.0011 0
-1.27516 0.264692 -0.0011 0
-1.27516 0.264691 -0.0011 0
-1.27516 0.264691 -0.0015 0
-1.27516 0.26469 -0.0015 0
-1.27516 0.264688 -0.0015 0
-1.27505 0.26474 -0.001 0
-1.27505 0.26474 -0.001 0
-1.27504 0.264738 -0.0012 0
-1.27504 0.264737 -0.0012 0
-1.27504 0.264737 -0.0016 0
-1.27444 0.26394 -0.0016 0
-1.27504 0.264736 -0.0017 0
-1.27504 0.264735 -0.0017 0
-1.27504 0.264734 -0.0017 0
-1.27504 0.264733 -0.0015 0
-1.27504 0.264733 -0.0015 0
-1.27504 0.264731 -0.0015 0
-1.27504 0.264731 -0.0015 0
-1.27504 0.26473 -0.0015 0
-1.27504 0.264729 -0.0015 0
-1.27504 0.264729 -0.0013 0
-1.27504 0.264728 -0.0013 0
-1.27504 0.264727 -0.0013 0
-1.27504 0.264726 -0.0017 0
-1.27504 0.264725 -0.001 0
-1.27504 0.264725 -0.001 0
-1.27504 0.264725 -0.001 0
-1.27515 0.264671 -0.0017 0
-1.27516 0.264671 -0.001 0
-1.27515 0.264671 -0.001 0
-1.27515 0.264671 -0.001 0
-1.27515 0.26467 -0.0015 0
-1.27515 0.264669 -0.0012 0
-1.27504 0.264721 -0.0012 0
-1.27504 0.264721 -0.0012 0
-1.27515 0.264667 -0.0014 0
-1.27515 0.264667 -0.0015 0
-1.27515 0.264665 -0.0015 0
-1.27515 0.264665 -0.0013 0
-1.27515 0.264664 -0.0013 0
-1.27504 0.264716 -0.0015 0
-1.27504 0.264715 -0.0015 0
-1.27504 0.264714 -0.0012 0
-1.27504 0.264713 -0.0012 0
-1.27515 0.264659 -0.000900001 0
-1.27504 0.264711 -0.000900001 0
-1.27504 0.26471 -0.0015 0
-1.27504 0.264709 -0.0015 0
-1.27504 0.264709 -0.0015 0
-1.27504 0.264707 -0.0015 0
-1.27504 0.264706 -0.0015 0
-1.27323 0.262315 -0.0015 0
-1.27504 0.264705 -0.0015 0
-1.27504 0.264705 -0.0011 0
-1.27504 0.264704 -0.0011 0
-1.27503 0.264703 -0.0018 0
-1.27503 0.264703 -0.0018 0
-1.27503 0.264702 -0.000700001 0
-1.27503 0.264701 -0.000700001 0
-1.27503 0.264699 -0.0013 0
-1.27503 0.264699 -0.0013 0
-1.27503 0.264698 -0.0019 0
-1.27503 0.264698 -0.0019 0
-1.27503 0.264697 -0.0019 0
-1.27503 0.264696 -0.000900001 0
-1.27503 0.264695 -0.0017 0
-1.27503 0.264695 -0.0017 0
-1.27503 0.264694 -0.0017 0
-1.27503 0.264694 -0.0016 0
-1.27514 0.26464 -0.0016 0
-1.27514 0.264638 -0.0012 0
-1.27514 0.264637 -0.0012 0
-1.27514 0.264635 -0.0012 0
-1.27514 0.264634 -0.0015 0
-1.27514 0.264633 -0.0011 0
-1.27514 0.264632 -0.0011 0
-1.27514 0.264631 -0.0011 0
-1.27514 0.264629 -0.0013 0
-1.27514 0.264628 -0.0013 0
-1.27514 0.264627 -0.0012 0
-1.27514 0.264626 -0.0012 0
-1.27513 0.264625 -0.0013 0
-1.27513 0.264624 -0.0013 0
-1.27513 0.264623 -0.0016 0
-1.27513 0.264622 -0.0016 0
-1.27513 0.264621 -0.0016 0
-1.27332 0.262231 -0.001 0
-1.27513 0.264619 -0.001 0
-1.27513 0.264618 -0.0014 0
-1.27513 0.264618 -0.0014 0
-1.27513 0.264617 -0.0016 0
-1.27513 0.264616 -0.0016 0
-1.27513 0.264615 -0.0014 0
-1.27513 0.264614 -0.0014 0
-1.27513 0.264614 -0.0014 0
-1.27501 0.264666 -0.0017 0
-1.27441 0.263869 -0.000900001 0
-1.27501 0.264665 -0.000900001 0
-1.27501 0.264663 -0.000900001 0
-1.27501 0.264662 -0.0017 0
-1.27501 0.264661 -0.0017 0
-1.27501 0.264659 -0.0013 0
-1.27501 0.264657 -0.0013 0
-1.27512 0.264604 -0.0013 0
-1.27512 0.264603 -0.0016 0
-1.27501 0.264656 -0.0015 0
-1.275 0.264655 -0.0015 0
-1.275 0.264654 -0.0015 0
-1.275 0.264654 -0.0012 0
-1.275 0.264654 -0.0012 0
-1.27319 0.262262 -0.0014 0
-1.275 0.264651 -0.0014 0
-1.275 0.264649 -0.0015 0
-1.275 0.264648 -0.0015 0
-1.275 0.264647 -0.0012 0
-1.275 0.264646 -0.0012 0
-1.275 0.264645 -0.0018 0
-1.275 0.264644 -0.0018 0
-1.275 0.264643 -0.0012 0
-1.275 0.264642 -0.0012 0
-1.27499 0.264641 -0.0012 0
-1.27499 0.264639 -0.0011 0
-1.27499 0.264638 -0.0015 0
-1.27499 0.264636 -0.0015 0
-1.27499 0.264635 -0.0015 0
-1.27499 0.264634 -0.0012 0
-1.27499 0.264634 -0.0012 0
-1.27499 0.264633 -0.0017 0
-1.27499 0.264632 -0.0017 0
-1.27499 0.264632 -0.0013 0
-1.27499 0.264631 -0.0013 0
-1.27499 0.264631 -0.0013 0
-1.27499 0.26463 -0.0013 0
-1.27499 0.264629 -0.0013 0
-1.27499 0.264628 -0.0013 0
-1.27499 0.264627 -0.0013 0
-1.27499 0.264626 -0.0015 0
-1.27499 0.264625 -0.0015 0
-1.27499 0.264624 -0.0014 0
-1.27499 0.264623 -0.0014 0
-1.27499 0.264623 -0.0014 0
-1.27499 0.264622 -0.0014 0
-1.27499 0.26462 -0.0014 0
-1.27499 0.264619 -0.0015 0
-1.27499 0.264618 -0.0015 0
-1.27499 0.264616 -0.0012 0
-1.27499 0.264616 -0.0012 0
-1.27499 0.264615 -0.0011 0
-1.27499 0.264614 -0.0011 0
-1.27499 0.264613 -0.0021 0
-1.27499 0.264611 -0.0021 0
-1.27499 0.26461 -0.0015 0
-1.27499 0.264609 -0.0015 0
-1.27499 0.264607 -0.0012 0
-1.27499 0.264606 -0.0012 0
-1.27499 0.264605 -0.0015 0
-1.27498 0.264605 -0.0015 0
-1.27329 0.262162 -0.000900001 0
-1.2751 0.264552 -0.000900001 0
-1.27498 0.264604 -0.0014 0
-1.27498 0.264604 -0.0014 0
-1.27498 0.264603 -0.0013 0
-1.27498 0.264602 -0.0013 0
-1.27498 0.264601 -0.0013 0
-1.27498 0.2646 -0.0016 0
-1.27498 0.2646 -0.0016 0
-1.27498 0.2646 -0.0014 0
-1.27498 0.264599 -0.0014 0
-1.27498 0.264598 -0.0012 0
-1.27498 0.264597 -0.0012 0
-1.27498 0.264595 -0.0015 0
-1.27498 0.264594 -0.0015 0
-1.27498 0.264594 -0.0012 0
-1.27498 0.264594 -0.0012 0
-1.27498 0.264592 -0.0016 0
-1.27498 0.264591 -0.0016 0
-1.27498 0.264591 -0.0013 0
-1.27498 0.26459 -0.0015 0
-1.27498 0.264589 -0.0015 0
-1.27498 0.264589 -0.0015 0
-1.27498 0.264588 -0.001 0
-1.27498 0.264588 -0.001 0
-1.27497 0.264588 -0.0011 0
-1.27497 0.264588 -0.0016 0
-1.27497 0.264587 -0.0016 0
-1.27316 0.262196 -0.0016 0
-1.27497 0.264583 -0.0015 0
-1.27497 0.264582 -0.0015 0
-1.27497 0.264581 -0.000800001 0
-1.27497 0.264581 -0.000800001 0
-1.27497 0.26458 -0.0016 0
-1.27497 0.264578 -0.0016 0
-1.27496 0.264577 -0.0012 0
-1.27496 0.264576 -0.0012 0
-1.27496 0.264576 -0.0018 0
-1.27496 0.264576 -0.0018 0
-1.27496 0.264575 -0.0018 0
-1.27496 0.264574 -0.000900001 0
-1.27496 0.264574 -0.000900001 0
-1.27496 0.264571 -0.0015 0
-1.27496 0.26457 -0.0015 0
-1.27496 0.264569 -0.0011 0
-1.27496 0.264567 -0.0011 0
-1.27496 0.264566 -0.0012 0
-1.27496 0.264565 -0.0012 0
-1.27496 0.264562 -0.0015 0
-1.27496 0.26456 -0.0015 0
-1.27496 0.264559 -0.0014 0
-1.27496 0.264557 -0.0014 0
-1.27496 0.264556 -0.0015 0
-1.27496 0.264555 -0.0015 0
-1.27496 0.264554 -0.0012 0
-1.27496 0.264553 -0.0012 0
-1.27496 0.264553 -0.0012 0
-1.27496 0.264553 -0.0016 0
-1.27496 0.264552 -0.0016 0
-1.27496 0.26455 -0.001 0
-1.27496 0.26455 -0.001 0
-1.27496 0.26455 -0.0016 0
-1.27495 0.264549 -0.0016 0
-1.27495 0.264549 -0.0011 0
-1.27495 0.264549 -0.0011 0
-1.27496 0.264549 -0.0013 0
-1.27496 0.264549 -0.0013 0
-1.27495 0.264549 -0.0012 0
-1.27495 0.264548 -0.0012 0
-1.27495 0.264548 -0.0012 0
-1.27495 0.264547 -0.0012 0
-1.27495 0.264546 -0.0012 0
-1.27495 0.264545 -0.0012 0
-1.27495 0.264544 -0.0012 0
-1.27495 0.264542 -0.0012 0
-1.27495 0.264541 -0.0011 0
-1.27495 0.264539 -0.0011 0
-1.27495 0.264539 -0.0011 0
-1.27506 0.264484 -0.0015 0
-1.27506 0.264483 -0.0015 0
-1.27506 0.264483 -0.0015 0
-1.27627 0.266074 -0.0011 0
-1.27506 0.26448 -0.0011 0
-1.27506 0.264479 -0.0011 0
-1.27506 0.264478 -0.0011 0
-1.27506 0.264478 -0.0011 0
-1.27506 0.264477 -0.0011 0
-1.27494 0.264528 -0.0017 0
-1.27506 0.264476 -0.0017 0
-1.27506 0.264475 -0.0017 0
-1.27506 0.264474 -0.0012 0
-1.27494 0.264522 -0.0018 0
-1.27494 0.264526 -0.0018 0
-1.27481 0.264591 -0.0018 0
-1.27421 0.264868 0.0122 0
-1.274 0.264956 0.0487 0
-1.27367 0.265092 0.0487 0
-1.27282 0.264378 -0.0011 0
-1.27278 0.264377 -0.0011 0
-1.27274 0.264378 0.0342 0
-1.27285 0.264326 0.0342 0
-1.273 0.264289 0.0342 0
-1.27348 0.26412 0.0043 0
-1.27361 0.264071 0.0094 0
-1.27303 0.26327 0.0094 0
-1.27304 0.263268 0.0094 0
-1.27306 0.26327 -0.0044 0
-1.27307 0.263272 -0.0024 0
-1.27318 0.263223 -0.0024 0
-1.2733 0.26317 -0.002 0
-1.27269 0.262377 -0.002 0
-1.27351 0.263076 0.0042 0
-1.27301 0.262229 0.0042 0
-1.27324 0.262117 0.0107 0
-1.27396 0.262853 0.0107 0
-1.27335 0.262048 9.99989e-05 0
-1.2738 0.261826 9.99989e-05 0
-1.2744 0.262615 0.0056 0
-1.2745 0.262558 0.0056 0
-1.27449 0.26256 0.000499999 0
-1.27389 0.26177 0.000499999 0
-1.27389 0.261777 -0.000400001 0
-1.2739 0.261785 -0.000400001 0
-1.2739 0.26179 0.0041 0
-1.2739 0.261791 0.0041 0
-1.2739 0.261791 0.000599999 0
-1.2739 0.261791 0.000599999 0
-1.2739 0.26179 0.0015 0
-1.2739 0.261794 0.0015 0
-1.2739 0.261795 0.0045 0
-1.2739 0.261796 0.0045 0
-1.27389 0.261797 0.0021 0
-1.27389 0.261795 0.0021 0
-1.2745 0.262593 0.0017 0
-1.27389 0.261798 0.0017 0
-1.27389 0.261798 0.0041 0
-1.27389 0.261799 0.0041 0
-1.2739 0.261798 0.0041 0
-1.2745 0.262592 0.0018 0
-1.2739 0.261795 0.0018 0
-1.2739 0.261799 -0.000900001 0
-1.2739 0.261802 -0.000900001 0
-1.2739 0.261801 0.0038 0
-1.2739 0.261802 0.0038 0
-1.2739 0.261802 0.0021 0
-1.27389 0.2618 0.0021 0
-1.27389 0.2618 0.0021 0
-1.27389 0.261796 0.0022 0
-1.27389 0.261795 0.0043 0
-1.27389 0.261794 0.0043 0
-1.27389 0.261792 0.0043 0
-1.27389 0.26179 -0.0016 0
-1.27389 0.261791 0.0013 0
-1.27389 0.261792 0.0013 0
-1.27389 0.261792 0.0013 0
-1.27389 0.261792 9.9998e-05 0
-1.27389 0.26179 -0.000400002 0
-1.27389 0.261789 -0.000400002 0
-1.27389 0.261789 -0.000400002 0
-1.27388 0.261789 0.004 0
-1.27388 0.261791 0.0011 0
-1.27388 0.261792 0.0011 0
-1.27388 0.26179 0.0011 0
-1.27449 0.262587 0.000799998 0
-1.27388 0.26179 0.000799998 0
-1.27388 0.261789 0.0022 0
-1.27388 0.261788 0.0022 0
-1.27388 0.261788 -0.000300002 0
-1.27388 0.261788 -0.000300002 0
-1.27388 0.261788 0.0023 0
-1.27388 0.261788 0.0023 0
-1.27388 0.261787 0.0026 0
-1.27387 0.261786 0.0026 0
-1.27387 0.261786 0.0012 0
-1.27387 0.261784 0.0012 0
-1.27387 0.261784 0.000499998 0
-1.27387 0.261782 0.000499998 0
-1.27387 0.26178 0.000999998 0
-1.27387 0.261783 0.000999998 0
-1.27387 0.261785 -0.000300002 0
-1.27387 0.261782 0.0026 0
-1.27387 0.261779 0.0026 0
-1.27448 0.262568 0.0026 0
-1.27387 0.26177 0.0037 0
-1.27387 0.261769 0.0037 0
-1.27387 0.261775 0.0021 0
-1.27447 0.262572 0.0021 0
-1.27387 0.261776 9.99977e-05 0
-1.27447 0.262568 0.0042 0
-1.27386 0.261772 0.0042 0
-1.27386 0.261769 0.0042 0
-1.27387 0.261767 0.003 0
-1.27447 0.262561 0.003 0
-1.27447 0.262559 -0.000600002 0
-1.27386 0.261763 -0.000600002 0
-1.27386 0.261763 0.0028 0
-1.27447 0.262559 0.0028 0
-1.27447 0.262557 0.0022 0
-1.27265 0.260169 0.0022 0
-1.27386 0.261759 0.0016 0
-1.27386 0.261758 0.0016 0
-1.27447 0.262552 -0.000500002 0
-1.27386 0.261755 -0.000500002 0
-1.27398 0.261702 -0.0012 0
-1.27386 0.261754 -0.0012 0
-1.27447 0.26255 0.0041 0
-1.27386 0.261757 0.0041 0
-1.27386 0.261758 0.0041 0
-1.27385 0.261763 0.0025 0
-1.27385 0.261764 0.000299998 0
-1.27385 0.261763 0.000299998 0
-1.27385 0.261758 0.0017 0
-1.27385 0.261759 0.0017 0
-1.27385 0.261756 0.000799998 0
-1.27385 0.261755 0.000799998 0
-1.27385 0.261752 0.0039 0
-1.27446 0.262549 0.0039 0
-1.27385 0.261752 -0.000200002 0
-1.27385 0.261751 -0.000200002 0
-1.27385 0.261751 0.0057 0
-1.27385 0.26175 0.0057 0
-1.27385 0.261749 0.000899998 0
-1.27385 0.261745 0.000899998 0
-1.27385 0.261744 0.0024 0
-1.27385 0.261745 0.0024 0
-1.27385 0.261743 0.000999998 0
-1.27446 0.262538 0.000999998 0
-1.27385 0.261742 0.0042 0
-1.27385 0.26174 0.0042 0
-1.27385 0.26174 0.0036 0
-1.27446 0.262533 0.0036 0
-1.17094 0.126424 0.0036 0
-1.27385 0.261735 0.0049 0
-1.27385 0.261733 0.0049 0
-1.27385 0.261733 0.0034 0
-1.27385 0.261732 0.0034 0
-1.27385 0.261731 0.0019 0
-1.27385 0.261733 0.0019 0
-1.27385 0.261735 0.000199998 0
-1.27263 0.260144 0.000199998 0
-1.27384 0.261735 0.000199998 0
-1.27384 0.261735 0.000899998 0
-1.27384 0.261737 0.000899998 0
-1.27384 0.261737 0.0016 0
-1.27384 0.261736 0.0016 0
-1.27384 0.261735 0.0016 0
-1.27384 0.261733 -0.000500002 0
-1.27384 0.261729 -0.000500002 0
-1.27384 0.261726 0.0028 0
-1.27384 0.261725 0.0028 0
-1.27384 0.261724 0.0028 0
-1.27384 0.261723 0.0052 0
-1.27384 0.261721 0.0052 0
-1.27384 0.261721 0.000499998 0
-1.27384 0.261721 0.000499998 0
-1.27384 0.261723 0.0029 0
-1.27384 0.261719 0.0029 0
-1.27384 0.261712 0.0024 0
-1.24842 0.228276 0.0024 0
-1.27385 0.261701 0.0024 0
-1.2739 0.261664 0.0026 0
-1.27461 0.262383 0.0026 0
-1.27412 0.261493 -0.000800002 0
-1.27488 0.262171 -0.000800002 0
-1.27448 0.26122 -0.000800002 0
-1.27501 0.260845 0.0013 0
-1.27524 0.26066 -0.000300002 0
-1.2755 0.260459 -0.000300002 0
-1.26911 0.251502 -0.000300002 0
-1.27604 0.260049 -0.000900002 0
-1.27545 0.258085 -0.000900002 0
-1.27708 0.259391 -0.000500002 0
-1.27752 0.259088 -0.000500002 0
-1.27832 0.258508 0.0017 0
-1.27902 0.258078 0.0017 0
-1.27938 0.2578 -0.000300003 0
-1.27988 0.257454 -0.000300003 0
-1.2809 0.256746 9.99975e-05 0
-1.28082 0.255583 9.99975e-05 0
-1.28197 0.256004 -0.0013 0
-1.2825 0.255633 -0.0013 0
-1.28257 0.254405 -0.0013 0
-1.28407 0.253453 0.0043 0
-1.28467 0.253038 0.0031 0
-1.28479 0.251755 0.0031 0
-1.28543 0.251301 0.0031 0
-1.28611 0.249583 0.0032 0
-1.28739 0.249889 -0.0013 0
-1.28808 0.249389 -0.0013 0
-1.28805 0.24814 -0.0013 0
-1.28755 0.246033 0.004 0
-1.29002 0.24664 0.0018 0
-1.29067 0.246145 0.0018 0
-1.29169 0.245472 0.0018 0
-1.27042 0.214065 0.0034 0
-1.27073 0.212636 0.0066 0
-1.27095 0.211244 0.0066 0
-1.27249 0.209028 0.0033 0
-1.27347 0.208333 0.0033 0
-1.27447 0.207629 -0.000300003 0
-1.2764 0.206222 -0.000300003 0
-1.2767 0.204745 0.000199997 0
-1.27755 0.204073 0.000199997 0
-1.27852 0.20334 0.0015 0
-1.27982 0.201088 0.0015 0
-1.28024 0.19953 0.0023 0
-1.2818 0.199583 0.0023 0
-1.28312 0.197277 0.004 0
-1.28414 0.196488 0.004 0
-1.28474 0.194825 0.0037 0
-1.28536 0.193155 0.0037 0
-1.28777 0.191398 0.0038 0
-1.28907 0.190464 0.0038 0
-1.28988 0.188667 0.0027 0
-1.29245 0.186753 -0.000600003 0
-1.29319 0.184962 -0.000600003 0
-1.29444 0.183998 -0.000600003 0
-1.29573 0.18301 -0.000200003 0
-1.29631 0.181263 -0.000200003 0
-1.29758 0.180286 -0.0021 0
-1.29879 0.179323 -0.0021 0
-1.29989 0.178413 -0.0021 0
-1.30202 0.176594 0.0035 0
-1.30295 0.17574 0.0063 0
-1.30391 0.174871 0.0063 0
-1.30557 0.173217 0.0038 0
-1.30701 0.173171 0.0038 0
-1.30734 0.171487 0.0028 0
-1.30878 0.171443 0.0028 0
-1.31012 0.169874 0.0022 0
-1.31225 0.170562 0.0022 0
-1.31341 0.169557 0.0038 0
-1.31459 0.168541 0.0038 0
-1.31494 0.167907 0.0038 0
-1.3172 0.165926 -0.0023 0
-1.31896 0.165711 -0.0033 0
-1.32022 0.164644 -0.0033 0
-1.32134 0.163665 -0.0033 0
-1.32394 0.161488 0.0024 0
-1.32532 0.160385 -0.0035 0
-1.32618 0.158426 -0.0035 0
-1.32817 0.158088 -0.0035 0
-1.33109 0.155707 0.000299997 0
-1.3324 0.154566 0.0023 0
-1.33365 0.153438 0.0023 0
-1.33598 0.152907 0.0023 0
-1.36072 0.181304 0.0039 0
-1.36321 0.181767 0.0043 0
-1.36512 0.181415 0.0043 0
-1.36758 0.179165 -0.000700003 0
-1.36835 0.177178 -0.000700003 0
-1.37031 0.176797 0.0019 0
-1.37169 0.175603 0.0019 0
-1.37454 0.173169 -0.0016 0
-1.37606 0.171924 -0.0016 0
-1.37835 0.171384 -0.0025 0
-1.37996 0.170066 -0.0025 0
-1.38081 0.168033 -0.0025 0
-1.33719 0.10443 0.005 0
-1.38421 0.165297 0.005 0
-1.38623 0.163784 -0.003 0
