ply
format ascii 1.0
element vertex 1727
property float x
property float y
property float z
property float intensity
end_header
-1.29078 0.146557 -0.0065 0
-1.29067 0.146619 -0.0063 0
-1.29077 0.146556 -0.0063 0
-1.29077 0.146557 -0.0065 0
-1.29066 0.14662 -0.0065 0
-1.29066 0.14662 -0.0063 0
-1.29077 0.146556 -0.0063 0
-1.29077 0.146556 -0.0063 0
-1.29077 0.146555 -0.0059 0
-1.29077 0.146555 -0.0059 0
-1.29077 0.146555 -0.0059 0
-1.29066 0.146617 -0.0064 0
-1.29066 0.146616 -0.0064 0
-1.29076 0.146552 -0.0066 0
-1.29076 0.146551 -0.0066 0
-1.29076 0.146549 -0.0062 0
-1.29076 0.146548 -0.0062 0
-1.29065 0.146609 -0.0068 0
-1.29065 0.146609 -0.0068 0
-1.29065 0.146608 -0.0068 0
-1.29065 0.146607 -0.0059 0
-1.29065 0.146607 -0.0059 0
-1.29065 0.146606 -0.0063 0
-1.29065 0.146606 -0.0063 0
-1.29076 0.146542 -0.0061 0
-1.29076 0.146542 -0.0061 0
-1.29076 0.146542 -0.0061 0
-1.29076 0.146542 -0.0067 0
-1.29076 0.14654 -0.0064 0
-1.29075 0.146539 -0.0064 0
-1.29075 0.146538 -0.0064 0
-1.29075 0.146537 -0.0066 0
-1.29075 0.146536 -0.0066 0
-1.29064 0.146598 -0.0066 0
-1.29064 0.146597 -0.0065 0
-1.29075 0.146533 -0.0061 0
-1.29075 0.146532 -0.0061 0
-1.29075 0.146531 -0.0056 0
-1.29075 0.14653 -0.0056 0
-1.29075 0.146529 -0.0056 0
-1.29075 0.14653 -0.0069 0
-1.29075 0.146529 -0.0069 0
-1.29075 0.146529 -0.0068 0
-1.29075 0.146529 -0.0068 0
-1.29075 0.146529 -0.0055 0
-1.29075 0.146528 -0.0055 0
-1.29075 0.146528 -0.0067 0
-1.29074 0.146528 -0.0067 0
-1.29074 0.146527 -0.0067 0
-1.29074 0.146526 -0.0063 0
-1.29074 0.146524 -0.0063 0
-1.29074 0.146522 -0.0065 0
-1.29074 0.14652 -0.0065 0
-1.29074 0.146519 -0.0065 0
-1.29074 0.146516 -0.0066 0
-1.29074 0.146515 -0.0066 0
-1.29074 0.146513 -0.0067 0
-1.29074 0.146512 -0.0067 0
-1.29074 0.146511 -0.0067 0
-1.29074 0.14651 -0.0063 0
-1.29074 0.146509 -0.0074 0
-1.29074 0.146508 -0.0074 0
-1.29073 0.146506 -0.0074 0
-1.29073 0.146505 -0.006 0
-1.29073 0.146504 -0.006 0
-1.29062 0.146566 -0.0064 0
-1.29062 0.146566 -0.0064 0
-1.29062 0.146565 -0.0064 0
-1.29062 0.146565 -0.0066 0
-1.29062 0.146564 -0.0066 0
-1.29062 0.146564 -0.0063 0
-1.29062 0.146563 -0.0063 0
-1.29062 0.146562 -0.0063 0
-1.29062 0.14656 -0.0068 0
-1.29062 0.146559 -0.0068 0
-1.29062 0.146559 -0.0067 0
-1.29062 0.146557 -0.0067 0
-1.29062 0.146557 -0.0064 0
-1.29062 0.146557 -0.0064 0
-1.29073 0.146494 -0.0068 0
-1.29073 0.146493 -0.0068 0
-1.29072 0.146492 -0.0068 0
-1.29072 0.14649 -0.0062 0
-1.29073 0.146489 -0.0062 0
-1.29073 0.146488 -0.0062 0
-1.29072 0.146487 -0.0062 0
-1.29072 0.146485 -0.0062 0
-1.29072 0.146484 -0.0066 0
-1.29072 0.146484 -0.0066 0
-1.29072 0.146483 -0.0067 0
-1.29072 0.146483 -0.0067 0
-1.29061 0.146546 -0.0066 0
-1.29061 0.146546 -0.0066 0
-1.29061 0.146546 -0.0066 0
-1.29061 0.146545 -0.0065 0
-1.29061 0.146545 -0.0065 0
-1.29071 0.146479 -0.006 0
-1.29071 0.146478 -0.006 0
-1.29071 0.146476 -0.0064 0
-1.2906 0.146538 -0.0064 0
-1.2906 0.146536 -0.0069 0
-1.2906 0.146535 -0.0069 0
-1.2906 0.146533 -0.0069 0
-1.2906 0.146532 -0.007 0
-1.2906 0.146531 -0.007 0
-1.2906 0.146529 -0.0064 0
-1.2906 0.146528 -0.0064 0
-1.29059 0.146525 -0.0063 0
-1.29059 0.146523 -0.0063 0
-1.29059 0.146522 -0.0072 0
-1.29059 0.146521 -0.0072 0
-1.29059 0.14652 -0.0072 0
-1.29059 0.146519 -0.0062 0
-1.29059 0.146517 -0.0062 0
-1.29059 0.146515 -0.0069 0
-1.2907 0.146451 -0.0069 0
-1.2907 0.146449 -0.0064 0
-1.29059 0.146511 -0.0064 0
-1.2907 0.146447 -0.0068 0
-1.2907 0.146445 -0.0068 0
-1.2907 0.146444 -0.0068 0
-1.2907 0.146443 -0.0066 0
-1.2907 0.146443 -0.0066 0
-1.2907 0.146441 -0.0063 0
-1.2907 0.14644 -0.0063 0
-1.2907 0.146438 -0.0068 0
-1.29069 0.146438 -0.0068 0
-1.29069 0.146436 -0.0063 0
-1.29069 0.146435 -0.0063 0
-1.29069 0.146434 -0.0064 0
-1.29069 0.146433 -0.0064 0
-1.29069 0.146432 -0.0064 0
-1.29069 0.146431 -0.0067 0
-1.29069 0.146429 -0.0067 0
-1.29069 0.146428 -0.0066 0
-1.29058 0.146488 -0.0065 0
-1.28866 0.144214 -0.0065 0
-1.29069 0.146423 -0.0065 0
-1.29069 0.146422 -0.0065 0
-1.29069 0.146421 -0.0065 0
-1.29069 0.146419 -0.0063 0
-1.29069 0.146418 -0.0063 0
-1.29069 0.146417 -0.0063 0
-1.29068 0.146416 -0.007 0
-1.29068 0.146415 -0.0068 0
-1.29068 0.146415 -0.0068 0
-1.29068 0.146413 -0.0068 0
-1.29068 0.146413 -0.0059 0
-1.29068 0.146411 -0.0059 0
-1.29068 0.146411 -0.007 0
-1.29068 0.146411 -0.007 0
-1.29068 0.14641 -0.0067 0
-1.29068 0.14641 -0.0067 0
-1.29068 0.14641 -0.0067 0
-1.29068 0.14641 -0.0058 0
-1.29068 0.146409 -0.0058 0
-1.29068 0.146408 -0.0067 0
-1.29068 0.146408 -0.0067 0
-1.29068 0.146407 -0.0064 0
-1.29068 0.146407 -0.0064 0
-1.29068 0.146407 -0.0063 0
-1.29067 0.146407 -0.0063 0
-1.29068 0.146407 -0.0062 0
-1.29067 0.146407 -0.0062 0
-1.29067 0.146407 -0.0067 0
-1.29068 0.146406 -0.0067 0
-1.29068 0.146406 -0.0064 0
-1.29068 0.146405 -0.0064 0
-1.29068 0.146404 -0.0067 0
-1.29 0.145665 -0.0067 0
-1.29067 0.146401 -0.0067 0
-1.29067 0.1464 -0.0067 0
-1.29067 0.146398 -0.0065 0
-1.29067 0.146397 -0.0065 0
-1.29067 0.146396 -0.0063 0
-1.29067 0.146396 -0.0063 0
-1.29067 0.146394 -0.0063 0
-1.29067 0.146394 -0.0063 0
-1.29067 0.146394 -0.0063 0
-1.29067 0.146393 -0.0063 0
-1.29067 0.146392 -0.0063 0
-1.29067 0.146391 -0.0064 0
-1.29067 0.14639 -0.0064 0
-1.29067 0.146389 -0.0065 0
-1.29067 0.146388 -0.0065 0
-1.29067 0.146387 -0.0065 0
-1.29067 0.146386 -0.0069 0
-1.29066 0.146385 -0.0069 0
-1.29066 0.146383 -0.0063 0
-1.29066 0.146383 -0.0063 0
-1.29066 0.146381 -0.0067 0
-1.29066 0.14638 -0.0067 0
-1.29066 0.14638 -0.0061 0
-1.29066 0.146379 -0.0061 0
-1.29066 0.146378 -0.0061 0
-1.28998 0.14564 -0.0064 0
-1.29066 0.146376 -0.0064 0
-1.29066 0.146376 -0.0068 0
-1.29066 0.146376 -0.0068 0
-1.29055 0.146438 -0.0063 0
-1.29055 0.146437 -0.0063 0
-1.29055 0.146436 -0.0062 0
-1.29055 0.146435 -0.0062 0
-1.29055 0.146434 -0.0062 0
-1.29054 0.146433 -0.0066 0
-1.29054 0.146433 -0.0066 0
-1.29054 0.146431 -0.0063 0
-1.29054 0.146431 -0.0063 0
-1.29054 0.146431 -0.0066 0
-1.29054 0.14643 -0.0066 0
-1.29054 0.14643 -0.0066 0
-1.29054 0.146429 -0.0067 0
-1.28919 0.144953 -0.0067 0
-1.29054 0.146425 -0.0063 0
-1.29054 0.146425 -0.0063 0
-1.29054 0.146424 -0.0068 0
-1.29054 0.146423 -0.0068 0
-1.29054 0.146422 -0.0061 0
-1.29054 0.146421 -0.0061 0
-1.29054 0.146419 -0.0066 0
-1.29054 0.146417 -0.0066 0
-1.29054 0.146416 -0.0065 0
-1.29054 0.146417 -0.0065 0
-1.29054 0.146416 -0.0065 0
-1.29053 0.146415 -0.0065 0
-1.29053 0.146414 -0.0065 0
-1.29053 0.146414 -0.0068 0
-1.29053 0.146413 -0.0068 0
-1.29064 0.146349 -0.0061 0
-1.29064 0.146348 -0.0061 0
-1.29064 0.146347 -0.0061 0
-1.28996 0.14561 -0.0067 0
-1.29064 0.146346 -0.0067 0
-1.29064 0.146346 -0.0054 0
-1.28996 0.145609 -0.0054 0
-1.29064 0.146345 -0.0054 0
-1.29064 0.146345 -0.0072 0
-1.29063 0.146345 -0.0072 0
-1.29063 0.146344 -0.0067 0
-1.29063 0.146344 -0.0067 0
-1.29063 0.146343 -0.0066 0
-1.29063 0.146342 -0.0066 0
-1.29063 0.146341 -0.0065 0
-1.29063 0.14634 -0.0065 0
-1.29063 0.146339 -0.0058 0
-1.29063 0.146339 -0.0058 0
-1.29063 0.146338 -0.006 0
-1.29063 0.146337 -0.006 0
-1.29063 0.146336 -0.006 0
-1.29063 0.146336 -0.007 0
-1.29063 0.146335 -0.007 0
-1.29063 0.146335 -0.007 0
-1.29063 0.146334 -0.0069 0
-1.29062 0.146333 -0.0067 0
-1.29062 0.146333 -0.0067 0
-1.29062 0.146332 -0.0067 0
-1.29062 0.146331 -0.0063 0
-1.29062 0.14633 -0.0063 0
-1.29062 0.146329 -0.0063 0
-1.29062 0.146328 -0.0066 0
-1.29062 0.146327 -0.0066 0
-1.29062 0.146326 -0.0066 0
-1.29062 0.146325 -0.007 0
-1.29062 0.146325 -0.007 0
-1.29062 0.146324 -0.0065 0
-1.29062 0.146324 -0.0065 0
-1.29062 0.146323 -0.0065 0
-1.29062 0.146322 -0.0064 0
-1.29062 0.14632 -0.0064 0
-1.29062 0.146319 -0.006 0
-1.29062 0.146319 -0.006 0
-1.29062 0.146319 -0.0064 0
-1.29062 0.146318 -0.0064 0
-1.28994 0.14558 -0.0062 0
-1.29062 0.146316 -0.0062 0
-1.29062 0.146316 -0.0062 0
-1.29062 0.146315 -0.0066 0
-1.29062 0.146313 -0.0066 0
-1.29062 0.146312 -0.0066 0
-1.29062 0.14631 -0.0062 0
-1.29062 0.14631 -0.0061 0
-1.29062 0.146309 -0.0061 0
-1.29062 0.146308 -0.0065 0
-1.28926 0.144834 -0.0065 0
-1.29062 0.146308 -0.0065 0
-1.29062 0.146307 -0.0066 0
-1.29062 0.146306 -0.0066 0
-1.29062 0.146304 -0.0064 0
-1.29062 0.146303 -0.0064 0
-1.29062 0.146303 -0.0066 0
-1.29062 0.146302 -0.0066 0
-1.29062 0.146301 -0.0061 0
-1.29062 0.1463 -0.0061 0
-1.29062 0.1463 -0.0063 0
-1.29061 0.1463 -0.0063 0
-1.29061 0.146299 -0.0068 0
-1.29061 0.146297 -0.0068 0
-1.29051 0.14636 -0.0064 0
-1.29051 0.146359 -0.0064 0
-1.28848 0.144147 -0.0065 0
-1.29061 0.146294 -0.0065 0
-1.29061 0.146293 -0.0065 0
-1.2905 0.146355 -0.0065 0
-1.2905 0.146354 -0.0061 0
-1.2905 0.146353 -0.0061 0
-1.2905 0.146353 -0.0061 0
-1.2905 0.146351 -0.0067 0
-1.2905 0.14635 -0.0063 0
-1.2905 0.146349 -0.0063 0
-1.2905 0.146348 -0.0063 0
-1.29049 0.146348 -0.0066 0
-1.29049 0.146348 -0.0066 0
-1.29049 0.146347 -0.0064 0
-1.29049 0.146346 -0.0064 0
-1.29049 0.146345 -0.0065 0
-1.29049 0.146344 -0.0065 0
-1.29049 0.146344 -0.0063 0
-1.29049 0.146343 -0.0063 0
-1.29048 0.146342 -0.0064 0
-1.29048 0.146342 -0.0064 0
-1.29048 0.146341 -0.0067 0
-1.29048 0.146341 -0.0067 0
-1.29048 0.146339 -0.007 0
-1.29048 0.146337 -0.007 0
-1.29048 0.146337 -0.0066 0
-1.29048 0.146335 -0.0066 0
-1.29048 0.146335 -0.0064 0
-1.29048 0.146335 -0.0064 0
-1.29047 0.146335 -0.0065 0
-1.29058 0.146269 -0.0065 0
-1.29058 0.146268 -0.0065 0
-1.29058 0.146267 -0.0065 0
-1.29058 0.146266 -0.0068 0
-1.29058 0.146264 -0.0068 0
-1.29058 0.146264 -0.0066 0
-1.29058 0.146263 -0.0066 0
-1.29057 0.146262 -0.0066 0
-1.29057 0.146259 -0.0064 0
-1.29057 0.146258 -0.0061 0
-1.29057 0.146257 -0.0061 0
-1.29057 0.146256 -0.0064 0
-1.29057 0.146256 -0.0064 0
-1.29057 0.146256 -0.0064 0
-1.29057 0.146255 -0.0064 0
-1.29057 0.146255 -0.0064 0
-1.29057 0.146255 -0.0063 0
-1.29057 0.146254 -0.0063 0
-1.29057 0.146253 -0.0063 0
-1.29057 0.146252 -0.0062 0
-1.29046 0.146314 -0.0062 0
-1.29056 0.14625 -0.0067 0
-1.29056 0.14625 -0.0067 0
-1.29056 0.14625 -0.0066 0
-1.29056 0.14625 -0.0066 0
-1.29056 0.14625 -0.0067 0
-1.29045 0.146313 -0.0067 0
-1.29045 0.146313 -0.0067 0
-1.29045 0.146312 -0.0066 0
-1.29056 0.146249 -0.0066 0
-1.29056 0.146249 -0.0066 0
-1.29056 0.146249 -0.0066 0
-1.29056 0.146249 -0.0067 0
-1.29046 0.146311 -0.0067 0
-1.29045 0.146312 -0.0063 0
-1.29045 0.146311 -0.0063 0
-1.29045 0.146311 -0.0063 0
-1.29045 0.146311 -0.0066 0
-1.28977 0.145574 -0.0066 0
-1.29045 0.14631 -0.0062 0
-1.29045 0.14631 -0.0062 0
-1.29045 0.146308 -0.0063 0
-1.29045 0.146307 -0.0068 0
-1.29045 0.146307 -0.0068 0
-1.29055 0.146244 -0.0059 0
-1.29055 0.146244 -0.0059 0
-1.29055 0.146243 -0.0059 0
-1.29055 0.146242 -0.0064 0
-1.29055 0.14624 -0.0068 0
-1.29055 0.146239 -0.0068 0
-1.29055 0.146238 -0.0066 0
-1.29044 0.146299 -0.0066 0
-1.29044 0.146297 -0.0067 0
-1.28977 0.145559 -0.0067 0
-1.29044 0.146295 -0.0067 0
-1.29044 0.146293 -0.0067 0
-1.29044 0.146292 -0.0066 0
-1.29044 0.14629 -0.0066 0
-1.29044 0.146289 -0.0063 0
-1.29043 0.146287 -0.0063 0
-1.29043 0.146283 -0.0064 0
-1.29043 0.146281 -0.0064 0
-1.29043 0.146279 -0.0063 0
-1.29043 0.146277 -0.0063 0
-1.29043 0.146275 -0.0062 0
-1.29043 0.146274 -0.0062 0
-1.29043 0.146272 -0.0061 0
-1.29043 0.146271 -0.0061 0
-1.29043 0.146269 -0.0061 0
-1.29054 0.146205 -0.0062 0
-1.29054 0.146201 -0.0062 0
-1.29053 0.1462 -0.0064 0
-1.29053 0.146198 -0.0064 0
-1.29053 0.146196 -0.0065 0
-1.29053 0.146195 -0.0065 0
-1.29042 0.146255 -0.0066 0
-1.29042 0.146255 -0.0066 0
-1.29042 0.146254 -0.0063 0
-1.29042 0.146253 -0.0063 0
-1.29042 0.146252 -0.0057 0
-1.29041 0.146251 -0.0057 0
-1.29041 0.146251 -0.0065 0
-1.29041 0.14625 -0.0065 0
-1.29041 0.146249 -0.0066 0
-1.29041 0.146249 -0.0066 0
-1.29052 0.146185 -0.0062 0
-1.29052 0.146185 -0.0064 0
-1.29052 0.146184 -0.0064 0
-1.29052 0.146184 -0.0064 0
-1.29052 0.146182 -0.0067 0
-1.29041 0.146245 -0.0064 0
-1.29041 0.146244 -0.0064 0
-1.29041 0.146243 -0.0064 0
-1.29041 0.146242 -0.0066 0
-1.29041 0.146241 -0.0066 0
-1.29041 0.146239 -0.0066 0
-1.2904 0.146238 -0.0066 0
-1.2904 0.146238 -0.0066 0
-1.2904 0.146237 -0.0064 0
-1.2904 0.146236 -0.0064 0
-1.2904 0.146235 -0.0064 0
-1.2904 0.146235 -0.0063 0
-1.2904 0.146235 -0.0063 0
-1.2904 0.146233 -0.0063 0
-1.2904 0.146233 -0.0066 0
-1.2904 0.146232 -0.0066 0
-1.2904 0.146231 -0.0066 0
-1.2904 0.14623 -0.0066 0
-1.2904 0.146227 -0.0063 0
-1.2904 0.146227 -0.0063 0
-1.2904 0.146226 -0.0067 0
-1.2904 0.146226 -0.0067 0
-1.2904 0.146225 -0.0059 0
-1.29039 0.146224 -0.0059 0
-1.29039 0.146223 -0.0059 0
-1.2904 0.146223 -0.0062 0
-1.2904 0.146222 -0.0062 0
-1.29039 0.146221 -0.0063 0
-1.29039 0.14622 -0.0063 0
-1.29039 0.146219 -0.0067 0
-1.29039 0.146218 -0.0067 0
-1.29039 0.146217 -0.0067 0
-1.29039 0.146216 -0.0065 0
-1.29039 0.146215 -0.0065 0
-1.29039 0.146213 -0.0065 0
-1.29039 0.146211 -0.0065 0
-1.29039 0.146211 -0.0063 0
-1.29039 0.14621 -0.0063 0
-1.29039 0.146208 -0.0062 0
-1.29039 0.146207 -0.0062 0
-1.29039 0.146205 -0.0067 0
-1.2904 0.146204 -0.0067 0
-1.2904 0.146202 -0.0065 0
-1.29039 0.146202 -0.0065 0
-1.29039 0.1462 -0.0065 0
-1.29039 0.1462 -0.0065 0
-1.29039 0.146199 -0.0064 0
-1.2905 0.146133 -0.0061 0
-1.2905 0.146132 -0.0061 0
-1.2905 0.14613 -0.0061 0
-1.28306 0.138023 -0.0067 0
-1.2905 0.146128 -0.0067 0
-1.2905 0.146127 -0.0067 0
-1.2905 0.146126 -0.0068 0
-1.2905 0.146125 -0.0068 0
-1.2905 0.146124 -0.0062 0
-1.2905 0.146123 -0.0062 0
-1.2905 0.146122 -0.0067 0
-1.2905 0.146122 -0.0067 0
-1.2905 0.146122 -0.0071 0
-1.2905 0.146121 -0.0071 0
-1.2905 0.14612 -0.0064 0
-1.2905 0.146118 -0.0064 0
-1.29049 0.146118 -0.0064 0
-1.29049 0.146117 -0.0065 0
-1.29049 0.146118 -0.0065 0
-1.29049 0.14612 -0.0073 0
-1.29049 0.14612 -0.0073 0
-1.29049 0.14612 -0.0062 0
-1.29049 0.14612 -0.0062 0
-1.29049 0.14612 -0.0062 0
-1.29049 0.146119 -0.0062 0
-1.29038 0.14618 -0.006 0
-1.29038 0.146179 -0.006 0
-1.29038 0.146178 -0.0069 0
-1.29038 0.146178 -0.0069 0
-1.29038 0.146177 -0.0069 0
-1.29038 0.146177 -0.0066 0
-1.29038 0.146176 -0.0066 0
-1.29048 0.146112 -0.0061 0
-1.29048 0.146111 -0.0061 0
-1.29048 0.146111 -0.0065 0
-1.29049 0.146111 -0.0065 0
-1.29048 0.146111 -0.0065 0
-1.29048 0.146111 -0.0063 0
-1.29048 0.146111 -0.0063 0
-1.29048 0.14611 -0.0069 0
-1.29037 0.146171 -0.0064 0
-1.29037 0.14617 -0.0064 0
-1.29048 0.146106 -0.0064 0
-1.29048 0.146106 -0.0062 0
-1.29048 0.146105 -0.0062 0
-1.29048 0.146105 -0.0068 0
-1.29047 0.146103 -0.0068 0
-1.29047 0.146102 -0.0064 0
-1.29047 0.146101 -0.0064 0
-1.29047 0.146101 -0.0064 0
-1.29047 0.1461 -0.0064 0
-1.29036 0.146162 -0.0064 0
-1.29047 0.146099 -0.007 0
-1.29103 0.146899 -0.007 0
-1.29047 0.146098 -0.007 0
-1.29036 0.146161 -0.0069 0
-1.29036 0.146161 -0.0069 0
-1.29035 0.146159 -0.0067 0
-1.29035 0.146159 -0.0063 0
-1.289 0.144684 -0.0063 0
-1.29035 0.146157 -0.0063 0
-1.29035 0.146157 -0.0063 0
-1.29035 0.146156 -0.0063 0
-1.29046 0.146092 -0.0063 0
-1.29035 0.146155 -0.0065 0
-1.29035 0.146154 -0.0066 0
-1.29046 0.14609 -0.0066 0
-1.29046 0.14609 -0.0066 0
-1.29046 0.146089 -0.0062 0
-1.29046 0.146086 -0.0068 0
-1.29034 0.146148 -0.0068 0
-1.29034 0.146147 -0.006 0
-1.29034 0.146147 -0.006 0
-1.29034 0.146147 -0.006 0
-1.29034 0.146146 -0.0072 0
-1.29034 0.146145 -0.0072 0
-1.29034 0.146144 -0.0066 0
-1.29034 0.146141 -0.0066 0
-1.29034 0.14614 -0.0064 0
-1.29034 0.14614 -0.0064 0
-1.29034 0.146139 -0.0068 0
-1.29034 0.146139 -0.0068 0
-1.29045 0.146074 -0.0068 0
-1.29045 0.146074 -0.0063 0
-1.29045 0.146071 -0.0064 0
-1.29045 0.14607 -0.0064 0
-1.29045 0.146069 -0.0064 0
-1.29045 0.146069 -0.0068 0
-1.29044 0.146069 -0.0068 0
-1.29044 0.146069 -0.0068 0
-1.29044 0.146069 -0.0064 0
-1.29044 0.146068 -0.0066 0
-1.29044 0.146068 -0.0066 0
-1.29044 0.146066 -0.0066 0
-1.29044 0.146066 -0.0062 0
-1.29044 0.146065 -0.0062 0
-1.29044 0.146063 -0.0066 0
-1.29044 0.146062 -0.0067 0
-1.29044 0.146061 -0.0067 0
-1.29044 0.146059 -0.0065 0
-1.29044 0.146059 -0.0065 0
-1.29044 0.146057 -0.0064 0
-1.29043 0.146055 -0.0064 0
-1.29043 0.146055 -0.0061 0
-1.29043 0.146054 -0.0061 0
-1.29043 0.146054 -0.0065 0
-1.29043 0.146052 -0.0065 0
-1.29043 0.146051 -0.0065 0
-1.29043 0.14605 -0.0065 0
-1.29043 0.146049 -0.0061 0
-1.29043 0.146049 -0.0061 0
-1.29043 0.146048 -0.0062 0
-1.29043 0.146048 -0.0062 0
-1.29042 0.146047 -0.0065 0
-1.29042 0.146046 -0.0065 0
-1.29042 0.146046 -0.0062 0
-1.29042 0.146046 -0.0062 0
-1.29042 0.146045 -0.0067 0
-1.29042 0.146045 -0.0067 0
-1.29042 0.146044 -0.0061 0
-1.29042 0.146044 -0.0061 0
-1.29042 0.146043 -0.0061 0
-1.29042 0.146044 -0.0061 0
-1.29042 0.146044 -0.0066 0
-1.29042 0.146043 -0.0066 0
-1.29042 0.146043 -0.0066 0
-1.29042 0.146042 -0.0065 0
-1.29042 0.146041 -0.0065 0
-1.29042 0.146041 -0.0061 0
-1.29042 0.146039 -0.0061 0
-1.29042 0.146037 -0.0063 0
-1.29042 0.146037 -0.0063 0
-1.29041 0.146037 -0.0063 0
-1.29041 0.146036 -0.0062 0
-1.29041 0.146035 -0.0062 0
-1.29041 0.146035 -0.0062 0
-1.29041 0.146034 -0.0066 0
-1.28838 0.143822 -0.0066 0
-1.29041 0.146033 -0.0066 0
-1.29041 0.146032 -0.0066 0
-1.29041 0.146032 -0.0065 0
-1.29041 0.146031 -0.0065 0
-1.29041 0.146031 -0.0065 0
-1.29041 0.14603 -0.0068 0
-1.29041 0.146029 -0.0068 0
-1.2904 0.146029 -0.0062 0
-1.2904 0.146028 -0.0068 0
-1.2904 0.146028 -0.0068 0
-1.2904 0.146028 -0.0068 0
-1.2904 0.146028 -0.0069 0
-1.2904 0.146027 -0.0069 0
-1.2904 0.146026 -0.0069 0
-1.2904 0.146025 -0.0065 0
-1.2904 0.146024 -0.0065 0
-1.2904 0.146023 -0.0063 0
-1.2904 0.146022 -0.0063 0
-1.2904 0.146022 -0.0066 0
-1.2904 0.146022 -0.0066 0
-1.2904 0.146021 -0.0062 0
-1.2904 0.14602 -0.0062 0
-1.2904 0.14602 -0.0069 0
-1.2904 0.146019 -0.0069 0
-1.2904 0.146019 -0.0069 0
-1.2904 0.146019 -0.0063 0
-1.2904 0.146019 -0.0063 0
-1.2904 0.146018 -0.0065 0
-1.2904 0.146018 -0.0065 0
-1.2904 0.146017 -0.0065 0
-1.2904 0.146016 -0.0066 0
-1.2904 0.146016 -0.0066 0
-1.29039 0.146016 -0.0064 0
-1.29039 0.146016 -0.0064 0
-1.29039 0.146016 -0.0064 0
-1.29039 0.146016 -0.006 0
-1.29039 0.146016 -0.0064 0
-1.29039 0.146016 -0.0064 0
-1.29039 0.146015 -0.0064 0
-1.28836 0.143804 -0.0063 0
-1.29039 0.146015 -0.0063 0
-1.29039 0.146015 -0.0063 0
-1.29039 0.146015 -0.0063 0
-1.29039 0.146015 -0.0063 0
-1.29038 0.146014 -0.0064 0
-1.29038 0.146013 -0.0064 0
-1.29038 0.146012 -0.0061 0
-1.29038 0.146011 -0.0061 0
-1.29038 0.146011 -0.0059 0
-1.29038 0.14601 -0.0059 0
-1.29038 0.14601 -0.0062 0
-1.29038 0.146011 -0.0062 0
-1.29038 0.14601 -0.0062 0
-1.29038 0.146009 -0.0065 0
-1.29038 0.146008 -0.0062 0
-1.29038 0.146007 -0.0062 0
-1.29038 0.146006 -0.0062 0
-1.2897 0.145268 -0.0065 0
-1.29037 0.146005 -0.0065 0
-1.29037 0.146005 -0.0063 0
-1.29037 0.146005 -0.0063 0
-1.29037 0.146005 -0.0065 0
-1.29037 0.146005 -0.0065 0
-1.29037 0.146005 -0.0064 0
-1.29037 0.146004 -0.0064 0
-1.29037 0.146003 -0.0064 0
-1.29037 0.146002 -0.0062 0
-1.29037 0.146001 -0.0069 0
-1.29037 0.145999 -0.0069 0
-1.29037 0.145998 -0.0069 0
-1.29037 0.145997 -0.0063 0
-1.29037 0.145997 -0.0063 0
-1.29037 0.145997 -0.0068 0
-1.28834 0.143786 -0.0068 0
-1.29037 0.145996 -0.0068 0
-1.29037 0.145996 -0.0065 0
-1.29037 0.145995 -0.0065 0
-1.29037 0.145993 -0.0065 0
-1.29037 0.145991 -0.0066 0
-1.29036 0.14599 -0.0063 0
-1.29036 0.145988 -0.0063 0
-1.29036 0.145986 -0.0067 0
-1.29036 0.145985 -0.0067 0
-1.29036 0.145984 -0.0064 0
-1.29036 0.145983 -0.0064 0
-1.29036 0.145981 -0.0065 0
-1.29036 0.145981 -0.0065 0
-1.29036 0.145979 -0.0068 0
-1.29036 0.145978 -0.0068 0
-1.29036 0.145977 -0.0064 0
-1.29036 0.145976 -0.0064 0
-1.29036 0.145974 -0.0064 0
-1.28901 0.1445 -0.007 0
-1.29036 0.145973 -0.007 0
-1.28901 0.144499 -0.0067 0
-1.29036 0.145972 -0.0067 0
-1.29036 0.145971 -0.0064 0
-1.29036 0.14597 -0.0064 0
-1.29036 0.145969 -0.0069 0
-1.29036 0.145968 -0.0069 0
-1.29036 0.145967 -0.0069 0
-1.29025 0.146028 -0.006 0
-1.29025 0.146027 -0.0064 0
-1.29025 0.146027 -0.0064 0
-1.29025 0.146027 -0.0064 0
-1.29036 0.145964 -0.0065 0
-1.29035 0.145962 -0.0064 0
-1.29024 0.146025 -0.0064 0
-1.29024 0.146024 -0.0064 0
-1.29035 0.14596 -0.0063 0
-1.29035 0.14596 -0.0064 0
-1.29035 0.14596 -0.0064 0
-1.31806 0.176172 -0.0064 0
-1.29035 0.145961 -0.0066 0
-1.28967 0.145224 -0.0066 0
-1.29035 0.14596 -0.0066 0
-1.29035 0.145959 -0.0066 0
-1.29024 0.146022 -0.0063 0
-1.29024 0.146021 -0.0063 0
-1.29024 0.146019 -0.0065 0
-1.29024 0.146019 -0.0065 0
-1.29023 0.146018 -0.0063 0
-1.29023 0.146019 -0.0063 0
-1.29023 0.146019 -0.0066 0
-1.29023 0.146018 -0.0066 0
-1.29023 0.146017 -0.0061 0
-1.29023 0.146016 -0.0061 0
-1.29023 0.146016 -0.0061 0
-1.29023 0.146013 -0.0066 0
-1.29023 0.146012 -0.0065 0
-1.29023 0.146011 -0.0065 0
-1.29023 0.14601 -0.0065 0
-1.29023 0.146009 -0.0061 0
-1.29023 0.146008 -0.0061 0
-1.29023 0.146007 -0.0067 0
-1.29023 0.146006 -0.0066 0
-1.29023 0.146007 -0.0066 0
-1.29023 0.146007 -0.0066 0
-1.29022 0.146006 -0.0067 0
-1.29022 0.146006 -0.0067 0
-1.29022 0.146005 -0.0063 0
-1.29022 0.146005 -0.0063 0
-1.29022 0.146004 -0.0063 0
-1.29022 0.146003 -0.0062 0
-1.29022 0.146002 -0.0062 0
-1.29022 0.146002 -0.0064 0
-1.29022 0.146001 -0.0064 0
-1.29022 0.145999 -0.0063 0
-1.29022 0.145999 -0.0063 0
-1.29022 0.145998 -0.0061 0
-1.29022 0.145998 -0.0061 0
-1.29022 0.145998 -0.0061 0
-1.29022 0.145998 -0.0067 0
-1.29022 0.145998 -0.0067 0
-1.29022 0.145996 -0.0064 0
-1.29021 0.145994 -0.0064 0
-1.29021 0.145993 -0.0069 0
-1.29021 0.145992 -0.0069 0
-1.29032 0.145928 -0.0069 0
-1.29032 0.145925 -0.0065 0
-1.28897 0.144451 -0.0065 0
-1.29032 0.145924 -0.0065 0
-1.29032 0.145922 -0.0067 0
-1.29032 0.145921 -0.0067 0
-1.29031 0.14592 -0.0067 0
-1.29031 0.145919 -0.0064 0
-1.29031 0.145918 -0.0064 0
-1.29031 0.145917 -0.0066 0
-1.2902 0.145978 -0.0066 0
-1.29031 0.145914 -0.0066 0
-1.28896 0.144439 -0.0066 0
-1.2902 0.145975 -0.0063 0
-1.29031 0.145911 -0.0063 0
-1.29031 0.145909 -0.0063 0
-1.29031 0.145908 -0.0061 0
-1.29031 0.145908 -0.0061 0
-1.29031 0.145905 -0.0066 0
-1.29031 0.145905 -0.0066 0
-1.29031 0.145905 -0.0062 0
-1.29031 0.145903 -0.0062 0
-1.2902 0.145965 -0.0062 0
-1.28895 0.144428 -0.0062 0
-1.2903 0.145901 -0.0062 0
-1.2903 0.1459 -0.0066 0
-1.29019 0.145961 -0.0066 0
-1.29019 0.14596 -0.0064 0
-1.29019 0.14596 -0.0064 0
-1.29019 0.145958 -0.0065 0
-1.29019 0.145958 -0.0065 0
-1.29019 0.145957 -0.0065 0
-1.29018 0.145956 -0.006 0
-1.29018 0.145955 -0.006 0
-1.29018 0.145955 -0.0065 0
-1.29018 0.145955 -0.0065 0
-1.29018 0.145955 -0.0068 0
-1.29018 0.145954 -0.0068 0
-1.29018 0.145953 -0.0061 0
-1.29018 0.145952 -0.0061 0
-1.29018 0.145952 -0.0069 0
-1.29018 0.145952 -0.0069 0
-1.29018 0.145952 -0.0065 0
-1.29018 0.145952 -0.0065 0
-1.29019 0.145951 -0.0069 0
-1.29019 0.14595 -0.0069 0
-1.29019 0.145949 -0.0063 0
-1.29018 0.145948 -0.0067 0
-1.29018 0.145947 -0.0067 0
-1.29018 0.145946 -0.0067 0
-1.29018 0.145945 -0.0067 0
-1.29018 0.145942 -0.0067 0
-1.29018 0.145941 -0.006 0
-1.29018 0.14594 -0.006 0
-1.29018 0.145939 -0.0064 0
-1.29017 0.145937 -0.0065 0
-1.29017 0.145935 -0.0065 0
-1.29017 0.145935 -0.0065 0
-1.29017 0.145934 -0.0066 0
-1.29017 0.145932 -0.0062 0
-1.29017 0.145931 -0.0062 0
-1.29017 0.14593 -0.0062 0
-1.29017 0.145927 -0.0067 0
-1.29017 0.145927 -0.0067 0
-1.29017 0.145926 -0.0067 0
-1.29017 0.145924 -0.0067 0
-1.29017 0.145922 -0.0061 0
-1.29017 0.145921 -0.0061 0
-1.29017 0.14592 -0.0067 0
-1.29017 0.145919 -0.0067 0
-1.29016 0.145918 -0.0061 0
-1.29016 0.145915 -0.0066 0
-1.29016 0.145914 -0.0066 0
-1.29016 0.145913 -0.0066 0
-1.29016 0.145911 -0.0065 0
-1.29016 0.14591 -0.0065 0
-1.29016 0.145908 -0.0065 0
-1.29016 0.145907 -0.0065 0
-1.29016 0.145906 -0.0067 0
-1.29016 0.145905 -0.0067 0
-1.29016 0.145904 -0.0067 0
-1.29016 0.145903 -0.007 0
-1.29016 0.145903 -0.007 0
-1.29016 0.145902 -0.0065 0
-1.29016 0.145901 -0.0065 0
-1.29016 0.145901 -0.0064 0
-1.29016 0.1459 -0.0064 0
-1.29016 0.145898 -0.0069 0
-1.29016 0.145896 -0.0069 0
-1.29016 0.145894 -0.0066 0
-1.29015 0.145891 -0.0066 0
-1.29015 0.145891 -0.0069 0
-1.29015 0.145891 -0.0069 0
-1.29015 0.145891 -0.0064 0
-1.29015 0.145891 -0.0064 0
-1.29015 0.145891 -0.0064 0
-1.29015 0.14589 -0.0064 0
-1.29015 0.14589 -0.0063 0
-1.29015 0.145889 -0.0063 0
-1.29015 0.145888 -0.0063 0
-1.29015 0.145886 -0.0066 0
-1.29014 0.145885 -0.0066 0
-1.29014 0.145883 -0.007 0
-1.29014 0.145883 -0.007 0
-1.29014 0.145883 -0.0064 0
-1.29014 0.145883 -0.0064 0
-1.29014 0.145883 -0.0065 0
-1.29014 0.145882 -0.0065 0
-1.29014 0.145882 -0.0065 0
-1.29014 0.145882 -0.0064 0
-1.29014 0.145881 -0.0064 0
-1.29014 0.145881 -0.0064 0
-1.29014 0.14588 -0.0057 0
-1.29014 0.145878 -0.0061 0
-1.29014 0.145877 -0.0061 0
-1.29013 0.145877 -0.0062 0
-1.29013 0.145876 -0.0062 0
-1.29013 0.145876 -0.0062 0
-1.29013 0.145875 -0.0064 0
-1.29013 0.145874 -0.0064 0
-1.29013 0.145874 -0.0063 0
-1.29013 0.145874 -0.0063 0
-1.29013 0.145874 -0.0063 0
-1.29013 0.145873 -0.0068 0
-1.29013 0.145873 -0.0068 0
-1.29012 0.145872 -0.0066 0
-1.29012 0.145869 -0.0066 0
-1.29012 0.145867 -0.0066 0
-1.29012 0.145867 -0.0066 0
-1.29012 0.145866 -0.0065 0
-1.29012 0.145865 -0.0065 0
-1.29012 0.145863 -0.0065 0
-1.29012 0.145862 -0.0066 0
-1.29012 0.145862 -0.0066 0
-1.29012 0.145861 -0.0066 0
-1.29012 0.145859 -0.0061 0
-1.29012 0.145859 -0.0065 0
-1.29012 0.145858 -0.0065 0
-1.29012 0.145857 -0.0066 0
-1.29012 0.145856 -0.0066 0
-1.29012 0.145854 -0.0066 0
-1.29011 0.145852 -0.0069 0
-1.29011 0.145849 -0.0069 0
-1.29011 0.145847 -0.0064 0
-1.29011 0.145845 -0.0064 0
-1.29011 0.145844 -0.0064 0
-1.29011 0.145843 -0.0064 0
-1.29011 0.145841 -0.0064 0
-1.29011 0.145839 -0.0064 0
-1.29011 0.145837 -0.0066 0
-1.29011 0.145835 -0.0066 0
-1.29011 0.145833 -0.0066 0
-1.29011 0.145832 -0.0066 0
-1.29011 0.14583 -0.0066 0
-1.29011 0.145829 -0.0059 0
-1.29011 0.145829 -0.0059 0
-1.29011 0.145828 -0.0063 0
-1.29011 0.145827 -0.0063 0
-1.28943 0.14509 -0.0063 0
-1.29011 0.145824 -0.0065 0
-1.29011 0.145824 -0.0065 0
-1.29011 0.145823 -0.0065 0
-1.29011 0.145823 -0.0065 0
-1.29011 0.145821 -0.0067 0
-1.2901 0.14582 -0.0067 0
-1.2901 0.145819 -0.0065 0
-1.2901 0.145817 -0.0065 0
-1.2901 0.145815 -0.0065 0
-1.2901 0.145815 -0.0065 0
-1.2901 0.145815 -0.0059 0
-1.2901 0.145814 -0.0059 0
-1.2901 0.145813 -0.0059 0
-1.28875 0.144337 -0.0065 0
-1.2901 0.14581 -0.0065 0
-1.2901 0.14581 -0.0064 0
-1.2901 0.145809 -0.0064 0
-1.2901 0.145808 -0.0064 0
-1.2901 0.145807 -0.0066 0
-1.2901 0.145807 -0.0066 0
-1.2901 0.145806 -0.006 0
-1.2901 0.145804 -0.006 0
-1.2901 0.145804 -0.0062 0
-1.2901 0.145804 -0.0062 0
-1.2901 0.145803 -0.0061 0
-1.2901 0.145802 -0.0061 0
-1.2901 0.145802 -0.0061 0
-1.2901 0.145802 -0.0066 0
-1.2901 0.145801 -0.0066 0
-1.28942 0.145063 -0.0062 0
-1.28942 0.145062 -0.0062 0
-1.29009 0.145799 -0.0062 0
-1.29009 0.145798 -0.0063 0
-1.28198 0.136953 -0.0067 0
-1.29009 0.145795 -0.0067 0
-1.29009 0.145794 -0.0067 0
-1.29009 0.145793 -0.0062 0
-1.29009 0.145793 -0.0062 0
-1.29009 0.145792 -0.0066 0
-1.29009 0.145791 -0.0066 0
-1.29009 0.14579 -0.0064 0
-1.2902 0.145726 -0.0064 0
-1.2902 0.145726 -0.006 0
-1.2902 0.145725 -0.006 0
-1.2902 0.145725 -0.0066 0
-1.2902 0.145725 -0.0066 0
-1.2902 0.145724 -0.0066 0
-1.2902 0.145724 -0.006 0
-1.2902 0.145724 -0.006 0
-1.2902 0.145723 -0.0061 0
-1.2902 0.145723 -0.0061 0
-1.2902 0.145722 -0.0063 0
-1.2902 0.145721 -0.0063 0
-1.29009 0.145784 -0.0063 0
-1.29009 0.145783 -0.0066 0
-1.29009 0.145782 -0.0066 0
-1.29009 0.145781 -0.0068 0
-1.29019 0.145715 -0.0068 0
-1.29019 0.145714 -0.0065 0
-1.29008 0.145776 -0.0065 0
-1.29008 0.145775 -0.0066 0
-1.28805 0.143563 -0.0066 0
-1.29008 0.145774 -0.0066 0
-1.29008 0.145772 -0.0066 0
-1.29008 0.145771 -0.0072 0
-1.29008 0.145769 -0.0072 0
-1.29008 0.145768 -0.007 0
-1.29008 0.145767 -0.006 0
-1.29008 0.145766 -0.006 0
-1.29008 0.145765 -0.006 0
-1.29008 0.145765 -0.0066 0
-1.29008 0.145764 -0.0068 0
-1.29008 0.145764 -0.0068 0
-1.29008 0.145763 -0.0068 0
-1.29008 0.145762 -0.0066 0
-1.29007 0.145761 -0.0065 0
-1.29007 0.14576 -0.0065 0
-1.29007 0.14576 -0.0068 0
-1.29007 0.14576 -0.0068 0
-1.29007 0.145759 -0.0062 0
-1.29007 0.145759 -0.0062 0
-1.29007 0.145759 -0.0062 0
-1.29007 0.145758 -0.0069 0
-1.29006 0.145758 -0.0064 0
-1.29006 0.145757 -0.0064 0
-1.29006 0.145757 -0.0064 0
-1.29017 0.145693 -0.0062 0
-1.29017 0.145692 -0.0063 0
-1.29017 0.145691 -0.0063 0
-1.29017 0.145691 -0.0066 0
-1.29017 0.145691 -0.0066 0
-1.29017 0.145691 -0.0062 0
-1.29017 0.145691 -0.0062 0
-1.29017 0.145692 -0.0065 0
-1.29017 0.145692 -0.0064 0
-1.29017 0.145692 -0.0064 0
-1.29017 0.145691 -0.0064 0
-1.29017 0.145689 -0.0064 0
-1.29017 0.145687 -0.0064 0
-1.29016 0.145687 -0.0064 0
-1.26312 0.116212 -0.0064 0
-1.29016 0.145686 -0.0063 0
-1.29016 0.145686 -0.0063 0
-1.29016 0.145686 -0.0067 0
-1.29016 0.145685 -0.0067 0
-1.29016 0.145684 -0.0067 0
-1.29016 0.145683 -0.0064 0
-1.29016 0.145683 -0.0064 0
-1.29016 0.145682 -0.0068 0
-1.29016 0.145681 -0.0068 0
-1.29016 0.14568 -0.0063 0
-1.29016 0.145679 -0.0063 0
-1.29016 0.145679 -0.0065 0
-1.29016 0.145675 -0.0065 0
-1.29016 0.145674 -0.0065 0
-1.29016 0.145672 -0.0065 0
-1.29016 0.14567 -0.0064 0
-1.29015 0.145669 -0.0064 0
-1.29015 0.145668 -0.0064 0
-1.29015 0.145667 -0.0064 0
-1.29015 0.145666 -0.0064 0
-1.29015 0.145666 -0.0065 0
-1.29015 0.145664 -0.0065 0
-1.29015 0.145664 -0.0065 0
-1.29015 0.145663 -0.0065 0
-1.29014 0.145663 -0.0066 0
-1.29014 0.145663 -0.0066 0
-1.29014 0.145661 -0.0066 0
-1.29014 0.14566 -0.0059 0
-1.29014 0.145659 -0.0059 0
-1.29014 0.145658 -0.0067 0
-1.29014 0.145658 -0.0067 0
-1.29014 0.145657 -0.0067 0
-1.29014 0.145657 -0.0062 0
-1.29014 0.145656 -0.0062 0
-1.29014 0.145656 -0.0063 0
-1.29014 0.145654 -0.0063 0
-1.29013 0.145653 -0.0063 0
-1.29013 0.145652 -0.0063 0
-1.29013 0.145651 -0.0067 0
-1.29013 0.14565 -0.0067 0
-1.29013 0.145649 -0.0067 0
-1.29013 0.145647 -0.0065 0
-1.29013 0.145647 -0.006 0
-1.29013 0.145646 -0.006 0
-1.29012 0.145645 -0.0064 0
-1.29012 0.145645 -0.0064 0
-1.29012 0.145645 -0.0064 0
-1.29012 0.145644 -0.0064 0
-1.29012 0.145645 -0.0063 0
-1.28809 0.143434 -0.0063 0
-1.29012 0.145644 -0.0068 0
-1.29012 0.145642 -0.0068 0
-1.29012 0.145641 -0.0063 0
-1.29012 0.145641 -0.0063 0
-1.28877 0.144166 -0.0067 0
-1.29012 0.145638 -0.0067 0
-1.29012 0.145638 -0.0066 0
-1.29012 0.145638 -0.0066 0
-1.29012 0.145637 -0.0058 0
-1.29011 0.145636 -0.0058 0
-1.29011 0.145635 -0.0064 0
-1.29011 0.145634 -0.0064 0
-1.29 0.145696 -0.0065 0
-1.29 0.145692 -0.0065 0
-1.29 0.145691 -0.0067 0
-1.29 0.145691 -0.0067 0
-1.29 0.145689 -0.0067 0
-1.29011 0.145625 -0.0067 0
-1.29011 0.145622 -0.0063 0
-1.29011 0.145621 -0.0063 0
-1.29011 0.14562 -0.0066 0
-1.29011 0.145617 -0.0066 0
-1.28808 0.143405 -0.0065 0
-1.2901 0.145615 -0.0065 0
-1.2901 0.145615 -0.0064 0
-1.2901 0.145615 -0.0064 0
-1.2901 0.145615 -0.0064 0
-1.28199 0.136773 -0.0065 0
-1.2901 0.145615 -0.0065 0
-1.28999 0.145677 -0.0066 0
-1.28999 0.145676 -0.0066 0
-1.2901 0.145613 -0.0066 0
-1.2901 0.145612 -0.0063 0
-1.2901 0.145611 -0.0063 0
-1.2901 0.14561 -0.0063 0
-1.2901 0.145609 -0.0063 0
-1.2901 0.145609 -0.0066 0
-1.2901 0.145607 -0.0066 0
-1.2901 0.145605 -0.0061 0
-1.2901 0.145605 -0.0061 0
-1.2901 0.145604 -0.0062 0
-1.2901 0.145603 -0.0062 0
-1.2901 0.145601 -0.0064 0
-1.29009 0.1456 -0.0064 0
-1.29009 0.1456 -0.0059 0
-1.29009 0.145599 -0.0059 0
-1.28998 0.145659 -0.0065 0
-1.28998 0.145658 -0.0065 0
-1.28998 0.145657 -0.0065 0
-1.28998 0.145657 -0.0065 0
-1.29009 0.145593 -0.0061 0
-1.28998 0.145655 -0.0061 0
-1.28998 0.145655 -0.0066 0
-1.28998 0.145654 -0.0066 0
-1.28997 0.145652 -0.0066 0
-1.29008 0.145588 -0.0066 0
-1.29008 0.145588 -0.0063 0
-1.29008 0.145586 -0.0066 0
-1.29008 0.145584 -0.0066 0
-1.29008 0.145583 -0.0066 0
-1.29008 0.145582 -0.0061 0
-1.29008 0.145582 -0.0064 0
-1.29008 0.145581 -0.0064 0
-1.29007 0.14558 -0.0064 0
-1.29007 0.145578 -0.0067 0
-1.29007 0.145578 -0.0064 0
-1.29007 0.145578 -0.0064 0
-1.29007 0.145578 -0.0064 0
-1.28996 0.14564 -0.0064 0
-1.28996 0.145638 -0.0065 0
-1.28996 0.145637 -0.0065 0
-1.28996 0.145636 -0.0068 0
-1.28996 0.145635 -0.0062 0
-1.28996 0.145634 -0.0062 0
-1.28996 0.145633 -0.0062 0
-1.28996 0.145633 -0.0067 0
-1.28996 0.145632 -0.0067 0
-1.28995 0.145632 -0.0064 0
-1.28995 0.14563 -0.0064 0
-1.28995 0.145629 -0.0069 0
-1.28995 0.145627 -0.0069 0
-1.28995 0.145625 -0.0065 0
-1.29006 0.145561 -0.0065 0
-1.29006 0.14556 -0.0065 0
-1.29005 0.145558 -0.0063 0
-1.29005 0.145557 -0.0062 0
-1.29005 0.145557 -0.0062 0
-1.29005 0.145556 -0.0062 0
-1.29005 0.145553 -0.0063 0
-1.29005 0.145552 -0.007 0
-1.29005 0.14555 -0.007 0
-1.29005 0.145549 -0.007 0
-1.29005 0.145549 -0.0068 0
-1.29005 0.145548 -0.0066 0
-1.29005 0.145547 -0.0066 0
-1.29005 0.145547 -0.0066 0
-1.29005 0.145547 -0.0061 0
-1.29005 0.145547 -0.006 0
-1.29005 0.145546 -0.006 0
-1.29005 0.145546 -0.006 0
-1.29005 0.145546 -0.0062 0
-1.29005 0.145545 -0.0065 0
-1.29005 0.145545 -0.0065 0
-1.29004 0.145545 -0.0065 0
-1.29004 0.145543 -0.007 0
-1.29004 0.145541 -0.0065 0
-1.29004 0.14554 -0.0065 0
-1.28994 0.145601 -0.0063 0
-1.28994 0.1456 -0.0063 0
-1.28994 0.145599 -0.0061 0
-1.28993 0.145598 -0.0061 0
-1.28993 0.145597 -0.0066 0
-1.28993 0.145596 -0.0066 0
-1.28993 0.145595 -0.006 0
-1.28993 0.145595 -0.006 0
-1.28993 0.145593 -0.0067 0
-1.28858 0.144118 -0.0067 0
-1.28993 0.145591 -0.0067 0
-1.28993 0.145591 -0.0067 0
-1.28993 0.145588 -0.0059 0
-1.28993 0.145589 -0.0059 0
-1.28993 0.145589 -0.0061 0
-1.28993 0.145588 -0.0061 0
-1.29003 0.145523 -0.0067 0
-1.29003 0.145523 -0.0067 0
-1.29003 0.145522 -0.0069 0
-1.29003 0.145522 -0.0069 0
-1.29003 0.145522 -0.0069 0
-1.29003 0.145522 -0.0065 0
-1.29003 0.145521 -0.0065 0
-1.29003 0.145521 -0.0068 0
-1.29003 0.14552 -0.0068 0
-1.29003 0.145519 -0.007 0
-1.29003 0.145519 -0.007 0
-1.29003 0.145518 -0.0065 0
-1.29003 0.145517 -0.0065 0
-1.28992 0.145579 -0.0065 0
-1.29002 0.145515 -0.0064 0
-1.29002 0.145514 -0.0069 0
-1.29002 0.145514 -0.0069 0
-1.29002 0.145514 -0.0069 0
-1.29002 0.145513 -0.0065 0
-1.29002 0.145513 -0.0065 0
-1.29002 0.145512 -0.0068 0
-1.29002 0.145511 -0.0068 0
-1.29002 0.14551 -0.0068 0
-1.28991 0.145571 -0.0067 0
-1.28991 0.145571 -0.0064 0
-1.28991 0.14557 -0.0064 0
-1.28991 0.145569 -0.0064 0
-1.28991 0.145567 -0.0067 0
-1.28991 0.145565 -0.0062 0
-1.28991 0.145563 -0.0062 0
-1.28991 0.145563 -0.0062 0
-1.28991 0.145563 -0.0063 0
-1.2899 0.145562 -0.0063 0
-1.2899 0.145562 -0.0067 0
-1.2899 0.145561 -0.0067 0
-1.2899 0.14556 -0.0067 0
-1.2899 0.145559 -0.0065 0
-1.2899 0.145558 -0.0065 0
-1.2899 0.145557 -0.0065 0
-1.28787 0.143346 -0.0065 0
-1.2899 0.145556 -0.0065 0
-1.2899 0.145556 -0.0063 0
-1.2899 0.145555 -0.0063 0
-1.2899 0.145554 -0.0067 0
-1.2899 0.14555 -0.0067 0
-1.28855 0.144074 -0.0063 0
-1.2899 0.145547 -0.0063 0
-1.2899 0.145545 -0.0065 0
-1.2899 0.145543 -0.0065 0
-1.2899 0.145542 -0.0063 0
-1.2899 0.145541 -0.0063 0
-1.2899 0.14554 -0.0065 0
-1.2899 0.145539 -0.0065 0
-1.28189 0.136633 -0.0065 0
-1.29 0.145474 -0.0065 0
-1.29 0.145473 -0.0069 0
-1.29 0.145473 -0.0069 0
-1.29 0.145471 -0.0066 0
-1.29 0.145471 -0.0066 0
-1.28989 0.145533 -0.0062 0
-1.28989 0.145532 -0.0062 0
-1.29 0.145468 -0.0071 0
-1.29 0.145467 -0.0071 0
-1.29 0.145464 -0.0058 0
-1.29 0.145463 -0.0058 0
-1.29 0.145462 -0.0063 0
-1.29 0.145461 -0.0065 0
-1.29 0.145461 -0.0065 0
-1.29 0.14546 -0.0065 0
-1.28999 0.145459 -0.0064 0
-1.28999 0.145459 -0.0062 0
-1.28999 0.145457 -0.0062 0
-1.28999 0.145456 -0.0062 0
-1.28999 0.145455 -0.0064 0
-1.28999 0.145454 -0.006 0
-1.28999 0.145453 -0.006 0
-1.28988 0.145515 -0.006 0
-1.28988 0.145514 -0.0068 0
-1.28999 0.14545 -0.0068 0
-1.28999 0.145448 -0.0062 0
-1.29066 0.146183 -0.0062 0
-1.28988 0.145508 -0.0062 0
-1.28988 0.145507 -0.0065 0
-1.28988 0.145505 -0.0067 0
-1.28988 0.145504 -0.0067 0
-1.28987 0.145503 -0.0067 0
-1.28987 0.145503 -0.0064 0
-1.28987 0.145502 -0.0064 0
-1.28987 0.145499 -0.0067 0
-1.28987 0.145499 -0.0067 0
-1.28987 0.145499 -0.0064 0
-1.28987 0.145499 -0.0064 0
-1.28987 0.145499 -0.0069 0
-1.28987 0.1455 -0.0069 0
-1.28987 0.145499 -0.0069 0
-1.28987 0.145498 -0.0061 0
-1.28986 0.145498 -0.0061 0
-1.28987 0.145498 -0.0061 0
-1.28986 0.145498 -0.0066 0
-1.28986 0.145497 -0.0066 0
-1.28986 0.145495 -0.0063 0
-1.28986 0.145495 -0.0063 0
-1.28986 0.145494 -0.0065 0
-1.28918 0.144756 -0.0064 0
-1.28986 0.145492 -0.0064 0
-1.28986 0.145491 -0.0064 0
-1.28986 0.14549 -0.0068 0
-1.28986 0.145489 -0.0068 0
-1.28986 0.145488 -0.0064 0
-1.28986 0.145488 -0.0064 0
-1.28986 0.145487 -0.0064 0
-1.28985 0.145487 -0.0063 0
-1.28985 0.145484 -0.0063 0
-1.28985 0.145483 -0.0063 0
-1.28985 0.145481 -0.0063 0
-1.28985 0.14548 -0.0061 0
-1.28985 0.14548 -0.0061 0
-1.28985 0.145481 -0.0066 0
-1.28984 0.145481 -0.0066 0
-1.28984 0.14548 -0.006 0
-1.28984 0.145479 -0.006 0
-1.28984 0.145478 -0.0061 0
-1.28984 0.145479 -0.0061 0
-1.28984 0.145479 -0.0061 0
-1.28984 0.145478 -0.0071 0
-1.28984 0.145477 -0.006 0
-1.28916 0.144739 -0.006 0
-1.28984 0.145475 -0.006 0
-1.28984 0.145474 -0.0066 0
-1.28984 0.145473 -0.0066 0
-1.28984 0.145471 -0.0061 0
-1.28984 0.14547 -0.0061 0
-1.28848 0.143994 -0.0061 0
-1.28983 0.145467 -0.0061 0
-1.28983 0.145466 -0.0061 0
-1.28916 0.144728 -0.0061 0
-1.28983 0.145464 -0.0061 0
-1.28983 0.145463 -0.0065 0
-1.28983 0.145462 -0.0068 0
-1.31754 0.175678 -0.0068 0
-1.28983 0.145461 -0.0068 0
-1.28983 0.145461 -0.0062 0
-1.28983 0.145461 -0.0062 0
-1.28983 0.14546 -0.0063 0
-1.28983 0.14546 -0.0063 0
-1.28983 0.14546 -0.0063 0
-1.28983 0.145458 -0.0064 0
-1.28983 0.145457 -0.0067 0
-1.28983 0.145457 -0.0067 0
-1.28983 0.145456 -0.0067 0
-1.28983 0.145455 -0.0063 0
-1.28982 0.145454 -0.0063 0
-1.28982 0.145453 -0.0064 0
-1.28993 0.145388 -0.0064 0
-1.28993 0.145388 -0.0067 0
-1.28993 0.145387 -0.0067 0
-1.31765 0.175598 -0.0069 0
-1.28993 0.145384 -0.0069 0
-1.28993 0.145383 -0.0063 0
-1.28993 0.145382 -0.0063 0
-1.28993 0.145381 -0.0064 0
-1.28993 0.14538 -0.0064 0
-1.28993 0.145379 -0.0069 0
-1.28857 0.143905 -0.0069 0
-1.28993 0.145376 -0.0062 0
-1.28993 0.145375 -0.0062 0
-1.28993 0.145375 -0.0063 0
-1.28982 0.145437 -0.0063 0
-1.28981 0.145437 -0.0072 0
-1.28981 0.145436 -0.0072 0
-1.28981 0.145435 -0.0072 0
-1.28981 0.145435 -0.0069 0
-1.28981 0.145434 -0.0069 0
-1.28981 0.145432 -0.0063 0
-1.28981 0.145431 -0.0063 0
-1.28981 0.14543 -0.0062 0
-1.28981 0.145429 -0.0062 0
-1.28981 0.145428 -0.0066 0
-1.28981 0.145427 -0.0066 0
-1.28981 0.145426 -0.0066 0
-1.28981 0.145425 -0.0059 0
-1.28981 0.145423 -0.0059 0
-1.28914 0.144684 -0.0063 0
-1.28981 0.14542 -0.0063 0
-1.28981 0.145419 -0.0072 0
-1.28981 0.145418 -0.0072 0
-1.28981 0.145417 -0.0057 0
-1.28981 0.145416 -0.0057 0
-1.28981 0.145414 -0.0063 0
-1.28981 0.145414 -0.0063 0
-1.28981 0.145413 -0.0068 0
-1.28981 0.145412 -0.0068 0
-1.28981 0.145409 -0.0063 0
-1.28981 0.145408 -0.0063 0
-1.28981 0.145408 -0.0058 0
-1.28981 0.145408 -0.0058 0
-1.28992 0.145342 -0.0062 0
-1.28981 0.145404 -0.0062 0
-1.2898 0.145403 -0.0071 0
-1.28991 0.145339 -0.0071 0
-1.28991 0.145339 -0.0061 0
-1.28991 0.145339 -0.0061 0
-1.28991 0.14534 -0.0063 0
-1.28991 0.145339 -0.0063 0
-1.28788 0.143127 -0.0064 0
-1.28991 0.145337 -0.0064 0
-1.28991 0.145337 -0.0063 0
-1.28923 0.1446 -0.0063 0
-1.28991 0.145336 -0.0063 0
-1.2899 0.145336 -0.0066 0
-1.2899 0.145336 -0.0066 0
-1.2899 0.145337 -0.0062 0
-1.2899 0.145337 -0.0062 0
-1.2899 0.145337 -0.0062 0
-1.2899 0.145336 -0.0062 0
-1.2899 0.145336 -0.0066 0
-1.2899 0.145335 -0.0066 0
-1.2899 0.145334 -0.0066 0
-1.28979 0.145396 -0.0061 0
-1.28979 0.145395 -0.0061 0
-1.28979 0.145394 -0.0063 0
-1.28978 0.145393 -0.0063 0
-1.28978 0.145393 -0.0067 0
-1.28911 0.144656 -0.0067 0
-1.28978 0.145392 -0.0068 0
-1.28978 0.145391 -0.0068 0
-1.28978 0.145391 -0.0068 0
-1.28978 0.14539 -0.0066 0
-1.28978 0.145389 -0.0066 0
-1.28978 0.145387 -0.0066 0
-1.28978 0.145387 -0.0066 0
-1.28978 0.145386 -0.0066 0
-1.28978 0.145386 -0.0066 0
-1.28978 0.145385 -0.0064 0
-1.28978 0.145385 -0.0064 0
-1.28978 0.145383 -0.0064 0
-1.28978 0.145382 -0.0068 0
-1.28978 0.145381 -0.0061 0
-1.28978 0.145382 -0.0061 0
-1.28978 0.145381 -0.0061 0
-1.28989 0.145316 -0.0068 0
-1.28989 0.145317 -0.0061 0
-1.28989 0.145317 -0.0061 0
-1.28989 0.145317 -0.0061 0
-1.28989 0.145316 -0.0066 0
-1.28989 0.145315 -0.0063 0
-1.28978 0.145377 -0.0063 0
-1.28978 0.145377 -0.0063 0
-1.28989 0.145313 -0.0065 0
-1.28989 0.145312 -0.0066 0
-1.28989 0.145311 -0.0066 0
-1.28989 0.145311 -0.0064 0
-1.28989 0.14531 -0.0064 0
-1.28978 0.145372 -0.0066 0
-1.28978 0.145372 -0.0066 0
-1.28978 0.145371 -0.0063 0
-1.28978 0.14537 -0.0063 0
-1.28989 0.145305 -0.006 0
-1.28978 0.145367 -0.006 0
-1.28978 0.145366 -0.0066 0
-1.28978 0.145366 -0.0066 0
-1.28978 0.145365 -0.0066 0
-1.28978 0.145364 -0.0066 0
-1.28978 0.145362 -0.0066 0
-1.28775 0.14315 -0.0066 0
-1.28978 0.145361 -0.0066 0
-1.28978 0.145361 -0.0062 0
-1.28977 0.145361 -0.0062 0
-1.28977 0.14536 -0.0069 0
-1.28977 0.14536 -0.0069 0
-1.28977 0.145359 -0.0058 0
-1.28977 0.145358 -0.0058 0
-1.28977 0.145357 -0.0064 0
-1.28977 0.145356 -0.0064 0
-1.28977 0.145355 -0.007 0
-1.28977 0.145355 -0.007 0
-1.28977 0.145354 -0.007 0
-1.28977 0.145353 -0.006 0
-1.28977 0.145352 -0.0068 0
-1.28977 0.145352 -0.0068 0
-1.28977 0.145352 -0.0068 0
-1.28977 0.145351 -0.0067 0
-1.28988 0.145287 -0.0067 0
-1.28988 0.145285 -0.0063 0
-1.28987 0.145284 -0.0063 0
-1.28987 0.145282 -0.0063 0
-1.28987 0.145281 -0.0066 0
-1.28987 0.14528 -0.0062 0
-1.28987 0.145279 -0.0062 0
-1.28987 0.145278 -0.0062 0
-1.28987 0.145277 -0.0064 0
-1.28987 0.145276 -0.0064 0
-1.28987 0.145275 -0.0063 0
-1.28987 0.145274 -0.0063 0
-1.28987 0.145273 -0.0064 0
-1.28987 0.145272 -0.0064 0
-1.28986 0.145271 -0.0067 0
-1.28986 0.14527 -0.0067 0
-1.28986 0.14527 -0.0067 0
-1.28783 0.143058 -0.0061 0
-1.28986 0.145267 -0.0061 0
-1.28986 0.145267 -0.0065 0
-1.28986 0.145266 -0.0065 0
-1.28986 0.145265 -0.0067 0
-1.28986 0.145264 -0.0067 0
-1.28986 0.145263 -0.0065 0
-1.28986 0.145263 -0.0065 0
-1.28986 0.145262 -0.0065 0
-1.28975 0.145325 -0.0068 0
-1.28907 0.144587 -0.006 0
-1.28974 0.145324 -0.006 0
-1.28974 0.145322 -0.006 0
-1.28974 0.145321 -0.0068 0
-1.28974 0.14532 -0.0068 0
-1.28974 0.145319 -0.0064 0
-1.28974 0.145317 -0.0064 0
-1.28985 0.145253 -0.0064 0
-1.28985 0.145252 -0.0067 0
-1.28974 0.145315 -0.0066 0
-1.28974 0.145315 -0.0066 0
-1.28974 0.145314 -0.0066 0
-1.28974 0.145314 -0.0063 0
-1.28974 0.145314 -0.0063 0
-1.28771 0.143102 -0.0065 0
-1.28973 0.145311 -0.0065 0
-1.28973 0.145309 -0.0066 0
-1.28973 0.145308 -0.0066 0
-1.28973 0.145307 -0.0063 0
-1.28973 0.145307 -0.0063 0
-1.28973 0.145306 -0.0069 0
-1.28973 0.145305 -0.0069 0
-1.28973 0.145304 -0.0063 0
-1.28973 0.145303 -0.0063 0
-1.28973 0.145301 -0.0063 0
-1.28973 0.1453 -0.0062 0
-1.28973 0.145299 -0.0066 0
-1.28973 0.145297 -0.0066 0
-1.28973 0.145296 -0.0066 0
-1.28973 0.145295 -0.0063 0
-1.28973 0.145295 -0.0063 0
-1.28973 0.145294 -0.0068 0
-1.28972 0.145293 -0.0068 0
-1.28972 0.145293 -0.0064 0
-1.28972 0.145292 -0.0064 0
-1.28972 0.145292 -0.0064 0
-1.28972 0.145291 -0.0064 0
-1.28972 0.14529 -0.0064 0
-1.28972 0.14529 -0.0064 0
-1.28972 0.145289 -0.0064 0
-1.28972 0.145287 -0.0066 0
-1.28972 0.145286 -0.0066 0
-1.28972 0.145285 -0.0065 0
-1.28972 0.145285 -0.0065 0
-1.28972 0.145284 -0.0065 0
-1.28972 0.145283 -0.0065 0
-1.28972 0.145281 -0.0065 0
-1.28972 0.14528 -0.0066 0
-1.28972 0.145279 -0.0066 0
-1.28972 0.145278 -0.0063 0
-1.28972 0.145277 -0.0063 0
-1.28972 0.145276 -0.0062 0
-1.28972 0.145275 -0.0062 0
-1.28972 0.145274 -0.0072 0
-1.28972 0.145272 -0.0072 0
-1.28972 0.145272 -0.0066 0
-1.28972 0.14527 -0.0066 0
-1.28972 0.145268 -0.0063 0
-1.28972 0.145268 -0.0063 0
-1.28972 0.145267 -0.0066 0
-1.28971 0.145267 -0.0066 0
-1.28779 0.142993 -0.006 0
-1.28982 0.145204 -0.006 0
-1.28971 0.145266 -0.0065 0
-1.28971 0.145266 -0.0065 0
-1.28971 0.145265 -0.0064 0
-1.28971 0.145264 -0.0064 0
-1.28971 0.145263 -0.0064 0
-1.28971 0.145263 -0.0067 0
-1.28971 0.145262 -0.0067 0
-1.28971 0.145262 -0.0065 0
-1.28971 0.145261 -0.0065 0
-1.28971 0.14526 -0.0063 0
-1.28971 0.145259 -0.0063 0
-1.28971 0.145257 -0.0066 0
-1.28971 0.145257 -0.0066 0
-1.28971 0.145256 -0.0063 0
-1.28971 0.145256 -0.0063 0
-1.28971 0.145255 -0.0067 0
-1.28971 0.145254 -0.0067 0
-1.28971 0.145253 -0.0064 0
-1.2897 0.145252 -0.0066 0
-1.2897 0.145252 -0.0066 0
-1.2897 0.145252 -0.0066 0
-1.2897 0.145251 -0.0061 0
-1.2897 0.145251 -0.0061 0
-1.2897 0.145251 -0.0062 0
-1.2897 0.145251 -0.0062 0
-1.2897 0.14525 -0.0067 0
-1.28767 0.143038 -0.0067 0
-1.2897 0.145246 -0.0066 0
-1.2897 0.145245 -0.0066 0
-1.2897 0.145245 -0.0059 0
-1.2897 0.145245 -0.0059 0
-1.28969 0.145244 -0.0067 0
-1.28969 0.145242 -0.0067 0
-1.28969 0.145241 -0.0063 0
-1.28969 0.14524 -0.0063 0
-1.28969 0.14524 -0.0069 0
-1.28969 0.14524 -0.0069 0
-1.28969 0.145239 -0.0069 0
-1.28969 0.145238 -0.006 0
-1.28969 0.145238 -0.006 0
-1.28969 0.145236 -0.0066 0
-1.28969 0.145235 -0.0066 0
-1.28969 0.145233 -0.0062 0
-1.28969 0.145232 -0.0062 0
-1.28968 0.145231 -0.0063 0
-1.28968 0.145229 -0.0063 0
-1.28968 0.145226 -0.0066 0
-1.28968 0.145225 -0.0066 0
-1.28968 0.145223 -0.0065 0
-1.28968 0.145222 -0.0065 0
-1.28968 0.145221 -0.0066 0
-1.28968 0.14522 -0.0066 0
-1.28968 0.145218 -0.0063 0
-1.28968 0.145218 -0.0063 0
-1.28968 0.145217 -0.0063 0
-1.28968 0.145218 -0.0067 0
-1.28968 0.145217 -0.0067 0
-1.28968 0.145215 -0.0061 0
-1.28968 0.145215 -0.0061 0
-1.28968 0.145214 -0.0067 0
-1.28968 0.145214 -0.0067 0
-1.28968 0.145214 -0.0062 0
-1.28968 0.145213 -0.0062 0
-1.28968 0.145214 -0.0064 0
-1.28968 0.145214 -0.0064 0
-1.28968 0.145214 -0.0063 0
-1.28968 0.145213 -0.0063 0
-1.28968 0.145213 -0.0063 0
-1.28968 0.145212 -0.0063 0
-1.28967 0.145211 -0.0063 0
-1.28967 0.145211 -0.0063 0
-1.28967 0.14521 -0.0063 0
-1.28967 0.145208 -0.0063 0
-1.28967 0.145206 -0.0062 0
-1.28967 0.145205 -0.0062 0
-1.28967 0.145205 -0.0062 0
-1.28978 0.14514 -0.0066 0
-1.28978 0.145139 -0.0066 0
-1.28978 0.145138 -0.0066 0
-1.29113 0.14661 -0.0062 0
-1.28977 0.145136 -0.0062 0
-1.28977 0.145135 -0.0062 0
-1.28977 0.145134 -0.0062 0
-1.28977 0.145134 -0.0062 0
-1.28977 0.145132 -0.0062 0
-1.28967 0.145195 -0.0068 0
-1.28977 0.145132 -0.0068 0
-1.28977 0.145131 -0.0068 0
-1.28977 0.14513 -0.0063 0
-1.28967 0.145189 -0.0069 0
-1.28966 0.145193 -0.0069 0
-1.28953 0.145269 -0.0069 0
-1.28897 0.145601 0.0071 0
-1.28876 0.145708 0.0436 0
-1.28845 0.145874 0.0436 0
-1.28753 0.145242 -0.0062 0
-1.28749 0.145245 -0.0062 0
-1.28746 0.14525 0.0291 0
-1.28756 0.145188 0.0291 0
-1.28771 0.145136 0.0291 0
-1.28817 0.144925 -0.000800002 0
-1.2883 0.144863 0.0043 0
-1.28764 0.14412 0.0043 0
-1.28766 0.144116 0.0043 0
-1.28768 0.144117 -0.0095 0
-1.28768 0.144118 -0.0075 0
-1.28779 0.144058 -0.0075 0
-1.2879 0.143995 -0.0071 0
-1.28722 0.143262 -0.0071 0
-1.28811 0.143881 -0.000900001 0
-1.28753 0.143085 -0.000900001 0
-1.28774 0.142952 0.0056 0
-1.28853 0.143618 0.0056 0
-1.28785 0.142873 -0.005 0
-1.28828 0.142611 -0.005 0
-1.28894 0.143341 0.0005 0
-1.28904 0.143274 0.0005 0
-1.28903 0.143277 -0.0046 0
-1.28836 0.142546 -0.0046 0
-1.28836 0.142553 -0.0055 0
-1.28837 0.142561 -0.0055 0
-1.28837 0.142565 -0.001 0
-1.28838 0.142566 -0.001 0
-1.28838 0.142565 -0.0045 0
-1.28837 0.142566 -0.0045 0
-1.28837 0.142565 -0.0036 0
-1.28837 0.142569 -0.0036 0
-1.28837 0.142571 -0.000600001 0
-1.28837 0.142572 -0.000600001 0
-1.28837 0.142572 -0.003 0
-1.28837 0.142571 -0.003 0
-1.28904 0.143309 -0.0034 0
-1.28836 0.142574 -0.0034 0
-1.28837 0.142574 -0.001 0
-1.28837 0.142574 -0.001 0
-1.28837 0.142573 -0.001 0
-1.28905 0.143307 -0.0033 0
-1.28837 0.14257 -0.0033 0
-1.28837 0.142573 -0.006 0
-1.28838 0.142577 -0.006 0
-1.28838 0.142576 -0.0013 0
-1.28837 0.142577 -0.0013 0
-1.28837 0.142577 -0.003 0
-1.28837 0.142575 -0.003 0
-1.28837 0.142575 -0.003 0
-1.28836 0.142572 -0.0029 0
-1.28836 0.142571 -0.000800001 0
-1.28836 0.14257 -0.000800001 0
-1.28836 0.142568 -0.000800001 0
-1.28836 0.142566 -0.0067 0
-1.28836 0.142567 -0.0038 0
-1.28836 0.142568 -0.0038 0
-1.28836 0.142569 -0.0038 0
-1.28836 0.142568 -0.005 0
-1.28836 0.142566 -0.0055 0
-1.28836 0.142565 -0.0055 0
-1.28836 0.142565 -0.0055 0
-1.28836 0.142566 -0.0011 0
-1.28835 0.142567 -0.004 0
-1.28835 0.142568 -0.004 0
