ply
format ascii 1.0
element vertex 1722
property float x
property float y
property float z
property float intensity
end_header
0.189913 0.703866 -0.0047 0
0.189758 0.700894 -0.0047 0
0.18979 0.703893 -0.0047 0
0.189789 0.703892 -0.0047 0
0.189789 0.703891 -0.0047 0
0.189788 0.703889 -0.0045 0
0.189788 0.703888 -0.0045 0
0.189788 0.703887 -0.0045 0
0.189788 0.703885 -0.0052 0
0.189788 0.703884 -0.005 0
0.189788 0.703883 -0.005 0
0.189787 0.703882 -0.005 0
0.189787 0.703881 -0.0041 0
0.189787 0.703879 -0.0041 0
0.189787 0.703879 -0.0052 0
0.189787 0.703878 -0.0052 0
0.189787 0.703877 -0.0049 0
0.189787 0.703878 -0.0049 0
0.189787 0.703877 -0.0049 0
0.189787 0.703877 -0.004 0
0.189786 0.703876 -0.004 0
0.189786 0.703876 -0.0049 0
0.189786 0.703875 -0.0049 0
0.189786 0.703874 -0.0046 0
0.189787 0.703873 -0.0046 0
0.189787 0.703873 -0.0045 0
0.189788 0.703872 -0.0045 0
0.189788 0.703872 -0.0044 0
0.189788 0.703872 -0.0044 0
0.189788 0.703872 -0.0049 0
0.189788 0.703872 -0.0049 0
0.189787 0.703872 -0.0046 0
0.189786 0.703871 -0.0046 0
0.189786 0.70387 -0.0049 0
0.189774 0.702869 -0.0049 0
0.189785 0.703868 -0.0049 0
0.189784 0.703865 -0.0049 0
0.189784 0.703864 -0.0047 0
0.189783 0.703863 -0.0047 0
0.189783 0.703862 -0.0047 0
0.189783 0.703862 -0.0045 0
0.189782 0.70386 -0.0045 0
0.189782 0.70386 -0.0045 0
0.189782 0.70386 -0.0045 0
0.189781 0.703859 -0.0045 0
0.189781 0.703858 -0.0045 0
0.189781 0.703857 -0.0046 0
0.189781 0.703855 -0.0046 0
0.189781 0.703854 -0.0047 0
0.189781 0.703853 -0.0047 0
0.189781 0.703851 -0.0047 0
0.18978 0.70385 -0.0051 0
0.18978 0.703849 -0.0051 0
0.18978 0.703847 -0.0045 0
0.18978 0.703847 -0.0045 0
0.189779 0.703844 -0.0049 0
0.189779 0.703843 -0.0049 0
0.18978 0.703842 -0.0043 0
0.18978 0.703842 -0.0043 0
0.18978 0.703841 -0.0043 0
0.189769 0.702839 -0.0046 0
0.189779 0.703838 -0.0046 0
0.189779 0.703838 -0.005 0
0.189779 0.703837 -0.005 0
0.189902 0.703808 -0.0045 0
0.189902 0.703807 -0.0045 0
0.189902 0.703805 -0.0044 0
0.189901 0.703804 -0.0044 0
0.189901 0.703803 -0.0044 0
0.189901 0.703802 -0.0048 0
0.189901 0.703801 -0.0048 0
0.189901 0.703799 -0.0045 0
0.189902 0.703799 -0.0045 0
0.189902 0.703798 -0.0048 0
0.189902 0.703797 -0.0048 0
0.189901 0.703797 -0.0048 0
0.189901 0.703796 -0.0049 0
0.189878 0.701795 -0.0049 0
0.1899 0.703793 -0.0045 0
0.189899 0.703792 -0.005 0
0.189899 0.703791 -0.005 0
0.189899 0.703791 -0.005 0
0.189898 0.70379 -0.0043 0
0.189898 0.703788 -0.0043 0
0.189897 0.703787 -0.0048 0
0.189895 0.703785 -0.0048 0
0.189895 0.703784 -0.0047 0
0.189896 0.703784 -0.0047 0
0.189896 0.703783 -0.0047 0
0.189896 0.703782 -0.0047 0
0.189896 0.703781 -0.0047 0
0.189895 0.703781 -0.005 0
0.189895 0.70378 -0.005 0
0.189772 0.703807 -0.0043 0
0.189772 0.703806 -0.0043 0
0.189772 0.703805 -0.0043 0
0.189761 0.702805 -0.0049 0
0.189772 0.703804 -0.0049 0
0.189772 0.703803 -0.0036 0
0.189762 0.702802 -0.0036 0
0.189773 0.703801 -0.0036 0
0.189774 0.7038 -0.0054 0
0.189775 0.703799 -0.0054 0
0.189775 0.703797 -0.0049 0
0.189776 0.703797 -0.0049 0
0.189776 0.703796 -0.0048 0
0.189776 0.703795 -0.0048 0
0.189775 0.703794 -0.0047 0
0.189775 0.703792 -0.0047 0
0.189775 0.703791 -0.004 0
0.189775 0.70379 -0.004 0
0.189775 0.70379 -0.0042 0
0.189774 0.703789 -0.0042 0
0.189775 0.703788 -0.0042 0
0.189775 0.703787 -0.0052 0
0.189775 0.703786 -0.0052 0
0.189775 0.703786 -0.0052 0
0.189775 0.703785 -0.0051 0
0.189775 0.703782 -0.0049 0
0.189775 0.703782 -0.0049 0
0.189775 0.703781 -0.0045 0
0.189775 0.70378 -0.0045 0
0.189775 0.703779 -0.0045 0
0.189774 0.703778 -0.0045 0
0.189773 0.703778 -0.0048 0
0.189772 0.703777 -0.0048 0
0.189772 0.703776 -0.0048 0
0.189771 0.703776 -0.0052 0
0.189771 0.703775 -0.0052 0
0.189771 0.703775 -0.0047 0
0.18977 0.703775 -0.0047 0
0.18977 0.703774 -0.0047 0
0.18977 0.703773 -0.0046 0
0.18977 0.703771 -0.0046 0
0.189769 0.70377 -0.0042 0
0.189769 0.703769 -0.0042 0
0.189769 0.703769 -0.0046 0
0.189769 0.703768 -0.0046 0
0.189758 0.702767 -0.0044 0
0.189769 0.703766 -0.0044 0
0.189769 0.703765 -0.0044 0
0.189768 0.703764 -0.0048 0
0.189767 0.703763 -0.0048 0
0.189766 0.703762 -0.0044 0
0.189765 0.703761 -0.0044 0
0.189764 0.703761 -0.0043 0
0.189763 0.703761 -0.0043 0
0.189763 0.70376 -0.0047 0
0.189741 0.70176 -0.0047 0
0.189763 0.70376 -0.0047 0
0.189762 0.703759 -0.0048 0
0.189762 0.703758 -0.0048 0
0.189761 0.703756 -0.0046 0
0.189761 0.703756 -0.0046 0
0.18976 0.703756 -0.0048 0
0.189759 0.703756 -0.0048 0
0.189758 0.703755 -0.0043 0
0.189758 0.703754 -0.0043 0
0.189758 0.703753 -0.0045 0
0.189759 0.703753 -0.0045 0
0.189758 0.703752 -0.005 0
0.189757 0.703751 -0.005 0
0.189879 0.703722 -0.0046 0
0.189878 0.703722 -0.0046 0
0.189845 0.700721 -0.0047 0
0.189756 0.703748 -0.0047 0
0.189755 0.703746 -0.0047 0
0.189878 0.703717 -0.0047 0
0.189878 0.703715 -0.0043 0
0.189878 0.703714 -0.0043 0
0.189879 0.703713 -0.0043 0
0.189878 0.703711 -0.0049 0
0.189878 0.70371 -0.0045 0
0.189879 0.703708 -0.0045 0
0.189879 0.703706 -0.0045 0
0.18988 0.703705 -0.0048 0
0.18988 0.703704 -0.0048 0
0.189881 0.703703 -0.0046 0
0.189881 0.703702 -0.0046 0
0.189881 0.7037 -0.0047 0
0.189881 0.703698 -0.0047 0
0.189881 0.703698 -0.0045 0
0.189881 0.703697 -0.0045 0
0.189883 0.703694 -0.0046 0
0.189883 0.703693 -0.0046 0
0.189884 0.703693 -0.0049 0
0.189884 0.703691 -0.0049 0
0.189884 0.703689 -0.0052 0
0.189883 0.703688 -0.0052 0
0.189883 0.703687 -0.0048 0
0.189884 0.703684 -0.0048 0
0.189884 0.703683 -0.0046 0
0.189884 0.703683 -0.0046 0
0.189885 0.703682 -0.0047 0
0.189762 0.703707 -0.0047 0
0.189762 0.703706 -0.0047 0
0.189762 0.703705 -0.0047 0
0.189762 0.703703 -0.005 0
0.189762 0.7037 -0.005 0
0.189762 0.7037 -0.0048 0
0.189762 0.703699 -0.0048 0
0.189762 0.703698 -0.0048 0
0.189761 0.703694 -0.0046 0
0.189761 0.703694 -0.0043 0
0.189761 0.703692 -0.0043 0
0.189762 0.70369 -0.0046 0
0.189762 0.703689 -0.0046 0
0.189762 0.703689 -0.0046 0
0.189762 0.703688 -0.0046 0
0.189763 0.703687 -0.0046 0
0.189763 0.703687 -0.0045 0
0.189763 0.703686 -0.0045 0
0.189763 0.703685 -0.0045 0
0.189762 0.703684 -0.0044 0
0.189884 0.703655 -0.0044 0
0.189761 0.703682 -0.0049 0
0.189761 0.703682 -0.0049 0
0.189762 0.703682 -0.0048 0
0.189762 0.703682 -0.0048 0
0.189762 0.703681 -0.0049 0
0.189884 0.703653 -0.0049 0
0.189884 0.703652 -0.0049 0
0.189884 0.703652 -0.0048 0
0.189762 0.703681 -0.0048 0
0.189761 0.703681 -0.0048 0
0.189761 0.703681 -0.0048 0
0.189761 0.703681 -0.0049 0
0.189883 0.703652 -0.0049 0
0.189883 0.703652 -0.0045 0
0.189883 0.703651 -0.0045 0
0.189884 0.703651 -0.0045 0
0.189885 0.703649 -0.0048 0
0.189875 0.702648 -0.0048 0
0.189886 0.703648 -0.0044 0
0.189886 0.703647 -0.0044 0
0.189886 0.703645 -0.0045 0
0.189886 0.703644 -0.005 0
0.189886 0.703642 -0.005 0
0.189766 0.70367 -0.0041 0
0.189767 0.703669 -0.0041 0
0.189766 0.703668 -0.0041 0
0.189766 0.703667 -0.0046 0
0.189765 0.703665 -0.005 0
0.189764 0.703664 -0.005 0
0.189763 0.703663 -0.0048 0
0.189885 0.703634 -0.0048 0
0.189884 0.703632 -0.0049 0
0.189872 0.702631 -0.0049 0
0.189883 0.70363 -0.0049 0
0.189882 0.703628 -0.0049 0
0.189882 0.703626 -0.0048 0
0.189882 0.703624 -0.0048 0
0.189882 0.703622 -0.0045 0
0.189881 0.70362 -0.0045 0
0.189879 0.703616 -0.0046 0
0.189878 0.703615 -0.0046 0
0.189877 0.703613 -0.0045 0
0.189877 0.70361 -0.0045 0
0.189877 0.703608 -0.0044 0
0.189877 0.703606 -0.0044 0
0.189876 0.703605 -0.0043 0
0.189875 0.703604 -0.0043 0
0.189874 0.703603 -0.0043 0
0.189751 0.703629 -0.0044 0
0.189749 0.703627 -0.0044 0
0.189749 0.703625 -0.0046 0
0.189749 0.703622 -0.0046 0
0.189749 0.70362 -0.0047 0
0.189748 0.703618 -0.0047 0
0.189871 0.703586 -0.0048 0
0.189871 0.703586 -0.0048 0
0.189871 0.703584 -0.0045 0
0.189871 0.703583 -0.0045 0
0.189871 0.703581 -0.0039 0
0.189872 0.70358 -0.0039 0
0.189872 0.703579 -0.0047 0
0.189872 0.703578 -0.0047 0
0.189872 0.703577 -0.0048 0
0.189872 0.703577 -0.0048 0
0.189749 0.703605 -0.0044 0
0.18975 0.703604 -0.0046 0
0.18975 0.703603 -0.0046 0
0.18975 0.703602 -0.0046 0
0.18975 0.7036 -0.0049 0
0.189873 0.70357 -0.0046 0
0.189872 0.70357 -0.0046 0
0.189871 0.703569 -0.0046 0
0.189871 0.703568 -0.0048 0
0.189871 0.703566 -0.0048 0
0.18987 0.703565 -0.0048 0
0.18987 0.703564 -0.0048 0
0.18987 0.703563 -0.0048 0
0.18987 0.703562 -0.0046 0
0.18987 0.703561 -0.0046 0
0.18987 0.70356 -0.0046 0
0.18987 0.703559 -0.0045 0
0.189871 0.703558 -0.0045 0
0.18987 0.703558 -0.0045 0
0.189869 0.703557 -0.0048 0
0.189869 0.703556 -0.0048 0
0.189869 0.703555 -0.0048 0
0.189869 0.703553 -0.0048 0
0.189869 0.70355 -0.0045 0
0.189869 0.703549 -0.0045 0
0.189869 0.703549 -0.0049 0
0.189868 0.703549 -0.0049 0
0.189868 0.703548 -0.0041 0
0.189867 0.703547 -0.0041 0
0.189867 0.703546 -0.0041 0
0.189866 0.703546 -0.0044 0
0.189866 0.703545 -0.0044 0
0.189866 0.703544 -0.0045 0
0.189865 0.703544 -0.0045 0
0.189865 0.703542 -0.0049 0
0.189864 0.703541 -0.0049 0
0.189863 0.703541 -0.0049 0
0.189862 0.703541 -0.0047 0
0.189861 0.70354 -0.0047 0
0.18986 0.703539 -0.0047 0
0.189859 0.703537 -0.0047 0
0.189858 0.703537 -0.0045 0
0.189858 0.703536 -0.0045 0
0.189857 0.703535 -0.0044 0
0.189856 0.703534 -0.0044 0
0.189854 0.703533 -0.0049 0
0.189853 0.703532 -0.0049 0
0.189852 0.703531 -0.0047 0
0.189852 0.70353 -0.0047 0
0.189852 0.703529 -0.0047 0
0.189852 0.703528 -0.0047 0
0.189851 0.703527 -0.0046 0
0.189727 0.703554 -0.0043 0
0.189726 0.703553 -0.0043 0
0.189725 0.703551 -0.0043 0
0.189607 0.692551 -0.0049 0
0.189724 0.70355 -0.0049 0
0.189724 0.703549 -0.0049 0
0.189723 0.703548 -0.005 0
0.189722 0.703547 -0.005 0
0.189722 0.703546 -0.0044 0
0.189722 0.703545 -0.0044 0
0.189722 0.703544 -0.0049 0
0.189722 0.703543 -0.0049 0
0.189722 0.703543 -0.0053 0
0.189722 0.703542 -0.0053 0
0.189721 0.703541 -0.0046 0
0.189722 0.703539 -0.0046 0
0.189723 0.703537 -0.0046 0
0.189723 0.703535 -0.0047 0
0.189724 0.703535 -0.0047 0
0.189726 0.703537 -0.0055 0
0.189727 0.703536 -0.0055 0
0.189727 0.703536 -0.0044 0
0.189727 0.703536 -0.0044 0
0.189727 0.703535 -0.0044 0
0.189727 0.703535 -0.0044 0
0.189849 0.703503 -0.0042 0
0.189849 0.703503 -0.0042 0
0.189848 0.703502 -0.0042 0
0.189849 0.703501 -0.0051 0
0.189849 0.7035 -0.0051 0
0.189849 0.703499 -0.0048 0
0.189849 0.703498 -0.0048 0
0.189726 0.703527 -0.0043 0
0.189725 0.703526 -0.0043 0
0.189725 0.703526 -0.0047 0
0.189724 0.703526 -0.0047 0
0.189725 0.703526 -0.0047 0
0.189726 0.703525 -0.0045 0
0.189726 0.703524 -0.0045 0
0.189726 0.703523 -0.0051 0
0.189849 0.703492 -0.0046 0
0.189849 0.703491 -0.0046 0
0.189726 0.703518 -0.0046 0
0.189727 0.703517 -0.0044 0
0.189727 0.703516 -0.0044 0
0.189727 0.703515 -0.005 0
0.189727 0.703513 -0.005 0
0.189727 0.703511 -0.0046 0
0.189728 0.703509 -0.0046 0
0.189729 0.703507 -0.0046 0
0.189729 0.703506 -0.0046 0
0.189851 0.703477 -0.0046 0
0.189729 0.703506 -0.0052 0
0.189863 0.704477 -0.0052 0
0.189729 0.703505 -0.0052 0
0.189852 0.703475 -0.0051 0
0.189852 0.703474 -0.0051 0
0.189852 0.703472 -0.0049 0
0.189853 0.703471 -0.0045 0
0.189831 0.701471 -0.0045 0
0.189852 0.70347 -0.0045 0
0.189852 0.703469 -0.0045 0
0.189852 0.703468 -0.0045 0
0.189729 0.703496 -0.0045 0
0.189852 0.703467 -0.0047 0
0.189852 0.703466 -0.0048 0
0.189729 0.703493 -0.0048 0
0.189729 0.703492 -0.0048 0
0.189729 0.703491 -0.0044 0
0.189729 0.703487 -0.005 0
0.189852 0.703457 -0.005 0
0.189852 0.703456 -0.0042 0
0.189853 0.703455 -0.0042 0
0.189853 0.703454 -0.0042 0
0.189853 0.703453 -0.0054 0
0.189853 0.703452 -0.0054 0
0.189853 0.703451 -0.0048 0
0.189853 0.703447 -0.0048 0
0.189852 0.703446 -0.0046 0
0.189852 0.703446 -0.0046 0
0.189851 0.703446 -0.005 0
0.189851 0.703445 -0.005 0
0.189727 0.703473 -0.005 0
0.189727 0.703473 -0.0045 0
0.189725 0.703471 -0.0045 0
0.189725 0.703469 -0.0046 0
0.189725 0.703469 -0.0046 0
0.189724 0.703468 -0.005 0
0.189725 0.703468 -0.005 0
0.189725 0.703467 -0.005 0
0.189726 0.703467 -0.0046 0
0.189725 0.703467 -0.0048 0
0.189725 0.703466 -0.0048 0
0.189725 0.703464 -0.0048 0
0.189726 0.703463 -0.0044 0
0.189725 0.703462 -0.0044 0
0.189725 0.70346 -0.0048 0
0.189724 0.703459 -0.0049 0
0.189724 0.703457 -0.0049 0
0.189724 0.703456 -0.0047 0
0.189724 0.703455 -0.0047 0
0.189724 0.703453 -0.0046 0
0.189724 0.70345 -0.0046 0
0.189724 0.703449 -0.0043 0
0.189724 0.703448 -0.0043 0
0.189724 0.703448 -0.0047 0
0.189724 0.703446 -0.0047 0
0.189724 0.703444 -0.0047 0
0.189724 0.703443 -0.0047 0
0.189724 0.703442 -0.0043 0
0.189724 0.703441 -0.0043 0
0.189724 0.70344 -0.0044 0
0.189724 0.70344 -0.0044 0
0.189724 0.703438 -0.0047 0
0.189724 0.703437 -0.0047 0
0.189724 0.703437 -0.0044 0
0.189724 0.703437 -0.0044 0
0.189724 0.703437 -0.0049 0
0.189723 0.703436 -0.0049 0
0.189723 0.703436 -0.0043 0
0.189723 0.703435 -0.0043 0
0.189722 0.703435 -0.0043 0
0.189723 0.703435 -0.0043 0
0.189723 0.703435 -0.0048 0
0.189724 0.703434 -0.0048 0
0.189724 0.703433 -0.0048 0
0.189723 0.703432 -0.0047 0
0.189724 0.703431 -0.0047 0
0.189724 0.70343 -0.0043 0
0.189724 0.703427 -0.0043 0
0.189724 0.703425 -0.0045 0
0.189725 0.703425 -0.0045 0
0.189725 0.703424 -0.0045 0
0.189725 0.703422 -0.0044 0
0.189725 0.703422 -0.0044 0
0.189725 0.703421 -0.0044 0
0.189725 0.70342 -0.0048 0
0.189693 0.700418 -0.0048 0
0.189726 0.703417 -0.0048 0
0.189726 0.703416 -0.0048 0
0.189727 0.703416 -0.0047 0
0.189726 0.703414 -0.0047 0
0.189727 0.703414 -0.0047 0
0.189727 0.703413 -0.005 0
0.189727 0.703412 -0.005 0
0.189727 0.703412 -0.0044 0
0.189727 0.70341 -0.005 0
0.189728 0.703409 -0.005 0
0.189728 0.703409 -0.005 0
0.189728 0.703409 -0.0051 0
0.189727 0.703408 -0.0051 0
0.189727 0.703408 -0.0051 0
0.189727 0.703407 -0.0047 0
0.189727 0.703405 -0.0047 0
0.189726 0.703404 -0.0045 0
0.189726 0.703403 -0.0045 0
0.189726 0.703402 -0.0048 0
0.189726 0.703402 -0.0048 0
0.189726 0.703401 -0.0044 0
0.189725 0.703401 -0.0044 0
0.189725 0.7034 -0.0051 0
0.189725 0.7034 -0.0051 0
0.189725 0.703399 -0.0051 0
0.189725 0.703399 -0.0045 0
0.189726 0.703398 -0.0045 0
0.189726 0.703398 -0.0047 0
0.189725 0.703398 -0.0047 0
0.189725 0.703397 -0.0047 0
0.189725 0.703396 -0.0048 0
0.189725 0.703396 -0.0048 0
0.189726 0.703395 -0.0046 0
0.189727 0.703394 -0.0046 0
0.189727 0.703393 -0.0046 0
0.189728 0.703392 -0.0042 0
0.189728 0.703392 -0.0046 0
0.189729 0.703391 -0.0046 0
0.189729 0.703391 -0.0046 0
0.189697 0.70039 -0.0045 0
0.18973 0.703389 -0.0045 0
0.18973 0.703388 -0.0045 0
0.189731 0.703388 -0.0045 0
0.189731 0.703387 -0.0045 0
0.189731 0.703387 -0.0046 0
0.189731 0.703385 -0.0046 0
0.189732 0.703384 -0.0043 0
0.189732 0.703382 -0.0043 0
0.189732 0.703382 -0.0041 0
0.189732 0.703381 -0.0041 0
0.189731 0.703382 -0.0044 0
0.189731 0.703382 -0.0044 0
0.189731 0.703381 -0.0044 0
0.189732 0.703379 -0.0047 0
0.189732 0.703377 -0.0044 0
0.189732 0.703376 -0.0044 0
0.189732 0.703374 -0.0044 0
0.189722 0.702373 -0.0047 0
0.189733 0.703373 -0.0047 0
0.189734 0.703372 -0.0045 0
0.189734 0.703372 -0.0045 0
0.189734 0.703372 -0.0047 0
0.189735 0.703371 -0.0047 0
0.189735 0.703371 -0.0046 0
0.189734 0.70337 -0.0046 0
0.189734 0.703369 -0.0046 0
0.189733 0.703368 -0.0044 0
0.189732 0.703368 -0.0051 0
0.189731 0.703367 -0.0051 0
0.189731 0.703365 -0.0051 0
0.18973 0.703364 -0.0045 0
0.18973 0.703364 -0.0045 0
0.18973 0.703364 -0.005 0
0.189698 0.700364 -0.005 0
0.189731 0.703363 -0.005 0
0.189731 0.703362 -0.0047 0
0.189731 0.703361 -0.0047 0
0.189731 0.703359 -0.0047 0
0.18973 0.703357 -0.0048 0
0.189729 0.703356 -0.0045 0
0.189728 0.703354 -0.0045 0
0.189727 0.703353 -0.0049 0
0.189726 0.703352 -0.0049 0
0.189726 0.703351 -0.0046 0
0.189725 0.70335 -0.0046 0
0.189724 0.703348 -0.0047 0
0.189724 0.703348 -0.0047 0
0.189724 0.703346 -0.005 0
0.189723 0.703345 -0.005 0
0.189722 0.703345 -0.0046 0
0.189722 0.703344 -0.0046 0
0.18972 0.703343 -0.0046 0
0.189698 0.701342 -0.0052 0
0.189719 0.703342 -0.0052 0
0.189698 0.701341 -0.0049 0
0.18972 0.70334 -0.0049 0
0.18972 0.703339 -0.0046 0
0.18972 0.703337 -0.0046 0
0.18972 0.703335 -0.0051 0
0.18972 0.703334 -0.0051 0
0.189719 0.703333 -0.0051 0
0.189841 0.703302 -0.0042 0
0.189841 0.703302 -0.0046 0
0.189841 0.703302 -0.0046 0
0.189841 0.703302 -0.0046 0
0.189718 0.70333 -0.0047 0
0.189718 0.703328 -0.0046 0
0.189841 0.703299 -0.0046 0
0.189841 0.703297 -0.0046 0
0.18972 0.703323 -0.0045 0
0.189722 0.703322 -0.0046 0
0.189722 0.703322 -0.0046 0
0.190163 0.744319 -0.0046 0
0.189723 0.703321 -0.0048 0
0.189713 0.702321 -0.0048 0
0.189723 0.70332 -0.0048 0
0.189722 0.70332 -0.0048 0
0.189844 0.703291 -0.0045 0
0.189844 0.703291 -0.0045 0
0.189843 0.703289 -0.0047 0
0.189843 0.703288 -0.0047 0
0.189843 0.703287 -0.0045 0
0.189844 0.703287 -0.0045 0
0.189845 0.703287 -0.0048 0
0.189845 0.703286 -0.0048 0
0.189844 0.703285 -0.0043 0
0.189844 0.703284 -0.0043 0
0.189844 0.703283 -0.0043 0
0.189843 0.70328 -0.0048 0
0.189843 0.703279 -0.0047 0
0.189842 0.703278 -0.0047 0
0.189842 0.703277 -0.0047 0
0.189841 0.703277 -0.0043 0
0.189841 0.703276 -0.0043 0
0.189841 0.703274 -0.0049 0
0.189841 0.703273 -0.0048 0
0.189842 0.703273 -0.0048 0
0.189843 0.703273 -0.0048 0
0.189843 0.703272 -0.0049 0
0.189843 0.70327 -0.0049 0
0.189843 0.703269 -0.0045 0
0.189843 0.703269 -0.0045 0
0.189843 0.703268 -0.0045 0
0.189843 0.703267 -0.0044 0
0.189843 0.703266 -0.0044 0
0.189842 0.703266 -0.0046 0
0.189842 0.703264 -0.0046 0
0.189841 0.703263 -0.0045 0
0.189841 0.703262 -0.0045 0
0.189841 0.703262 -0.0043 0
0.189842 0.703261 -0.0043 0
0.189842 0.703261 -0.0043 0
0.189842 0.703261 -0.0049 0
0.189842 0.70326 -0.0049 0
0.189842 0.703258 -0.0046 0
0.189842 0.703256 -0.0046 0
0.189841 0.703255 -0.0051 0
0.189841 0.703254 -0.0051 0
0.189719 0.703281 -0.0051 0
0.189718 0.703278 -0.0047 0
0.189697 0.701276 -0.0047 0
0.189719 0.703275 -0.0047 0
0.189719 0.703273 -0.0049 0
0.189718 0.703271 -0.0049 0
0.189718 0.703271 -0.0049 0
0.189717 0.703269 -0.0046 0
0.189717 0.703268 -0.0046 0
0.189717 0.703267 -0.0048 0
0.189839 0.703236 -0.0048 0
0.189716 0.703264 -0.0048 0
0.189695 0.701263 -0.0048 0
0.189838 0.703233 -0.0048 0
0.189716 0.70326 -0.0045 0
0.189715 0.703258 -0.0045 0
0.189715 0.703257 -0.0043 0
0.189715 0.703257 -0.0043 0
0.189714 0.703254 -0.0048 0
0.189714 0.703254 -0.0048 0
0.189714 0.703253 -0.0044 0
0.189713 0.703252 -0.0044 0
0.189835 0.703223 -0.0044 0
0.189691 0.70125 -0.0044 0
0.189713 0.703249 -0.0044 0
0.189713 0.703248 -0.0048 0
0.189835 0.703216 -0.0048 0
0.189836 0.703214 -0.0046 0
0.189837 0.703213 -0.0046 0
0.189837 0.703212 -0.0047 0
0.189837 0.70321 -0.0047 0
0.189837 0.703209 -0.0047 0
0.189837 0.703208 -0.0042 0
0.189838 0.703207 -0.0042 0
0.189838 0.703206 -0.0047 0
0.189838 0.703206 -0.0047 0
0.189838 0.703205 -0.005 0
0.189838 0.703205 -0.005 0
0.189837 0.703204 -0.0043 0
0.189837 0.703203 -0.0043 0
0.189836 0.703203 -0.0051 0
0.189835 0.703204 -0.0051 0
0.189835 0.703204 -0.0047 0
0.189834 0.703205 -0.0047 0
0.189833 0.703205 -0.0051 0
0.189833 0.703204 -0.0051 0
0.189832 0.703203 -0.0045 0
0.189833 0.703201 -0.0049 0
0.189832 0.7032 -0.0049 0
0.189833 0.703199 -0.0049 0
0.189832 0.703197 -0.0049 0
0.189832 0.703194 -0.0049 0
0.189832 0.703192 -0.0042 0
0.189832 0.70319 -0.0042 0
0.189832 0.703189 -0.0046 0
0.189832 0.703187 -0.0047 0
0.189831 0.703185 -0.0047 0
0.189831 0.703184 -0.0047 0
0.189832 0.703182 -0.0048 0
0.189831 0.70318 -0.0048 0
0.189831 0.703179 -0.0044 0
0.18983 0.703178 -0.0044 0
0.189828 0.703176 -0.0049 0
0.189828 0.703176 -0.0049 0
0.189828 0.703175 -0.0049 0
0.189828 0.703173 -0.0049 0
0.189827 0.703171 -0.0043 0
0.189827 0.70317 -0.0043 0
0.189826 0.703169 -0.0049 0
0.189826 0.703168 -0.0049 0
0.189826 0.703166 -0.0043 0
0.189825 0.703163 -0.0048 0
0.189825 0.703162 -0.0048 0
0.189825 0.70316 -0.0048 0
0.189824 0.703158 -0.0047 0
0.189824 0.703157 -0.0047 0
0.189823 0.703156 -0.0047 0
0.189822 0.703155 -0.0047 0
0.189822 0.703154 -0.0049 0
0.189821 0.703153 -0.0049 0
0.189821 0.703152 -0.0049 0
0.189821 0.703152 -0.0052 0
0.18982 0.703151 -0.0052 0
0.18982 0.70315 -0.0047 0
0.189819 0.70315 -0.0047 0
0.189819 0.70315 -0.0046 0
0.189818 0.703149 -0.0046 0
0.189818 0.703146 -0.0051 0
0.189817 0.703145 -0.0051 0
0.189817 0.703143 -0.0048 0
0.189816 0.703139 -0.0048 0
0.189817 0.703138 -0.0051 0
0.189817 0.703138 -0.0051 0
0.189817 0.703137 -0.0046 0
0.189817 0.703137 -0.0046 0
0.189818 0.703136 -0.0046 0
0.189819 0.703134 -0.0046 0
0.189819 0.703134 -0.0045 0
0.189819 0.703133 -0.0045 0
0.189819 0.703132 -0.0045 0
0.189818 0.70313 -0.0048 0
0.189819 0.703128 -0.0048 0
0.189818 0.703126 -0.0052 0
0.189818 0.703125 -0.0052 0
0.189818 0.703125 -0.0046 0
0.189819 0.703125 -0.0046 0
0.189819 0.703124 -0.0047 0
0.18982 0.703123 -0.0047 0
0.18982 0.703122 -0.0047 0
0.18982 0.703122 -0.0046 0
0.18982 0.703122 -0.0046 0
0.18982 0.703121 -0.0046 0
0.18982 0.703121 -0.0039 0
0.189819 0.703118 -0.0043 0
0.18982 0.703117 -0.0043 0
0.18982 0.703115 -0.0044 0
0.18982 0.703114 -0.0044 0
0.189821 0.703113 -0.0044 0
0.189822 0.703112 -0.0046 0
0.189822 0.70311 -0.0046 0
0.189823 0.703109 -0.0045 0
0.189823 0.703109 -0.0045 0
0.189824 0.703108 -0.0045 0
0.189823 0.703107 -0.005 0
0.189824 0.703107 -0.005 0
0.189824 0.703105 -0.0048 0
0.189823 0.703101 -0.0048 0
0.189822 0.7031 -0.0048 0
0.189822 0.7031 -0.0048 0
0.189822 0.703099 -0.0048 0
0.189821 0.703098 -0.0047 0
0.18982 0.703097 -0.0047 0
0.18982 0.703096 -0.0048 0
0.18982 0.703095 -0.0048 0
0.189821 0.703094 -0.0048 0
0.18982 0.703091 -0.0043 0
0.18982 0.70309 -0.0047 0
0.18982 0.70309 -0.0047 0
0.18982 0.703089 -0.0048 0
0.189819 0.703088 -0.0048 0
0.189819 0.703086 -0.0048 0
0.189818 0.703084 -0.0051 0
0.189816 0.70308 -0.0051 0
0.189815 0.703079 -0.0046 0
0.189814 0.703077 -0.0046 0
0.189813 0.703076 -0.0046 0
0.189813 0.703076 -0.0046 0
0.189812 0.703075 -0.0046 0
0.18981 0.703073 -0.0046 0
0.18981 0.703071 -0.0048 0
0.189809 0.703069 -0.0048 0
0.189807 0.703068 -0.0048 0
0.189806 0.703066 -0.0048 0
0.189806 0.703065 -0.0048 0
0.189805 0.703064 -0.0041 0
0.189805 0.703064 -0.0041 0
0.189804 0.703063 -0.0045 0
0.189804 0.703062 -0.0045 0
0.189793 0.702061 -0.0045 0
0.189803 0.703059 -0.0047 0
0.189804 0.703059 -0.0047 0
0.189804 0.703058 -0.0047 0
0.189803 0.703057 -0.0047 0
0.189803 0.703055 -0.0049 0
0.189803 0.703054 -0.0049 0
0.189803 0.703053 -0.0047 0
0.189802 0.703051 -0.0047 0
0.189801 0.703049 -0.0047 0
0.189801 0.703049 -0.0047 0
0.189801 0.703048 -0.0041 0
0.1898 0.703048 -0.0041 0
0.1898 0.703047 -0.0041 0
0.189777 0.701046 -0.0047 0
0.189798 0.703045 -0.0047 0
0.189798 0.703044 -0.0046 0
0.189798 0.703043 -0.0046 0
0.189798 0.703042 -0.0046 0
0.189798 0.70304 -0.0048 0
0.189798 0.70304 -0.0048 0
0.189798 0.703039 -0.0042 0
0.189798 0.703037 -0.0042 0
0.189798 0.703036 -0.0044 0
0.189798 0.703036 -0.0044 0
0.189798 0.703035 -0.0043 0
0.189797 0.703035 -0.0043 0
0.189797 0.703034 -0.0043 0
0.189797 0.703034 -0.0048 0
0.189797 0.703033 -0.0048 0
0.189786 0.702032 -0.0044 0
0.189786 0.702031 -0.0044 0
0.189797 0.70303 -0.0044 0
0.189796 0.703029 -0.0045 0
0.189664 0.69103 -0.0049 0
0.189794 0.703028 -0.0049 0
0.189794 0.703027 -0.0049 0
0.189794 0.703026 -0.0044 0
0.189793 0.703025 -0.0044 0
0.189793 0.703025 -0.0048 0
0.189793 0.703023 -0.0048 0
0.189792 0.703023 -0.0046 0
0.189669 0.703051 -0.0046 0
0.189668 0.703051 -0.0042 0
0.189668 0.70305 -0.0042 0
0.189668 0.70305 -0.0042 0
0.189668 0.703049 -0.0048 0
0.189668 0.703049 -0.0048 0
0.189668 0.703049 -0.0042 0
0.189668 0.703047 -0.0042 0
0.189669 0.703047 -0.0043 0
0.189668 0.703047 -0.0043 0
0.189668 0.703046 -0.0045 0
0.189668 0.703045 -0.0045 0
0.189791 0.703015 -0.0045 0
0.189791 0.703014 -0.0048 0
0.18979 0.703014 -0.0048 0
0.189789 0.703013 -0.005 0
0.189666 0.703039 -0.005 0
0.189665 0.703037 -0.0047 0
0.189788 0.703008 -0.0047 0
0.189788 0.703006 -0.0048 0
0.189755 0.700005 -0.0048 0
0.189787 0.703005 -0.0048 0
0.189786 0.703004 -0.0048 0
0.189785 0.703003 -0.0054 0
0.189784 0.703001 -0.0054 0
0.189784 0.703 -0.0052 0
0.189783 0.702999 -0.0042 0
0.189783 0.702998 -0.0042 0
0.189783 0.702997 -0.0042 0
0.189784 0.702996 -0.0048 0
0.189784 0.702995 -0.005 0
0.189785 0.702994 -0.005 0
0.189785 0.702993 -0.005 0
0.189785 0.702992 -0.0048 0
0.189785 0.702989 -0.0047 0
0.189785 0.702989 -0.0047 0
0.189786 0.702987 -0.005 0
0.189786 0.702987 -0.005 0
0.189787 0.702986 -0.0044 0
0.189788 0.702985 -0.0044 0
0.189789 0.702984 -0.0044 0
0.189789 0.702982 -0.0051 0
0.18979 0.702981 -0.0046 0
0.18979 0.70298 -0.0046 0
0.18979 0.70298 -0.0046 0
0.189667 0.703007 -0.0044 0
0.189667 0.703005 -0.0045 0
0.189667 0.703004 -0.0045 0
0.189668 0.703004 -0.0048 0
0.189668 0.703004 -0.0048 0
0.189668 0.703003 -0.0044 0
0.189668 0.703004 -0.0044 0
0.189668 0.703004 -0.0047 0
0.189669 0.703004 -0.0046 0
0.189669 0.703003 -0.0046 0
0.189669 0.703003 -0.0046 0
0.189669 0.703 -0.0046 0
0.189668 0.702998 -0.0046 0
0.189668 0.702997 -0.0046 0
0.189238 0.662999 -0.0046 0
0.189669 0.702997 -0.0045 0
0.189669 0.702996 -0.0045 0
0.189669 0.702995 -0.0049 0
0.189669 0.702994 -0.0049 0
0.189669 0.702992 -0.0049 0
0.189669 0.702991 -0.0046 0
0.189669 0.702991 -0.0046 0
0.189668 0.70299 -0.005 0
0.189669 0.702989 -0.005 0
0.189669 0.702988 -0.0045 0
0.189669 0.702986 -0.0045 0
0.189668 0.702986 -0.0047 0
0.189666 0.702984 -0.0047 0
0.189665 0.702982 -0.0047 0
0.189665 0.702981 -0.0047 0
0.189664 0.702979 -0.0046 0
0.189663 0.702978 -0.0046 0
0.189663 0.702976 -0.0046 0
0.189663 0.702975 -0.0046 0
0.189663 0.702974 -0.0046 0
0.189664 0.702973 -0.0047 0
0.189664 0.702971 -0.0047 0
0.189665 0.702969 -0.0047 0
0.189666 0.702968 -0.0047 0
0.189666 0.702967 -0.0048 0
0.189667 0.702966 -0.0048 0
0.189666 0.702964 -0.0048 0
0.189665 0.702963 -0.0041 0
0.189665 0.702962 -0.0041 0
0.189665 0.702961 -0.0049 0
0.189665 0.702961 -0.0049 0
0.189665 0.70296 -0.0049 0
0.189664 0.70296 -0.0044 0
0.189664 0.702959 -0.0044 0
0.189665 0.702959 -0.0045 0
0.189666 0.702955 -0.0045 0
0.189667 0.702952 -0.0045 0
0.189667 0.70295 -0.0045 0
0.189668 0.702948 -0.0049 0
0.189669 0.702947 -0.0049 0
0.189669 0.702945 -0.0049 0
0.189669 0.702943 -0.0047 0
0.189668 0.702942 -0.0042 0
0.189669 0.702941 -0.0042 0
0.189669 0.702939 -0.0046 0
0.18967 0.702939 -0.0046 0
0.18967 0.702938 -0.0046 0
0.18967 0.702937 -0.0046 0
0.189671 0.702937 -0.0045 0
0.189639 0.699936 -0.0045 0
0.189671 0.702936 -0.005 0
0.189671 0.702933 -0.005 0
0.18967 0.702933 -0.0045 0
0.18967 0.702932 -0.0045 0
0.189649 0.700932 -0.0049 0
0.18967 0.702929 -0.0049 0
0.18967 0.702929 -0.0048 0
0.18967 0.702928 -0.0048 0
0.18967 0.702928 -0.004 0
0.18967 0.702926 -0.004 0
0.18967 0.702925 -0.0046 0
0.18967 0.702924 -0.0046 0
0.189792 0.702894 -0.0047 0
0.189791 0.70289 -0.0047 0
0.18979 0.70289 -0.0049 0
0.18979 0.702889 -0.0049 0
0.18979 0.702887 -0.0049 0
0.189667 0.702914 -0.0049 0
0.189666 0.702911 -0.0045 0
0.189665 0.70291 -0.0045 0
0.189664 0.702909 -0.0048 0
0.189663 0.702907 -0.0048 0
0.189631 0.699905 -0.0047 0
0.189663 0.702904 -0.0047 0
0.189663 0.702903 -0.0046 0
0.189663 0.702903 -0.0046 0
0.189664 0.702903 -0.0046 0
0.189536 0.690903 -0.0047 0
0.189665 0.702902 -0.0047 0
0.189787 0.702872 -0.0048 0
0.189787 0.702872 -0.0048 0
0.189664 0.702899 -0.0048 0
0.189664 0.702898 -0.0045 0
0.189664 0.702897 -0.0045 0
0.189664 0.702896 -0.0045 0
0.189663 0.702895 -0.0045 0
0.189663 0.702895 -0.0048 0
0.189663 0.702893 -0.0048 0
0.189662 0.702892 -0.0043 0
0.189662 0.702891 -0.0043 0
0.189661 0.70289 -0.0044 0
0.189661 0.702889 -0.0044 0
0.18966 0.702888 -0.0046 0
0.18966 0.702887 -0.0046 0
0.18966 0.702886 -0.0041 0
0.189659 0.702885 -0.0041 0
0.189782 0.702854 -0.0047 0
0.189781 0.702852 -0.0047 0
0.189782 0.70285 -0.0047 0
0.189782 0.70285 -0.0047 0
0.18966 0.702876 -0.0043 0
0.189783 0.702847 -0.0043 0
0.189783 0.702846 -0.0048 0
0.189783 0.702844 -0.0048 0
0.189783 0.702842 -0.0048 0
0.18966 0.70287 -0.0048 0
0.18966 0.702869 -0.0045 0
0.18966 0.702866 -0.0048 0
0.18966 0.702865 -0.0048 0
0.18966 0.702864 -0.0048 0
0.18966 0.702862 -0.0043 0
0.18966 0.702861 -0.0046 0
0.18966 0.702859 -0.0046 0
0.18966 0.702858 -0.0046 0
0.18966 0.702857 -0.0049 0
0.189659 0.702857 -0.0046 0
0.18966 0.702856 -0.0046 0
0.189662 0.702855 -0.0046 0
0.189784 0.702825 -0.0046 0
0.189783 0.702822 -0.0047 0
0.189783 0.702821 -0.0047 0
0.189784 0.70282 -0.005 0
0.189783 0.702819 -0.0044 0
0.189783 0.702817 -0.0044 0
0.189782 0.702817 -0.0044 0
0.189783 0.702816 -0.0049 0
0.189783 0.702815 -0.0049 0
0.189783 0.702814 -0.0046 0
0.189785 0.702811 -0.0046 0
0.189784 0.702809 -0.0051 0
0.189784 0.702807 -0.0051 0
0.189784 0.702805 -0.0047 0
0.189661 0.702832 -0.0047 0
0.18966 0.702831 -0.0047 0
0.18966 0.702829 -0.0045 0
0.18966 0.702828 -0.0044 0
0.189659 0.702827 -0.0044 0
0.189659 0.702826 -0.0044 0
0.189658 0.702823 -0.0045 0
0.189658 0.702822 -0.0052 0
0.189658 0.70282 -0.0052 0
0.189657 0.702819 -0.0052 0
0.189657 0.702819 -0.005 0
0.189656 0.702818 -0.0048 0
0.189656 0.702817 -0.0048 0
0.189656 0.702817 -0.0048 0
0.189657 0.702816 -0.0043 0
0.189658 0.702815 -0.0042 0
0.189658 0.702814 -0.0042 0
0.189659 0.702814 -0.0042 0
0.189658 0.702813 -0.0044 0
0.189658 0.702812 -0.0047 0
0.189658 0.702812 -0.0047 0
0.189658 0.702812 -0.0047 0
0.189657 0.702811 -0.0052 0
0.189656 0.70281 -0.0047 0
0.189655 0.702808 -0.0047 0
0.189775 0.702779 -0.0045 0
0.189775 0.702778 -0.0045 0
0.189775 0.702777 -0.0043 0
0.189775 0.702776 -0.0043 0
0.189774 0.702775 -0.0048 0
0.189773 0.702774 -0.0048 0
0.189773 0.702773 -0.0042 0
0.189773 0.702773 -0.0042 0
0.189773 0.702771 -0.0049 0
0.189751 0.70077 -0.0049 0
0.189773 0.702768 -0.0049 0
0.189773 0.702767 -0.0049 0
0.189773 0.702764 -0.0041 0
0.189774 0.702764 -0.0041 0
0.189774 0.702764 -0.0043 0
0.189774 0.702763 -0.0043 0
0.189651 0.70279 -0.0049 0
0.189651 0.702789 -0.0049 0
0.189651 0.702788 -0.0051 0
0.189651 0.702787 -0.0051 0
0.189651 0.702787 -0.0051 0
0.189651 0.702787 -0.0047 0
0.189651 0.702786 -0.0047 0
0.189651 0.702785 -0.005 0
0.189651 0.702784 -0.005 0
0.189651 0.702783 -0.0052 0
0.189652 0.702782 -0.0052 0
0.189652 0.702781 -0.0047 0
0.189652 0.70278 -0.0047 0
0.189775 0.70275 -0.0047 0
0.189653 0.702776 -0.0046 0
0.189653 0.702775 -0.0051 0
0.189653 0.702775 -0.0051 0
0.189653 0.702774 -0.0051 0
0.189653 0.702773 -0.0047 0
0.189653 0.702772 -0.0047 0
0.189653 0.702771 -0.005 0
0.189653 0.702771 -0.005 0
0.189653 0.70277 -0.005 0
0.189775 0.702739 -0.0049 0
0.189775 0.702739 -0.0046 0
0.189775 0.702738 -0.0046 0
0.189774 0.702736 -0.0046 0
0.189774 0.702735 -0.0049 0
0.189772 0.702732 -0.0044 0
0.189771 0.702731 -0.0044 0
0.189771 0.70273 -0.0044 0
0.189772 0.70273 -0.0045 0
0.189772 0.702729 -0.0045 0
0.189772 0.702728 -0.0049 0
0.189772 0.702727 -0.0049 0
0.189772 0.702726 -0.0049 0
0.189772 0.702725 -0.0047 0
0.189772 0.702724 -0.0047 0
0.189771 0.702723 -0.0047 0
0.189738 0.699723 -0.0047 0
0.189771 0.702722 -0.0047 0
0.189771 0.702722 -0.0045 0
0.18977 0.702721 -0.0045 0
0.18977 0.70272 -0.0049 0
0.189768 0.702716 -0.0049 0
0.189745 0.700715 -0.0045 0
0.189767 0.702713 -0.0045 0
0.189766 0.702711 -0.0047 0
0.189765 0.70271 -0.0047 0
0.189765 0.702709 -0.0045 0
0.189764 0.702708 -0.0045 0
0.189764 0.702707 -0.0047 0
0.189763 0.702706 -0.0047 0
0.189511 0.690734 -0.0047 0
0.18964 0.702733 -0.0047 0
0.18964 0.702731 -0.0051 0
0.18964 0.70273 -0.0051 0
0.189639 0.702729 -0.0048 0
0.189639 0.702729 -0.0048 0
0.189761 0.702699 -0.0044 0
0.18976 0.702699 -0.0044 0
0.189638 0.702726 -0.0053 0
0.189637 0.702725 -0.0053 0
0.189636 0.702722 -0.004 0
0.189636 0.702721 -0.004 0
0.189636 0.70272 -0.0045 0
0.189636 0.702718 -0.0047 0
0.189636 0.702717 -0.0047 0
0.189636 0.702717 -0.0047 0
0.189637 0.702715 -0.0046 0
0.189637 0.702714 -0.0044 0
0.189636 0.702712 -0.0044 0
0.189636 0.702711 -0.0044 0
0.189637 0.702709 -0.0046 0
0.189637 0.702708 -0.0042 0
0.189636 0.702707 -0.0042 0
0.189758 0.702677 -0.0042 0
0.189758 0.702676 -0.005 0
0.189635 0.702704 -0.005 0
0.189634 0.702702 -0.0044 0
0.189643 0.703701 -0.0044 0
0.189754 0.702671 -0.0044 0
0.189754 0.70267 -0.0047 0
0.189754 0.702668 -0.0049 0
0.189754 0.702666 -0.0049 0
0.189754 0.702665 -0.0049 0
0.189754 0.702664 -0.0046 0
0.189754 0.702663 -0.0046 0
0.189755 0.702659 -0.0049 0
0.189755 0.702658 -0.0049 0
0.189756 0.702657 -0.0046 0
0.189757 0.702657 -0.0046 0
0.189757 0.702657 -0.0051 0
0.189757 0.702658 -0.0051 0
0.189757 0.702657 -0.0051 0
0.189758 0.702655 -0.0043 0
0.189758 0.702655 -0.0043 0
0.189757 0.702655 -0.0043 0
0.189758 0.702654 -0.0048 0
0.189758 0.702653 -0.0048 0
0.189759 0.70265 -0.0045 0
0.18976 0.702649 -0.0045 0
0.18976 0.702647 -0.0047 0
0.189749 0.701646 -0.0046 0
0.18976 0.702645 -0.0046 0
0.189759 0.702644 -0.0046 0
0.189759 0.702643 -0.005 0
0.189758 0.702643 -0.005 0
0.189758 0.702641 -0.0046 0
0.189758 0.702641 -0.0046 0
0.189757 0.70264 -0.0046 0
0.189757 0.702639 -0.0045 0
0.189758 0.702635 -0.0045 0
0.189758 0.702634 -0.0045 0
0.189758 0.702632 -0.0045 0
0.189758 0.70263 -0.0043 0
0.189759 0.702629 -0.0043 0
0.18976 0.702629 -0.0048 0
0.18976 0.702629 -0.0048 0
0.18976 0.702628 -0.0042 0
0.189759 0.702627 -0.0042 0
0.189759 0.702627 -0.0043 0
0.18976 0.702627 -0.0043 0
0.18976 0.702627 -0.0043 0
0.18976 0.702625 -0.0053 0
0.189761 0.702623 -0.0042 0
0.18975 0.701622 -0.0042 0
0.189761 0.702621 -0.0042 0
0.18976 0.70262 -0.0048 0
0.18976 0.702618 -0.0048 0
0.18976 0.702616 -0.0043 0
0.18976 0.702615 -0.0043 0
0.189738 0.700613 -0.0043 0
0.189759 0.702611 -0.0043 0
0.189759 0.70261 -0.0043 0
0.189749 0.701608 -0.0043 0
0.18976 0.702606 -0.0043 0
0.189759 0.702605 -0.0047 0
0.189759 0.702604 -0.005 0
0.190206 0.743601 -0.005 0
0.189758 0.702603 -0.005 0
0.189758 0.702604 -0.0044 0
0.189757 0.702603 -0.0044 0
0.189758 0.702603 -0.0045 0
0.189758 0.702602 -0.0045 0
0.189758 0.702602 -0.0045 0
0.189758 0.7026 -0.0046 0
0.189758 0.702599 -0.0049 0
0.189758 0.702598 -0.0049 0
0.189757 0.702597 -0.0049 0
0.189757 0.702596 -0.0045 0
0.189757 0.702595 -0.0045 0
0.189757 0.702595 -0.0046 0
0.189633 0.702621 -0.0046 0
0.189633 0.70262 -0.0049 0
0.189633 0.702619 -0.0049 0
0.190074 0.743615 -0.0051 0
0.189633 0.702616 -0.0051 0
0.189633 0.702615 -0.0045 0
0.189633 0.702613 -0.0045 0
0.189632 0.702611 -0.0046 0
0.189632 0.702611 -0.0046 0
0.189632 0.70261 -0.0051 0
0.189611 0.700609 -0.0051 0
0.18963 0.702607 -0.0044 0
0.189629 0.702607 -0.0044 0
0.189629 0.702606 -0.0045 0
0.189752 0.702577 -0.0045 0
0.189752 0.702576 -0.0054 0
0.189753 0.702575 -0.0054 0
0.189753 0.702573 -0.0054 0
0.189753 0.702572 -0.0051 0
0.189752 0.702571 -0.0051 0
0.189751 0.702571 -0.0045 0
0.189751 0.70257 -0.0045 0
0.18975 0.702568 -0.0044 0
0.189748 0.702568 -0.0044 0
0.189748 0.702568 -0.0048 0
0.189748 0.702567 -0.0048 0
0.189748 0.702566 -0.0048 0
0.189747 0.702565 -0.0041 0
0.189746 0.702564 -0.0041 0
0.189733 0.701563 -0.0045 0
0.189743 0.702561 -0.0045 0
0.189743 0.70256 -0.0054 0
0.189742 0.70256 -0.0054 0
0.189741 0.702559 -0.0039 0
0.18974 0.702559 -0.0039 0
0.18974 0.702557 -0.0045 0
0.18974 0.702556 -0.0045 0
0.18974 0.702555 -0.005 0
0.189739 0.702554 -0.005 0
0.189739 0.702551 -0.0045 0
0.189739 0.70255 -0.0045 0
0.189738 0.702549 -0.004 0
0.189738 0.702549 -0.004 0
0.189614 0.702576 -0.0044 0
0.189737 0.702545 -0.0044 0
0.189737 0.702544 -0.0053 0
0.189614 0.702572 -0.0053 0
0.189616 0.70257 -0.0043 0
0.189616 0.70257 -0.0043 0
0.189616 0.70257 -0.0045 0
0.189616 0.702569 -0.0045 0
0.189584 0.699569 -0.0046 0
0.189616 0.702567 -0.0046 0
0.189616 0.702567 -0.0045 0
0.189606 0.701566 -0.0045 0
0.189618 0.702564 -0.0045 0
0.189617 0.702564 -0.0048 0
0.189619 0.702563 -0.0048 0
0.18962 0.702564 -0.0044 0
0.18962 0.702563 -0.0044 0
0.18962 0.702563 -0.0044 0
0.18962 0.702562 -0.0044 0
0.189621 0.702561 -0.0048 0
0.189621 0.702559 -0.0048 0
0.189621 0.702557 -0.0048 0
0.189744 0.702527 -0.0043 0
0.189744 0.702527 -0.0043 0
0.189745 0.702525 -0.0045 0
0.189745 0.702523 -0.0045 0
0.189746 0.702522 -0.0049 0
0.189735 0.701522 -0.0049 0
0.189746 0.70252 -0.005 0
0.189746 0.70252 -0.005 0
0.189746 0.702519 -0.005 0
0.189746 0.702518 -0.0048 0
0.189745 0.702517 -0.0048 0
0.189744 0.702516 -0.0048 0
0.189744 0.702515 -0.0048 0
0.189743 0.702514 -0.0048 0
0.189743 0.702515 -0.0048 0
0.189743 0.702514 -0.0046 0
0.189742 0.702514 -0.0046 0
0.189741 0.702513 -0.0046 0
0.18974 0.702512 -0.005 0
0.18974 0.702511 -0.0043 0
0.18974 0.702512 -0.0043 0
0.189739 0.702511 -0.0043 0
0.189615 0.702539 -0.005 0
0.189615 0.70254 -0.0043 0
0.189615 0.70254 -0.0043 0
0.189616 0.702539 -0.0043 0
0.189615 0.702538 -0.0048 0
0.189615 0.702537 -0.0045 0
0.189737 0.702508 -0.0045 0
0.189737 0.702508 -0.0045 0
0.189613 0.702537 -0.0047 0
0.189613 0.702536 -0.0048 0
0.189612 0.702535 -0.0048 0
0.189613 0.702534 -0.0046 0
0.189613 0.702533 -0.0046 0
0.189735 0.702503 -0.0048 0
0.189735 0.702503 -0.0048 0
0.189734 0.702502 -0.0045 0
0.189733 0.702502 -0.0045 0
0.189609 0.70253 -0.0042 0
0.18973 0.702501 -0.0042 0
0.189729 0.702501 -0.0048 0
0.189729 0.7025 -0.0048 0
0.189728 0.7025 -0.0048 0
0.189728 0.702498 -0.0048 0
0.189728 0.702497 -0.0048 0
0.189695 0.699496 -0.0048 0
0.189728 0.702495 -0.0048 0
0.189728 0.702495 -0.0044 0
0.18973 0.702493 -0.0044 0
0.18973 0.702491 -0.0051 0
0.189731 0.70249 -0.0051 0
0.189731 0.70249 -0.004 0
0.18973 0.702489 -0.004 0
0.18973 0.702487 -0.0046 0
0.189729 0.702486 -0.0046 0
0.189729 0.702486 -0.0052 0
0.189729 0.702486 -0.0052 0
0.189729 0.702484 -0.0052 0
0.189729 0.702483 -0.0042 0
0.189729 0.702482 -0.005 0
0.189729 0.702482 -0.005 0
0.189729 0.702481 -0.005 0
0.189728 0.702481 -0.0049 0
0.189605 0.702508 -0.0049 0
0.189604 0.702507 -0.0045 0
0.189604 0.702505 -0.0045 0
0.189604 0.702503 -0.0045 0
0.189604 0.702501 -0.0048 0
0.189604 0.7025 -0.0044 0
0.189604 0.702499 -0.0044 0
0.189603 0.702498 -0.0044 0
0.189603 0.702496 -0.0046 0
0.189603 0.702495 -0.0046 0
0.189603 0.702493 -0.0045 0
0.189603 0.702492 -0.0045 0
0.189603 0.702491 -0.0046 0
0.189603 0.70249 -0.0046 0
0.189602 0.702489 -0.0049 0
0.189602 0.702488 -0.0049 0
0.189603 0.702487 -0.0049 0
0.18957 0.699486 -0.0043 0
0.189602 0.702485 -0.0043 0
0.189602 0.702484 -0.0047 0
0.189602 0.702483 -0.0047 0
0.189602 0.702482 -0.0049 0
0.189601 0.702481 -0.0049 0
0.189602 0.70248 -0.0047 0
0.189602 0.702478 -0.0047 0
0.189602 0.702477 -0.0047 0
0.189725 0.702448 -0.005 0
0.189715 0.701447 -0.0042 0
0.189726 0.702446 -0.0042 0
0.189726 0.702444 -0.0042 0
0.189726 0.702442 -0.005 0
0.189725 0.702441 -0.005 0
0.189725 0.70244 -0.0046 0
0.189724 0.702438 -0.0046 0
0.189601 0.702466 -0.0046 0
0.189601 0.702465 -0.0049 0
0.189724 0.702436 -0.0048 0
0.189725 0.702434 -0.0048 0
0.189725 0.702433 -0.0048 0
0.189725 0.702433 -0.0045 0
0.189725 0.702433 -0.0045 0
0.189692 0.699431 -0.0047 0
0.189725 0.702429 -0.0047 0
0.189725 0.702427 -0.0048 0
0.189725 0.702425 -0.0048 0
0.189725 0.702424 -0.0045 0
0.189724 0.702424 -0.0045 0
0.189723 0.702423 -0.0051 0
0.189724 0.702422 -0.0051 0
0.189724 0.702421 -0.0045 0
0.189724 0.702419 -0.0045 0
0.189724 0.702417 -0.0045 0
0.189723 0.702416 -0.0044 0
0.189722 0.702414 -0.0048 0
0.189722 0.702413 -0.0048 0
0.189721 0.702413 -0.0048 0
0.18972 0.702411 -0.0045 0
0.18972 0.702411 -0.0045 0
0.18972 0.702411 -0.005 0
0.18972 0.70241 -0.005 0
0.18972 0.702409 -0.0046 0
0.18972 0.702408 -0.0046 0
0.189719 0.702408 -0.0046 0
0.189719 0.702408 -0.0046 0
0.189718 0.702407 -0.0046 0
0.189718 0.702406 -0.0046 0
0.189717 0.702406 -0.0046 0
0.189716 0.702405 -0.0048 0
0.189715 0.702404 -0.0048 0
0.189715 0.702403 -0.0047 0
0.189715 0.702403 -0.0047 0
0.189714 0.702402 -0.0047 0
0.189714 0.702401 -0.0047 0
0.189713 0.702399 -0.0047 0
0.189712 0.702398 -0.0048 0
0.189712 0.702397 -0.0048 0
0.189711 0.702396 -0.0045 0
0.189711 0.702395 -0.0045 0
0.189711 0.702394 -0.0044 0
0.189711 0.702393 -0.0044 0
0.18971 0.702392 -0.0054 0
0.18971 0.70239 -0.0054 0
0.189709 0.70239 -0.0048 0
0.189709 0.702388 -0.0048 0
0.189709 0.702386 -0.0045 0
0.189708 0.702385 -0.0045 0
0.189709 0.702384 -0.0048 0
0.189709 0.702383 -0.0048 0
0.189555 0.699412 -0.0042 0
0.189587 0.702411 -0.0042 0
0.189709 0.702382 -0.0047 0
0.18971 0.702382 -0.0047 0
0.18971 0.702381 -0.0046 0
0.189709 0.70238 -0.0046 0
0.189709 0.702378 -0.0046 0
0.189709 0.702378 -0.0049 0
0.189709 0.702377 -0.0049 0
0.18971 0.702376 -0.0047 0
0.18971 0.702375 -0.0047 0
0.189709 0.702374 -0.0045 0
0.189709 0.702374 -0.0045 0
0.189708 0.702371 -0.0048 0
0.189708 0.702371 -0.0048 0
0.189708 0.70237 -0.0045 0
0.189708 0.70237 -0.0045 0
0.189707 0.702368 -0.0049 0
0.189707 0.702368 -0.0049 0
0.189707 0.702367 -0.0046 0
0.189706 0.702366 -0.0048 0
0.189706 0.702366 -0.0048 0
0.189707 0.702365 -0.0048 0
0.189706 0.702364 -0.0043 0
0.189706 0.702364 -0.0043 0
0.189707 0.702363 -0.0044 0
0.189708 0.702362 -0.0049 0
0.189708 0.702362 -0.0049 0
0.189675 0.699361 -0.0049 0
0.189707 0.702357 -0.0048 0
0.189707 0.702355 -0.0048 0
0.189707 0.702354 -0.0041 0
0.189708 0.702354 -0.0041 0
0.189708 0.702353 -0.0049 0
0.189708 0.70235 -0.0049 0
0.189708 0.702349 -0.0045 0
0.189708 0.702348 -0.0045 0
0.189708 0.702347 -0.0051 0
0.189708 0.702347 -0.0051 0
0.189708 0.702346 -0.0051 0
0.189708 0.702345 -0.0042 0
0.189708 0.702345 -0.0042 0
0.189707 0.702342 -0.0048 0
0.189707 0.702341 -0.0048 0
0.189707 0.702339 -0.0044 0
0.189706 0.702338 -0.0044 0
0.189707 0.702336 -0.0045 0
0.189706 0.702334 -0.0045 0
0.189705 0.702332 -0.0048 0
0.189703 0.702331 -0.0048 0
0.189702 0.70233 -0.0047 0
0.189702 0.702328 -0.0047 0
0.189701 0.702327 -0.0048 0
0.189701 0.702326 -0.0048 0
0.1897 0.702325 -0.0045 0
0.1897 0.702325 -0.0045 0
0.189699 0.702325 -0.0045 0
0.189699 0.702325 -0.0049 0
0.189699 0.702324 -0.0049 0
0.189699 0.702322 -0.0043 0
0.189699 0.702322 -0.0043 0
0.189699 0.702321 -0.0049 0
0.189699 0.702321 -0.0049 0
0.189699 0.702321 -0.0044 0
0.189698 0.70232 -0.0044 0
0.189698 0.702321 -0.0046 0
0.189698 0.702321 -0.0046 0
0.189699 0.70232 -0.0045 0
0.189698 0.70232 -0.0045 0
0.189699 0.702319 -0.0045 0
0.1897 0.702318 -0.0045 0
0.1897 0.702316 -0.0045 0
0.189701 0.702314 -0.0045 0
0.189701 0.702313 -0.0045 0
0.189701 0.70231 -0.0045 0
0.189701 0.702308 -0.0044 0
0.1897 0.702308 -0.0044 0
0.189699 0.702307 -0.0044 0
0.189576 0.702334 -0.0048 0
0.189576 0.702333 -0.0048 0
0.189576 0.702332 -0.0048 0
0.189597 0.70433 -0.0044 0
0.189575 0.702329 -0.0044 0
0.189575 0.702328 -0.0044 0
0.189575 0.702327 -0.0044 0
0.189574 0.702327 -0.0044 0
0.189574 0.702326 -0.0044 0
0.189696 0.702297 -0.005 0
0.189573 0.702325 -0.005 0
0.189573 0.702325 -0.005 0
0.189573 0.702323 -0.0045 0
0.189691 0.702293 -0.0051 0
0.189699 0.702292 -0.0051 0
0.189842 0.702262 -0.0051 0
0.190483 0.702116 0.0089 0
0.190706 0.702054 0.0454 0
0.191046 0.701962 0.0454 0
0.191283 0.700874 -0.0044 0
0.191314 0.700849 -0.0044 0
0.191345 0.700827 0.0309 0
0.191225 0.700854 0.0309 0
0.191081 0.700918 0.0309 0
0.190603 0.701077 0.001 0
0.190467 0.701119 0.0061 0
0.190438 0.700129 0.0061 0
0.190424 0.700136 0.0061 0
0.19041 0.70015 -0.0077 0
0.190407 0.700155 -0.0057 0
0.190285 0.700187 -0.0057 0
0.190162 0.700215 -0.0053 0
0.190158 0.699215 -0.0053 0
0.189936 0.700272 0.000900001 0
0.189813 0.699296 0.000900001 0
0.189564 0.699346 0.0074 0
0.189448 0.700368 0.0074 0
0.189431 0.699362 -0.0032 0
0.188942 0.699462 -0.0032 0
0.188955 0.70045 0.0023 0
0.188839 0.700467 0.0023 0
0.188849 0.700462 -0.0028 0
0.188839 0.69947 -0.0028 0
0.188839 0.69948 -0.0037 0
0.188841 0.699488 -0.0037 0
0.188841 0.699493 0.000800001 0
0.188839 0.699497 0.000800001 0
0.188838 0.699497 -0.0027 0
0.18884 0.699496 -0.0027 0
0.188841 0.699494 -0.0018 0
0.188844 0.699497 -0.0018 0
0.188845 0.699497 0.0012 0
0.188847 0.699497 0.0012 0
0.18885 0.699495 -0.0012 0
0.18885 0.699494 -0.0012 0
0.188861 0.700495 -0.0016 0
0.188852 0.699496 -0.0016 0
0.188851 0.699496 0.000800001 0
0.18885 0.699498 0.000800001 0
0.188848 0.699498 0.000800001 0
0.188855 0.700498 -0.0015 0
0.188843 0.699499 -0.0015 0
0.188845 0.699502 -0.0042 0
0.188846 0.699505 -0.0042 0
0.188845 0.699504 0.000500001 0
0.188847 0.699504 0.000500001 0
0.18885 0.699502 -0.0012 0
0.188851 0.699499 -0.0012 0
0.188852 0.699497 -0.0012 0
0.188852 0.699493 -0.0011 0
0.188851 0.699493 0.001 0
0.18885 0.699492 0.001 0
0.188849 0.699491 0.001 0
0.188849 0.699488 -0.0049 0
0.188849 0.699489 -0.002 0
0.188849 0.69949 -0.002 0
0.18885 0.69949 -0.002 0
0.18885 0.699489 -0.0032 0
0.18885 0.699487 -0.0037 0
0.188851 0.699485 -0.0037 0
0.188852 0.699484 -0.0037 0
0.188852 0.699484 0.000700001 0
0.188855 0.699484 -0.0022 0
0.188856 0.699485 -0.0022 0
0.188855 0.699483 -0.0022 0
0.188866 0.700483 -0.0025 0
0.188857 0.699482 -0.0025 0
0.188857 0.69948 -0.0011 0
0.188857 0.699479 -0.0011 0
0.188858 0.699479 -0.0036 0
0.188858 0.699478 -0.0036 0
0.188858 0.699478 -0.000999999 0
0.188859 0.699478 -0.000999999 0
0.188858 0.699477 -0.000699999 0
0.188858 0.699476 -0.000699999 0
0.188858 0.699475 -0.0021 0
0.188859 0.699473 -0.0021 0
0.188859 0.699472 -0.0028 0
0.188858 0.699471 -0.0028 0
0.188856 0.69947 -0.0023 0
0.188857 0.699473 -0.0023 0
0.188858 0.699475 -0.0036 0
0.188856 0.699472 -0.000699999 0
0.188854 0.69947 -0.000699999 0
0.188858 0.700466 -0.000699999 0
0.188848 0.699463 0.000400001 0
0.188849 0.699461 0.000400001 0
0.188856 0.699463 -0.0012 0
0.188866 0.700464 -0.0012 0
0.188857 0.699464 -0.0032 0
0.188866 0.700459 0.0009 0
0.188857 0.699458 0.0009 0
0.188856 0.699456 0.0009 0
0.188854 0.699455 -0.0003 0
0.188862 0.700454 -0.0003 0
0.188863 0.700451 -0.0039 0
0.188853 0.69945 -0.0039 0
0.188853 0.69945 -0.0005 0
0.188863 0.70045 -0.0005 0
0.188861 0.700449 -0.0011 0
0.188834 0.697448 -0.0011 0
0.188852 0.699447 -0.0017 0
0.188851 0.699446 -0.0017 0
0.188859 0.700445 -0.0038 0
0.188848 0.699445 -0.0038 0
0.188725 0.699473 -0.0045 0
0.188848 0.699443 -0.0045 0
0.188859 0.700442 0.000800001 0
0.188851 0.699444 0.000800001 0
0.188853 0.699444 0.000800001 0
0.188861 0.699445 -0.0008 0
0.188862 0.699444 -0.003 0
0.188863 0.699443 -0.003 0
0.188859 0.69944 -0.0016 0
0.188858 0.699441 -0.0016 0
0.188857 0.699439 -0.0025 0
0.188856 0.699438 -0.0025 0
0.188854 0.699436 0.0006 0
0.188865 0.700436 0.0006 0
0.188856 0.699434 -0.0035 0
0.188853 0.699435 -0.0035 0
0.188852 0.699435 0.0024 0
0.188853 0.699435 0.0024 0
0.188853 0.699433 -0.0024 0
0.18885 0.699429 -0.0024 0
0.18885 0.699428 -0.0009 0
0.188851 0.699429 -0.0009 0
0.18885 0.699427 -0.0023 0
0.18886 0.700427 -0.0023 0
0.188849 0.699427 0.0009 0
0.188848 0.699425 0.0009 0
0.188848 0.699425 0.0003 0
0.188855 0.700423 0.0003 0
0.187197 0.529431 0.0003 0
0.188845 0.699422 0.0016 0
0.188844 0.69942 0.0016 0
0.188845 0.699418 0.000100001 0
0.188846 0.699417 0.000100001 0
0.188846 0.699415 -0.0014 0
0.188848 0.699416 -0.0014 0
0.188849 0.699418 -0.0031 0
0.188831 0.697418 -0.0031 0
0.188851 0.699416 -0.0031 0
0.188853 0.699416 -0.0024 0
0.188854 0.699416 -0.0024 0
0.188854 0.699416 -0.0017 0
0.188854 0.699415 -0.0017 0
0.188853 0.699415 -0.0017 0
0.188852 0.699413 -0.0038 0
0.188849 0.69941 -0.0038 0
0.188847 0.699408 -0.000499999 0
0.188846 0.699407 -0.000499999 0
0.188847 0.699406 -0.000499999 0
0.188845 0.699405 0.0019 0
0.188845 0.699403 0.0019 0
0.188845 0.699403 -0.0028 0
0.188845 0.699403 -0.0028 0
0.188848 0.699403 -0.000399999 0
0.188846 0.699401 -0.000399999 0
0.188838 0.699398 -0.000899999 0
0.188422 0.657398 -0.000899999 0
0.188823 0.699396 -0.000899999 0
0.188762 0.699396 -0.0007 0
0.188646 0.700396 -0.0007 0
0.188481 0.699397 -0.0041 0
0.188299 0.700396 -0.0041 0
0.188035 0.699397 -0.0041 0
0.187387 0.699426 -0.002 0
0.187085 0.699426 -0.0036 0
0.186759 0.699425 -0.0036 0
0.186319 0.688428 -0.0036 0
0.186082 0.699431 -0.0042 0
0.185344 0.697517 -0.0042 0
0.184856 0.69955 -0.0038 0
0.184322 0.69958 -0.0038 0
0.183337 0.699611 -0.0016 0
0.182524 0.699697 -0.0016 0
0.182066 0.6997 -0.0036 0
0.181459 0.699734 -0.0036 0
0.180217 0.699801 -0.0032 0
0.179568 0.698833 -0.0032 0
0.178921 0.699868 -0.0046 0
0.178268 0.699905 -0.0046 0
0.177464 0.698975 -0.0046 0
0.175696 0.699142 0.001 0
0.17497 0.699179 -0.0002 0
0.174087 0.698241 -0.0002 0
0.173305 0.698273 -0.0002 0
0.171713 0.697333 -9.99998e-05 0
0.170889 0.69836 -0.0046 0
0.170039 0.698387 -0.0046 0
0.169293 0.697385 -0.0046 0
0.168398 0.695412 0.0007 0
0.166818 0.697407 -0.0015 0
