ply
format ascii 1.0
element vertex 1459
property float x
property float y
property float z
property float intensity
end_header
-1.25759 -0.319252 -0.000800001 0
-1.25759 -0.319252 -0.000800001 0
-1.25759 -0.319251 -0.000700001 0
-1.25759 -0.319251 -0.000700001 0
-1.25759 -0.319251 -0.000900001 0
-1.25759 -0.319251 -0.000900001 0
-1.25759 -0.319251 -0.001 0
-1.25759 -0.319251 -0.001 0
-1.25759 -0.319252 -0.000800001 0
-1.25759 -0.319252 -0.000800001 0
-1.25759 -0.319254 -0.000400001 0
-1.25758 -0.319255 -0.000400001 0
-1.25758 -0.319256 -0.000500001 0
-1.25758 -0.319256 -0.000500001 0
-1.25758 -0.319258 -0.000600001 0
-1.25758 -0.319259 -0.000600001 0
-1.25758 -0.31926 -0.000900001 0
-1.25758 -0.319261 -0.000900001 0
-1.25766 -0.31936 -0.0012 0
-1.25766 -0.319361 -0.0012 0
-1.25766 -0.319361 -0.0012 0
-1.25765 -0.319361 -0.000800001 0
-1.25855 -0.318913 -0.000800001 0
-1.25765 -0.319362 -0.000900001 0
-1.25765 -0.319362 -0.000900001 0
-1.25765 -0.319362 -0.000700001 0
-1.25765 -0.319363 -0.000700001 0
-1.25765 -0.319364 -0.000800001 0
-1.25765 -0.319366 -0.000500001 0
-1.25765 -0.319367 -0.000500001 0
-1.25765 -0.319368 -0.000500001 0
-1.25765 -0.319369 -0.000700001 0
-1.25765 -0.319369 -0.000700001 0
-1.25765 -0.319368 -0.000200001 0
-1.25765 -0.319369 -0.000300001 0
-1.25765 -0.319369 -0.000300001 0
-1.25765 -0.31937 -0.001 0
-1.25764 -0.319371 -0.001 0
-1.25764 -0.319371 -0.0015 0
-1.25764 -0.319372 -0.0015 0
-1.25764 -0.319372 -0.000700001 0
-1.25764 -0.319372 -0.000700001 0
-1.25764 -0.319372 -0.000700001 0
-1.25764 -0.319372 -0.000800001 0
-1.25764 -0.319372 -0.000800001 0
-1.25764 -0.319372 -0.0016 0
-1.25764 -0.319372 -0.0016 0
-1.25764 -0.319373 -0.000600001 0
-1.25764 -0.319373 -0.000600001 0
-1.25764 -0.319373 -0.000800001 0
-1.25764 -0.319372 -0.000800001 0
-1.25763 -0.319372 -0.000800001 0
-1.25763 -0.319373 -0.0011 0
-1.25755 -0.319276 -0.0011 0
-1.25755 -0.319277 -0.000900001 0
-1.25755 -0.319277 -0.000900001 0
-1.25755 -0.319278 -0.000900001 0
-1.25755 -0.31928 -0.001 0
-1.25755 -0.31928 -0.000500001 0
-1.25763 -0.319377 -0.000500001 0
-1.25763 -0.319377 -0.000500001 0
-1.25763 -0.319377 -0.001 0
-1.25762 -0.319378 -0.000800001 0
-1.25762 -0.319378 -0.000800001 0
-1.25762 -0.319379 -0.000800001 0
-1.25762 -0.31938 -0.000600001 0
-1.25762 -0.31938 -0.000600001 0
-1.25762 -0.319382 -0.0016 0
-1.25762 -0.319381 -0.0016 0
-1.25762 -0.319382 -0.000600001 0
-1.25762 -0.319383 -0.000600001 0
-1.25762 -0.319383 -0.000700001 0
-1.25761 -0.319384 -0.000700001 0
-1.25761 -0.319385 -0.001 0
-1.25761 -0.319386 -0.001 0
-1.25761 -0.319386 -0.000800001 0
-1.25761 -0.319387 -0.000800001 0
-1.25761 -0.319388 -0.000200001 0
-1.25761 -0.319389 -0.000200001 0
-1.25761 -0.31939 -0.000900001 0
-1.2576 -0.319391 -0.000900001 0
-1.2576 -0.319392 -0.000900001 0
-1.2576 -0.319394 -0.000900001 0
-1.2576 -0.319395 -0.000900001 0
-1.2576 -0.319396 -0.000900001 0
-1.2576 -0.319398 -0.000300001 0
-1.2576 -0.319397 -0.000300001 0
-1.2576 -0.319397 -0.000300001 0
-1.2576 -0.319397 -0.000300001 0
-1.25492 -0.320747 -0.000600001 0
-1.2576 -0.319401 -0.000600001 0
-1.25759 -0.319403 -0.000200001 0
-1.25759 -0.319403 -0.000200001 0
-1.25759 -0.319404 -0.000900001 0
-1.25759 -0.319404 -0.000900001 0
-1.25751 -0.319307 -0.001 0
-1.24679 -0.324697 -0.001 0
-1.25751 -0.319309 -0.000500001 0
-1.25751 -0.31931 -0.000500001 0
-1.25751 -0.31931 -0.000500001 0
-1.25751 -0.31931 -0.000800001 0
-1.25751 -0.319311 -0.000600001 0
-1.25751 -0.319312 -0.000600001 0
-1.25751 -0.319312 -0.0011 0
-1.25751 -0.319313 -0.0011 0
-1.25751 -0.319313 -0.0011 0
-1.25751 -0.319313 -0.000400001 0
-1.2575 -0.319314 -0.000400001 0
-1.2575 -0.319314 -0.000400001 0
-1.2575 -0.319314 -0.000400001 0
-1.2575 -0.319314 -0.000600001 0
-1.2575 -0.319315 -0.000600001 0
-1.2575 -0.319314 -0.001 0
-1.2575 -0.319315 -0.001 0
-1.2575 -0.319315 -0.001 0
-1.2575 -0.319316 -0.000300001 0
-1.25749 -0.319317 -0.001 0
-1.25749 -0.319318 -0.001 0
-1.25749 -0.31932 -0.001 0
-1.2557 -0.320219 -0.000900001 0
-1.25757 -0.319419 -0.000900001 0
-1.25757 -0.319421 -1.45519e-09 0
-1.25757 -0.319422 -1.45519e-09 0
-1.25757 -0.319423 -0.000200001 0
-1.25757 -0.319424 -0.000200001 0
-1.25757 -0.319425 -0.000400001 0
-1.25757 -0.319429 -0.000400001 0
-1.25757 -0.319429 -0.000800001 0
-1.25757 -0.319431 -0.000800001 0
-1.25756 -0.319431 -0.000600001 0
-1.25756 -0.319432 -0.000600001 0
-1.25756 -0.319433 -1.39698e-09 0
-1.25756 -0.319433 -1.39698e-09 0
-1.25756 -0.319434 -0.000900001 0
-1.25756 -0.319435 -0.000900001 0
-1.25756 -0.319436 -0.0011 0
-1.25756 -0.319436 -0.0011 0
-1.25756 -0.319437 -0.000500001 0
-1.25748 -0.319342 -0.000500001 0
-1.25748 -0.319342 -0.000600001 0
-1.25747 -0.319344 -0.000600001 0
-1.25569 -0.320243 -0.000900001 0
-1.25747 -0.319347 -0.000900001 0
-1.25747 -0.319348 -0.0011 0
-1.25747 -0.319348 -0.0011 0
-1.25747 -0.319349 -0.0011 0
-1.25747 -0.31935 -0.000700001 0
-1.25747 -0.31935 -0.000100001 0
-1.25755 -0.319449 -0.000100001 0
-1.25754 -0.31945 -0.000400001 0
-1.25754 -0.31945 -0.000400001 0
-1.25754 -0.31945 -0.000700001 0
-1.25754 -0.319451 -0.000700001 0
-1.25754 -0.319452 -0.000300001 0
-1.25754 -0.319453 -0.000300001 0
-1.25754 -0.319453 -0.000300001 0
-1.25754 -0.319454 -0.000300001 0
-1.25754 -0.319455 -0.000300001 0
-1.25754 -0.319455 -0.000900001 0
-1.25753 -0.319456 -0.000900001 0
-1.25485 -0.320803 -0.000800001 0
-1.25753 -0.319457 -0.000800001 0
-1.25753 -0.319457 -0.0011 0
-1.25753 -0.319458 -0.0011 0
-1.25753 -0.319458 -0.0011 0
-1.25753 -0.319458 -0.000800001 0
-1.25575 -0.320356 -0.000800001 0
-1.25753 -0.31946 -0.000800001 0
-1.25753 -0.319461 -0.000800001 0
-1.25753 -0.319462 -0.001 0
-1.25753 -0.319463 -0.001 0
-1.25753 -0.319464 -0.000700001 0
-1.25752 -0.319464 -0.000700001 0
-1.25752 -0.319464 -0.001 0
-1.25752 -0.319464 -0.001 0
-1.25752 -0.319464 -0.001 0
-1.25752 -0.319465 -0.000500001 0
-1.25752 -0.319466 -0.000500001 0
-1.25752 -0.319466 -0.000500001 0
-1.25752 -0.319466 -0.000900001 0
-1.25744 -0.319369 -0.000900001 0
-1.25931 -0.31857 -0.000900001 0
-1.25752 -0.319468 -0.000900001 0
-1.25752 -0.319469 -0.000900001 0
-1.25744 -0.31937 -1.39698e-09 0
-1.25752 -0.319468 -0.0011 0
-1.25752 -0.319468 -0.0011 0
-1.25751 -0.319469 -0.0011 0
-1.25743 -0.319373 -0.0011 0
-1.25743 -0.319375 -0.000600001 0
-1.25743 -0.319376 -0.000600001 0
-1.25743 -0.319377 -0.0012 0
-1.25743 -0.319378 -0.0012 0
-1.25743 -0.319379 -0.000800001 0
-1.25751 -0.319477 -0.000800001 0
-1.25751 -0.319478 -0.000500001 0
-1.25743 -0.319381 -0.000500001 0
-1.25743 -0.319382 -0.000500001 0
-1.25742 -0.319383 -0.000500001 0
-1.25742 -0.319383 -0.0015 0
-1.2575 -0.319481 -0.0015 0
-1.2575 -0.319481 -0.000800001 0
-1.2575 -0.319482 -0.000800001 0
-1.2575 -0.319481 -0.000800001 0
-1.2575 -0.319481 -0.000400001 0
-1.2575 -0.319482 -0.000800001 0
-1.2575 -0.319482 -0.000800001 0
-1.2575 -0.319483 -0.000900001 0
-1.25749 -0.319483 -0.000900001 0
-1.25749 -0.319483 -0.0011 0
-1.25749 -0.319483 -0.0011 0
-1.25749 -0.319484 -0.0011 0
-1.25749 -0.319485 -0.000800001 0
-1.25749 -0.319488 -0.000900001 0
-1.25749 -0.319488 -0.000900001 0
-1.25741 -0.319391 -0.000500001 0
-1.25741 -0.319391 -0.000500001 0
-1.25741 -0.319392 -0.000800001 0
-1.25749 -0.319489 -0.000800001 0
-1.25741 -0.319392 -0.000600001 0
-1.25741 -0.319391 -0.000600001 0
-1.25472 -0.320741 -0.000600001 0
-1.2574 -0.319395 -0.000600001 0
-1.2574 -0.319395 -0.000600001 0
-1.2574 -0.319396 -0.000900001 0
-1.25748 -0.319494 -0.000700001 0
-1.25748 -0.319493 -0.000700001 0
-1.2574 -0.319396 -0.000400001 0
-1.2574 -0.319396 -0.000400001 0
-1.2574 -0.319396 -0.000400001 0
-1.25739 -0.319397 -0.000400001 0
-1.25739 -0.319398 -0.000400001 0
-1.25747 -0.319497 -0.000400001 0
-1.25747 -0.319498 -0.000700001 0
-1.25747 -0.319499 -0.000700001 0
-1.25747 -0.319499 -0.001 0
-1.25747 -0.3195 -0.001 0
-1.25739 -0.319403 -0.000800001 0
-1.25739 -0.319404 -0.000800001 0
-1.25739 -0.319405 -0.001 0
-1.25739 -0.319405 -0.001 0
-1.25738 -0.319406 -0.000900001 0
-1.25738 -0.319406 -0.000900001 0
-1.25738 -0.319407 -0.000600001 0
-1.25738 -0.319408 -0.000600001 0
-1.25738 -0.319408 -0.001 0
-1.25738 -0.319406 -0.001 0
-1.25738 -0.319406 -0.000800001 0
-1.25738 -0.319406 -0.000800001 0
-1.25738 -0.319406 -0.0011 0
-1.25738 -0.319406 -0.000400001 0
-1.25738 -0.319407 -0.000400001 0
-1.25738 -0.319407 -0.000400001 0
-1.25738 -0.319407 -0.000300001 0
-1.25738 -0.319407 -0.000300001 0
-1.25738 -0.319406 -0.000800001 0
-1.25738 -0.319406 -0.000800001 0
-1.25737 -0.319407 -1.5134e-09 0
-1.25737 -0.319408 -1.5134e-09 0
-1.25737 -0.319409 9.99985e-05 0
-1.25737 -0.319411 9.99985e-05 0
-1.25737 -0.319411 -0.001 0
-1.25737 -0.319411 -0.001 0
-1.25737 -0.319411 -0.001 0
-1.25737 -0.319412 -0.000700001 0
-1.25737 -0.319412 -0.000700001 0
-1.25736 -0.319412 -0.000600001 0
-1.25736 -0.319413 -0.000600001 0
-1.25744 -0.319511 -0.000900001 0
-1.25744 -0.319512 -0.000900001 0
-1.25736 -0.319416 -0.000400001 0
-1.25736 -0.319417 -0.000400001 0
-1.25736 -0.319418 -0.0012 0
-1.25736 -0.319418 -0.0012 0
-1.25736 -0.319419 -0.000700001 0
-1.25736 -0.31942 -0.000500001 0
-1.25736 -0.319421 -0.000500001 0
-1.25735 -0.319422 -0.000500001 0
-1.25735 -0.319423 -0.000300001 0
-1.25735 -0.319425 -0.000600001 0
-1.25735 -0.319426 -0.000600001 0
-1.25743 -0.319527 -0.000600001 0
-1.25743 -0.319528 -0.000600001 0
-1.25742 -0.319528 -0.000600001 0
-1.25921 -0.31863 -0.000600001 0
-1.25742 -0.319528 -0.000800001 0
-1.25742 -0.319528 -0.000800001 0
-1.25742 -0.319528 -0.000400001 0
-1.25742 -0.319529 -0.000400001 0
-1.25742 -0.31953 -0.0012 0
-1.25742 -0.31953 -0.0012 0
-1.25742 -0.319531 -0.000800001 0
-1.25742 -0.319531 -0.000800001 0
-1.25742 -0.319532 -0.000800001 0
-1.25742 -0.319533 -0.000800001 0
-1.25741 -0.319534 -0.000700001 0
-1.25473 -0.320881 -0.000700001 0
-1.25741 -0.319535 -0.000700001 0
-1.25741 -0.319537 -0.0011 0
-1.25741 -0.319538 -0.0011 0
-1.25741 -0.319539 -0.000700001 0
-1.25741 -0.31954 -0.000700001 0
-1.25741 -0.31954 -0.000700001 0
-1.25741 -0.319541 -0.001 0
-1.2574 -0.319543 -0.000900001 0
-1.2574 -0.319544 -0.000900001 0
-1.2574 -0.319545 -0.000900001 0
-1.2574 -0.319545 -0.0013 0
-1.2574 -0.319546 -0.0013 0
-1.2574 -0.319548 -0.000600001 0
-1.2574 -0.319549 -0.000600001 0
-1.2574 -0.319549 -0.000600001 0
-1.2574 -0.31955 -0.000700001 0
-1.2574 -0.319551 -0.000700001 0
-1.2574 -0.319551 -0.000300001 0
-1.2574 -0.319551 -0.000300001 0
-1.2574 -0.319551 -0.000300001 0
-1.2574 -0.31955 -0.000600001 0
-1.2574 -0.319551 -0.000600001 0
-1.2574 -0.319551 -0.000700001 0
-1.2574 -0.319552 -0.000700001 0
-1.2574 -0.319551 -0.000700001 0
-1.25739 -0.319551 -0.000800001 0
-1.25739 -0.319551 -0.000800001 0
-1.25739 -0.319551 -0.000400001 0
-1.25739 -0.319552 -0.000400001 0
-1.25739 -0.319552 -0.001 0
-1.25739 -0.319552 -0.001 0
-1.25739 -0.319553 -0.000700001 0
-1.2591 -0.318557 -0.000700001 0
-1.25739 -0.319554 -0.000700001 0
-1.25739 -0.319555 -0.000500001 0
-1.25738 -0.319556 -0.000500001 0
-1.25738 -0.319557 -0.0011 0
-1.25738 -0.319557 -0.0011 0
-1.25738 -0.319558 -0.000200001 0
-1.25738 -0.319558 -0.000200001 0
-1.2573 -0.319461 -0.001 0
-1.25729 -0.319461 -0.001 0
-1.25729 -0.319462 -0.000500001 0
-1.25729 -0.319463 -0.000500001 0
-1.25729 -0.319463 -0.000500001 0
-1.25729 -0.319464 -0.000700001 0
-1.25729 -0.319465 -0.000700001 0
-1.25729 -0.319467 -0.000400001 0
-1.25729 -0.319467 -0.000600001 0
-1.25728 -0.319469 -0.000600001 0
-1.25728 -0.31947 -0.000600001 0
-1.25728 -0.319471 -0.000700001 0
-1.25728 -0.319472 -0.000700001 0
-1.25728 -0.319472 -0.001 0
-1.25728 -0.319473 -0.001 0
-1.25728 -0.319474 -0.001 0
-1.25728 -0.319475 -0.000500001 0
-1.25728 -0.319476 -0.000500001 0
-1.25728 -0.319478 -0.000700001 0
-1.25728 -0.319478 -0.000700001 0
-1.25727 -0.319479 -0.000700001 0
-1.25727 -0.319479 -0.000600001 0
-1.25727 -0.319479 -0.000700001 0
-1.25727 -0.319478 -0.000700001 0
-1.25727 -0.319479 -0.000700001 0
-1.25727 -0.319479 -0.000800001 0
-1.25727 -0.31948 -0.000800001 0
-1.25734 -0.319578 -0.000700001 0
-1.25734 -0.319578 -0.000700001 0
-1.25726 -0.319481 -0.000800001 0
-1.25734 -0.319579 -0.000800001 0
-1.25734 -0.319579 -0.0011 0
-1.25734 -0.319579 -0.0011 0
-1.25734 -0.31958 -0.000700001 0
-1.25734 -0.319579 -0.000700001 0
-1.25734 -0.31958 -0.000500001 0
-1.25726 -0.319483 -0.000500001 0
-1.25726 -0.319484 -0.000700001 0
-1.25726 -0.319484 -0.000700001 0
-1.25726 -0.319486 -0.000700001 0
-1.25726 -0.319487 -0.000700001 0
-1.25725 -0.319488 -0.000500001 0
-1.25725 -0.319489 -0.000800001 0
-1.25725 -0.31949 -0.000800001 0
-1.25725 -0.31949 -0.000800001 0
-1.25725 -0.319491 -0.000600001 0
-1.25546 -0.32039 -0.000600001 0
-1.25725 -0.319492 -0.000700001 0
-1.25725 -0.319493 -0.000700001 0
-1.25725 -0.319493 -0.000600001 0
-1.25724 -0.319494 -0.000600001 0
-1.25724 -0.319495 -0.000600001 0
-1.25724 -0.319496 -0.000500001 0
-1.25724 -0.319497 -0.000500001 0
-1.25724 -0.319497 -0.000400001 0
-1.25724 -0.319499 -0.000400001 0
-1.25724 -0.319501 -0.000800001 0
-1.25723 -0.319502 -0.000800001 0
-1.25723 -0.319503 -0.0011 0
-1.25723 -0.319505 -0.0011 0
-1.25723 -0.319505 -0.0011 0
-1.25723 -0.319506 -0.0011 0
-1.25723 -0.319506 -0.000800001 0
-1.25723 -0.319505 -0.000800001 0
-1.25723 -0.319506 -0.000900001 0
-1.25723 -0.319506 -0.000700001 0
-1.25723 -0.319505 -0.000700001 0
-1.25723 -0.319505 -0.000700001 0
-1.25723 -0.319505 -0.000700001 0
-1.25723 -0.319505 -0.000700001 0
-1.25723 -0.319506 -0.000400001 0
-1.25723 -0.319507 -0.000400001 0
-1.25723 -0.319507 -0.000400001 0
-1.25723 -0.319508 -0.000700001 0
-1.25722 -0.319508 -0.000700001 0
-1.25722 -0.319508 -0.000700001 0
-1.25722 -0.319509 -0.000700001 0
-1.25722 -0.31951 -0.000500001 0
-1.25722 -0.31951 -0.000500001 0
-1.25722 -0.319512 -0.000600001 0
-1.25722 -0.319513 -0.000600001 0
-1.25722 -0.319513 -0.0012 0
-1.25722 -0.319513 -0.0012 0
-1.25722 -0.319514 -0.0012 0
-1.25543 -0.320413 -0.000200001 0
-1.25721 -0.319515 -0.0011 0
-1.25721 -0.319516 -0.0011 0
-1.25721 -0.319518 -0.000700001 0
-1.25721 -0.319519 -0.000700001 0
-1.25721 -0.31952 -0.0011 0
-1.25721 -0.31952 -0.0011 0
-1.25721 -0.319519 -0.000300001 0
-1.25721 -0.319519 -0.000300001 0
-1.25721 -0.319519 -0.000400001 0
-1.25721 -0.319519 -0.000400001 0
-1.25721 -0.319519 -0.0011 0
-1.25721 -0.319519 -0.0011 0
-1.25721 -0.319519 -0.001 0
-1.25721 -0.319519 -0.001 0
-1.25721 -0.319521 -0.001 0
-1.25721 -0.319522 -0.000900001 0
-1.25721 -0.319521 -0.0011 0
-1.2572 -0.319521 -0.0011 0
-1.2572 -0.319522 -0.000500001 0
-1.2572 -0.319522 -0.000500001 0
-1.2572 -0.319523 -0.001 0
-1.2572 -0.319523 -0.001 0
-1.2572 -0.319524 -0.000300001 0
-1.2572 -0.319525 -0.000300001 0
-1.2572 -0.319525 -0.000800001 0
-1.2572 -0.319525 -0.000800001 0
-1.2572 -0.319526 -0.0011 0
-1.25728 -0.319625 -0.0011 0
-1.25728 -0.319625 -0.000700001 0
-1.25728 -0.319626 -0.000700001 0
-1.25728 -0.319626 -0.000700001 0
-1.25727 -0.319626 -0.000700001 0
-1.25727 -0.319626 -0.000900001 0
-1.25727 -0.319627 -0.000900001 0
-1.25727 -0.319626 -0.000400001 0
-1.25727 -0.319626 -0.000400001 0
-1.25727 -0.319627 -0.000400001 0
-1.25727 -0.319626 -0.000900001 0
-1.25727 -0.319627 -0.000900001 0
-1.25726 -0.319627 -0.000900001 0
-1.25726 -0.319627 -0.000200002 0
-1.25726 -0.319627 -0.000800002 0
-1.25726 -0.319627 -0.000800002 0
-1.25726 -0.319628 -0.001 0
-1.25726 -0.319628 -0.001 0
-1.25726 -0.319629 -0.001 0
-1.25726 -0.319629 -0.000200002 0
-1.25726 -0.319629 -0.000200002 0
-1.25725 -0.319629 -0.001 0
-1.25725 -0.319629 -0.001 0
-1.25725 -0.319629 -0.000700002 0
-1.25725 -0.31963 -0.000700002 0
-1.25725 -0.31963 -0.000700002 0
-1.25724 -0.319631 -0.000700002 0
-1.25724 -0.319632 -0.000900002 0
-1.25724 -0.319633 -0.000900002 0
-1.25724 -0.319633 -0.000700002 0
-1.25724 -0.319634 -0.000700002 0
-1.25724 -0.319635 -0.000800002 0
-1.25723 -0.319636 -0.000800002 0
-1.25723 -0.319637 -0.000800002 0
-1.25723 -0.319637 -0.000800002 0
-1.25723 -0.31964 -0.000800002 0
-1.25723 -0.319641 -0.000800002 0
-1.25723 -0.319641 -0.000800002 0
-1.25715 -0.319546 -0.000200002 0
-1.25715 -0.319547 -0.000600002 0
-1.25715 -0.319549 -0.000600002 0
-1.25715 -0.31955 -0.000800001 0
-1.25715 -0.319551 -0.000800001 0
-1.25715 -0.319554 -0.000700001 0
-1.25715 -0.319554 -0.000700001 0
-1.25715 -0.319554 -0.000600001 0
-1.25715 -0.319555 -0.000600001 0
-1.25715 -0.319555 -0.000600001 0
-1.25715 -0.319556 -0.000500001 0
-1.25714 -0.319557 -0.000900001 0
-1.25714 -0.319557 -0.000900001 0
-1.25714 -0.319558 -0.000900001 0
-1.25714 -0.319559 -0.000500001 0
-1.25714 -0.31956 -0.000400002 0
-1.25714 -0.319562 -0.000400002 0
-1.25714 -0.319562 -0.000400002 0
-1.25714 -0.319563 -0.000900001 0
-1.25714 -0.319564 -0.000700001 0
-1.25722 -0.319661 -0.000700001 0
-1.25722 -0.319662 -0.000700001 0
-1.25722 -0.319662 -0.0012 0
-1.25722 -0.319662 -0.0012 0
-1.25722 -0.319663 -0.000800001 0
-1.25721 -0.319664 -0.000800001 0
-1.25721 -0.319665 -0.000900001 0
-1.25721 -0.319666 -0.000700001 0
-1.25721 -0.319666 -0.000700001 0
-1.25721 -0.319667 -0.000700001 0
-1.25721 -0.319667 -0.000600001 0
-1.25721 -0.319668 -0.000900001 0
-1.25721 -0.319668 -0.000900001 0
-1.25721 -0.319667 -0.000900001 0
-1.25721 -0.319667 -0.000900001 0
-1.25721 -0.319667 -0.000800001 0
-1.25721 -0.319667 -0.000800001 0
-1.25721 -0.319668 -0.000800001 0
-1.25713 -0.319571 -0.000400001 0
-1.25712 -0.319571 -0.000400001 0
-1.25712 -0.319572 -0.000700001 0
-1.25712 -0.319572 -0.000700001 0
-1.25712 -0.319574 -0.000600001 0
-1.25712 -0.319575 -0.001 0
-1.25623 -0.320025 -0.001 0
-1.2572 -0.319675 -0.000600001 0
-1.2572 -0.319676 -0.000600001 0
-1.2572 -0.319677 -0.0011 0
-1.2572 -0.319676 -0.0011 0
-1.2572 -0.319677 -0.000400002 0
-1.25719 -0.319678 -0.000400002 0
-1.25719 -0.319679 -0.000400002 0
-1.25719 -0.319681 -0.000400002 0
-1.25711 -0.319584 -0.000900002 0
-1.25719 -0.319682 -0.000900002 0
-1.25719 -0.319683 -0.001 0
-1.25719 -0.319686 -0.001 0
-1.25711 -0.319589 -0.000900002 0
-1.25711 -0.31959 -0.000900002 0
-1.25711 -0.31959 -0.001 0
-1.25621 -0.320041 -0.001 0
-1.25719 -0.31969 -0.000600002 0
-1.25718 -0.319691 -0.000600002 0
-1.25718 -0.319691 -0.000900002 0
-1.25718 -0.319691 -0.000900002 0
-1.25718 -0.319692 -0.000600002 0
-1.25718 -0.319693 -0.000600002 0
-1.25718 -0.319694 -0.000300002 0
-1.25717 -0.319696 -0.000300002 0
-1.25717 -0.319698 -0.000700002 0
-1.25717 -0.319698 -0.000700002 0
-1.25709 -0.319601 -0.000700002 0
-1.25709 -0.319602 -0.000700002 0
-1.25709 -0.319603 -0.000400002 0
-1.25709 -0.319605 -0.000300002 0
-1.25709 -0.319607 -0.000300002 0
-1.25709 -0.319608 -0.000300002 0
-1.25709 -0.319608 -0.000800002 0
-1.25709 -0.319609 -0.000500002 0
-1.25709 -0.31961 -0.000500002 0
-1.25709 -0.31961 -0.000500002 0
-1.25709 -0.319611 -0.000700002 0
-1.25708 -0.319612 -0.000700002 0
-1.25708 -0.319613 -0.000600002 0
-1.25708 -0.319613 -0.000600002 0
-1.25708 -0.319613 -0.000800002 0
-1.25708 -0.319613 -0.000800002 0
-1.25708 -0.319613 -0.000800002 0
-1.25707 -0.319613 -0.000700002 0
-1.25707 -0.319613 -0.000700002 0
-1.25707 -0.319613 -0.001 0
-1.25707 -0.319613 -0.001 0
-1.25797 -0.319164 -0.000700002 0
-1.25707 -0.319614 -0.000700002 0
-1.25707 -0.319614 -0.000600002 0
-1.25707 -0.319615 -0.000600002 0
-1.25707 -0.319615 -0.000300002 0
-1.25707 -0.319615 -0.000300002 0
-1.2928 -0.301652 -0.000900002 0
-1.25706 -0.319617 -0.000900002 0
-1.25706 -0.319618 -0.000700002 0
-1.25706 -0.319618 -0.000700002 0
-1.25706 -0.319619 9.99984e-05 0
-1.25706 -0.319619 9.99984e-05 0
-1.25706 -0.31962 -0.0011 0
-1.25706 -0.31962 -0.0011 0
-1.25706 -0.31962 -0.0011 0
-1.25706 -0.319621 -0.000900002 0
-1.25706 -0.319621 -0.000900002 0
-1.25706 -0.319621 -0.000300002 0
-1.25705 -0.319622 -0.000300002 0
-1.25705 -0.319622 -0.000500002 0
-1.25705 -0.319621 -0.000500002 0
-1.25705 -0.319621 -0.000500002 0
-1.25705 -0.319621 -0.000400002 0
-1.25705 -0.319621 -0.000900002 0
-1.25705 -0.319621 -0.000900002 0
-1.25705 -0.319621 -0.000900002 0
-1.25705 -0.319622 -0.000700002 0
-1.25704 -0.319622 -0.000700002 0
-1.25526 -0.320521 -0.000700002 0
-1.25704 -0.319625 -0.000700002 0
-1.25704 -0.319626 -0.000700002 0
-1.25615 -0.320076 -0.000600002 0
-1.25704 -0.319629 -0.000600002 0
-1.25704 -0.31963 -0.000600002 0
-1.25704 -0.31963 -0.000600002 0
-1.25704 -0.31963 -0.000600002 0
-1.25704 -0.31963 -0.000300002 0
-1.25704 -0.319631 -0.000300002 0
-1.25703 -0.319632 -0.000400002 0
-1.25703 -0.319633 -0.000400002 0
-1.25524 -0.320531 -0.000400002 0
-1.25703 -0.319634 -0.000500002 0
-1.25703 -0.319635 -0.0011 0
-1.25703 -0.319634 -0.0011 0
-1.25703 -0.319634 -0.0011 0
-1.25703 -0.319634 -0.000800002 0
-1.25702 -0.319635 -0.000500002 0
-1.25702 -0.319636 -0.000500002 0
-1.25702 -0.319637 -0.000500002 0
-1.25702 -0.319637 -0.001 0
-1.25702 -0.319638 -0.000600002 0
-1.25702 -0.319637 -0.000600002 0
-1.25702 -0.319638 -0.000600002 0
-1.25702 -0.319639 -0.000700002 0
-1.25702 -0.319639 -0.000700002 0
-1.25702 -0.319639 -0.000400002 0
-1.25701 -0.31964 -0.001 0
-1.25701 -0.31964 -0.001 0
-1.25701 -0.319641 -0.001 0
-1.25701 -0.319642 -0.000700002 0
-1.25701 -0.319643 -0.000600002 0
-1.25701 -0.319644 -0.000600002 0
-1.25701 -0.319645 -0.000700002 0
-1.25701 -0.319645 -0.000700002 0
-1.257 -0.319645 -0.000700002 0
-1.257 -0.319645 -0.000700002 0
-1.257 -0.319645 -0.000700002 0
-1.257 -0.319645 -0.000400002 0
-1.257 -0.319646 -0.000400002 0
-1.257 -0.319646 -0.000300002 0
-1.257 -0.319647 -0.000300002 0
-1.257 -0.319647 -0.000500002 0
-1.2561 -0.320097 -0.000800002 0
-1.25699 -0.319649 -0.000800002 0
-1.25699 -0.319649 -0.000900002 0
-1.25699 -0.31965 -0.000900002 0
-1.25699 -0.31965 -0.000300002 0
-1.25699 -0.319651 -0.000300002 0
-1.25699 -0.319651 -0.000300002 0
-1.25699 -0.319653 -0.000600002 0
-1.25699 -0.319654 -0.000600002 0
-1.25699 -0.319654 -0.000600002 0
-1.25699 -0.319654 -0.000600002 0
-1.25698 -0.319655 -0.000900002 0
-1.25698 -0.319656 -0.000900002 0
-1.25698 -0.319656 -0.000300002 0
-1.25698 -0.319656 -0.000300002 0
-1.25698 -0.319656 -0.000600002 0
-1.25698 -0.319656 -0.000700002 0
-1.25698 -0.319656 -0.000700002 0
-1.25698 -0.319656 -0.000300002 0
-1.2543 -0.321004 -0.000300002 0
-1.25698 -0.319657 -0.000500002 0
-1.25698 -0.319657 -0.000500002 0
-1.25698 -0.319658 -0.000800002 0
-1.25698 -0.319659 -0.000800002 0
-1.25698 -0.31966 -0.000700002 0
-1.25698 -0.31966 -0.000700002 0
-1.25698 -0.31966 -0.000500002 0
-1.25698 -0.319661 -0.000500002 0
-1.25698 -0.319661 -0.000700002 0
-1.25698 -0.319662 -0.000700002 0
-1.25698 -0.319663 -0.000600002 0
-1.25698 -0.319663 -0.000600002 0
-1.25698 -0.319664 -0.000600002 0
-1.25697 -0.319664 -0.000900002 0
-1.25697 -0.319665 -0.000800002 0
-1.25697 -0.319666 -0.000800002 0
-1.25697 -0.319666 -0.000800002 0
-1.25429 -0.321013 -0.0011 0
-1.25705 -0.319764 -0.0011 0
-1.25697 -0.319666 -0.0011 0
-1.25697 -0.319666 -0.0011 0
-1.25697 -0.319666 -0.000800002 0
-1.25696 -0.319667 -0.000800002 0
-1.25696 -0.319667 -0.000800002 0
-1.25704 -0.319765 -0.000800002 0
-1.25696 -0.319667 -0.000400002 0
-1.25704 -0.319765 -0.000400002 0
-1.25704 -0.319766 -0.000700002 0
-1.25704 -0.319767 -0.000700002 0
-1.25704 -0.319767 -0.000900002 0
-1.25704 -0.319768 -0.000900002 0
-1.25704 -0.319769 -0.000500002 0
-1.25703 -0.319769 -0.000500002 0
-1.25695 -0.319672 -0.000700002 0
-1.25695 -0.319673 -0.000700002 0
-1.25695 -0.319674 -0.000500002 0
-1.25695 -0.319675 -0.000500002 0
-1.25695 -0.319676 -0.000400002 0
-1.25695 -0.319677 -0.000400002 0
-1.25695 -0.319679 -0.000100002 0
-1.25695 -0.319679 -0.000100002 0
-1.25695 -0.31968 -0.000100002 0
-1.24622 -0.32507 -0.000900002 0
-1.25694 -0.319681 -0.000400002 0
-1.25694 -0.319681 -0.000400002 0
-1.25694 -0.319681 -0.000400002 0
-1.25694 -0.319682 -0.0012 0
-1.25694 -0.319682 -0.0012 0
-1.25694 -0.319682 -0.0012 0
-1.25694 -0.319683 -0.000700002 0
-1.25694 -0.319684 -0.000500002 0
-1.25694 -0.319684 -0.000500002 0
-1.25694 -0.319685 -0.000800002 0
-1.25694 -0.319685 -0.000800002 0
-1.25693 -0.319687 -0.0011 0
-1.25693 -0.319688 -0.0011 0
-1.25693 -0.319689 -0.0011 0
-1.25693 -0.31969 -0.000900002 0
-1.25701 -0.31979 -0.0012 0
-1.25701 -0.31979 -0.0012 0
-1.25701 -0.319791 -0.000500002 0
-1.25701 -0.319791 -0.000500002 0
-1.25522 -0.320689 -0.000500002 0
-1.257 -0.319792 -0.0011 0
-1.257 -0.319793 -0.000800002 0
-1.257 -0.319794 -0.000800002 0
-1.257 -0.319795 -0.000800002 0
-1.257 -0.319796 -0.0011 0
-1.257 -0.319798 -0.0011 0
-1.257 -0.319799 -0.000300002 0
-1.257 -0.319799 -0.000300002 0
-1.25699 -0.3198 -0.000700002 0
-1.25699 -0.319801 -0.000700002 0
-1.25699 -0.319801 -0.000700002 0
-1.25699 -0.319802 -0.000700002 0
-1.25699 -0.319803 -1.74623e-09 0
-1.25699 -0.319803 -1.74623e-09 0
-1.25699 -0.319804 -0.000700002 0
-1.25699 -0.319804 -0.000700002 0
-1.25699 -0.319805 -0.0011 0
-1.25699 -0.319805 -0.0011 0
-1.25699 -0.319806 -0.000700002 0
-1.25698 -0.319807 -0.000700002 0
-1.25698 -0.319807 -0.000500002 0
-1.25698 -0.319808 -0.000500002 0
-1.25698 -0.319808 -0.000800002 0
-1.25698 -0.319809 -0.000800002 0
-1.2543 -0.321155 -0.001 0
-1.25698 -0.319808 -0.001 0
-1.25698 -0.319808 -0.000400002 0
-1.25698 -0.319808 -0.000400002 0
-1.25698 -0.319809 -0.000400002 0
-1.25697 -0.319809 -0.000700002 0
-1.25697 -0.319809 -0.000700002 0
-1.25689 -0.319711 -0.000500002 0
-1.25697 -0.319808 -0.000500002 0
-1.25697 -0.319808 -0.000700002 0
-1.25689 -0.319709 -0.000700002 0
-1.25689 -0.319709 -0.000500002 0
-1.25697 -0.319807 -0.000500002 0
-1.25697 -0.319807 -0.000500002 0
-1.25697 -0.319807 -0.000100002 0
-1.25697 -0.319807 -0.000100002 0
-1.25697 -0.319808 -0.000600002 0
-1.25689 -0.319711 -0.000600002 0
-1.25688 -0.319711 -0.000600002 0
-1.25696 -0.31981 -0.000800002 0
-1.25696 -0.31981 -0.000800002 0
-1.25696 -0.319811 -0.000400002 0
-1.25696 -0.319813 -0.000400002 0
-1.25688 -0.319716 -0.001 0
-1.25688 -0.319717 -0.001 0
-1.25688 -0.319717 -0.001 0
-1.25688 -0.319718 -0.000100002 0
-1.25688 -0.319718 -0.000100002 0
-1.25688 -0.319719 -0.000500002 0
-1.25687 -0.319719 -0.000500002 0
-1.25695 -0.319816 -0.000300002 0
-1.25695 -0.319816 -0.000300002 0
-1.25695 -0.319816 -0.000300002 0
-1.25695 -0.319816 -0.000900002 0
-1.25695 -0.319817 -0.000600002 0
-1.25695 -0.319818 -0.000600002 0
-1.25695 -0.319819 -0.000600002 0
-1.25695 -0.319819 -0.000800002 0
-1.25695 -0.31982 -0.000800002 0
-1.25687 -0.319723 -0.000800002 0
-1.25687 -0.319724 -0.000700002 0
-1.25694 -0.319822 -0.000300002 0
-1.25694 -0.319823 -0.000300002 0
-1.25694 -0.319824 0.000199998 0
-1.25694 -0.319824 0.000199998 0
-1.25694 -0.319825 0.000199998 0
-1.25694 -0.319824 -0.0011 0
-1.25694 -0.319824 -0.0011 0
-1.25694 -0.319824 -0.001 0
-1.25694 -0.319823 -0.001 0
-1.25694 -0.319824 0.000299998 0
-1.25694 -0.319825 0.000299998 0
-1.25694 -0.319824 -0.000900002 0
-1.25693 -0.319824 -0.000900002 0
-1.25693 -0.319825 -0.000900002 0
-1.25693 -0.319826 -0.000500002 0
-1.25693 -0.319827 -0.000500002 0
-1.25693 -0.319829 -0.000700002 0
-1.25693 -0.31983 -0.000700002 0
-1.25693 -0.319831 -0.000700002 0
-1.25692 -0.319833 -0.000800002 0
-1.25692 -0.319835 -0.000800002 0
-1.25692 -0.319836 -0.000900002 0
-1.25692 -0.319837 -0.000900002 0
-1.25692 -0.319837 -0.000900002 0
-1.25692 -0.319838 -0.000500002 0
-1.25692 -0.319839 -0.0016 0
-1.25692 -0.31984 -0.0016 0
-1.25692 -0.319841 -0.0016 0
-1.25692 -0.319842 -0.000200002 0
-1.25692 -0.319843 -0.000200002 0
-1.25684 -0.319747 -0.000600002 0
-1.25684 -0.319746 -0.000600002 0
-1.25683 -0.319746 -0.000600002 0
-1.25683 -0.319747 -0.000800002 0
-1.25683 -0.319746 -0.000800002 0
-1.25683 -0.319747 -0.000500002 0
-1.25683 -0.319748 -0.000500002 0
-1.25683 -0.319748 -0.000500002 0
-1.25683 -0.319749 -0.001 0
-1.25683 -0.31975 -0.001 0
-1.25683 -0.319751 -0.000900002 0
-1.25683 -0.319752 -0.000900002 0
-1.25683 -0.319752 -0.000600002 0
-1.25683 -0.319752 -0.000600002 0
-1.2569 -0.31985 -0.001 0
-1.2569 -0.31985 -0.001 0
-1.2569 -0.319851 -0.001 0
-1.2569 -0.319853 -0.000400002 0
-1.2569 -0.319854 -0.000400002 0
-1.2569 -0.319855 -0.000400002 0
-1.2569 -0.319856 -0.000400002 0
-1.2569 -0.319857 -0.000400002 0
-1.2569 -0.319858 -0.000800002 0
-1.2569 -0.319858 -0.000800002 0
-1.2569 -0.319858 -0.000900002 0
-1.2569 -0.319858 -0.000900002 0
-1.25682 -0.31976 -0.000800002 0
-1.25682 -0.31976 -0.000800002 0
-1.25682 -0.31976 -0.000800002 0
-1.25681 -0.319761 -0.000700002 0
-1.25681 -0.31976 -0.000700002 0
-1.25689 -0.319859 -0.000200002 0
-1.25689 -0.319861 -0.000200002 0
-1.25689 -0.319862 -0.000600002 0
-1.25681 -0.319766 -0.000600002 0
-1.25681 -0.319767 -0.0011 0
-1.2568 -0.319768 -0.0011 0
-1.2568 -0.319769 -0.0011 0
-1.2568 -0.31977 -0.0012 0
-1.2568 -0.319771 -0.0012 0
-1.2568 -0.319772 -0.000600002 0
-1.2568 -0.319772 -0.000600002 0
-1.25679 -0.319774 -0.000500002 0
-1.25679 -0.319775 -0.000500002 0
-1.25679 -0.319776 -0.0014 0
-1.25679 -0.319777 -0.0014 0
-1.25679 -0.319779 -0.0014 0
-1.25679 -0.319779 -0.000400002 0
-1.25679 -0.31978 -0.000400002 0
-1.25679 -0.319782 -0.0011 0
-1.25687 -0.319881 -0.0011 0
-1.25686 -0.319882 -0.000600002 0
-1.25678 -0.319786 -0.000600002 0
-1.25686 -0.319884 -0.001 0
-1.25686 -0.319886 -0.001 0
-1.25686 -0.319887 -0.001 0
-1.25686 -0.319887 -0.000800002 0
-1.25686 -0.319888 -0.000800002 0
-1.25686 -0.319889 -0.000500002 0
-1.25686 -0.31989 -0.000500002 0
-1.25686 -0.319891 -0.001 0
-1.25686 -0.319891 -0.001 0
-1.25686 -0.319892 -0.000500002 0
-1.25685 -0.319893 -0.000500002 0
-1.25685 -0.319894 -0.000600002 0
-1.25685 -0.319894 -0.000600002 0
-1.25685 -0.319895 -0.000600002 0
-1.25685 -0.319896 -0.000900002 0
-1.25685 -0.319897 -0.000900002 0
-1.25685 -0.319899 -0.000800002 0
-1.25677 -0.319803 -0.000700002 0
-1.25417 -0.321248 -0.000700002 0
-1.25684 -0.319902 -0.000700002 0
-1.25684 -0.319903 -0.000700002 0
-1.25684 -0.319904 -0.000700002 0
-1.25684 -0.319906 -0.000500002 0
-1.25684 -0.319907 -0.000500002 0
-1.25684 -0.319907 -0.000500002 0
-1.25684 -0.319908 -0.0012 0
-1.25684 -0.319908 -0.001 0
-1.25684 -0.319908 -0.001 0
-1.25684 -0.31991 -0.001 0
-1.25684 -0.31991 -0.000100002 0
-1.25683 -0.319911 -0.000100002 0
-1.25683 -0.319911 -0.0012 0
-1.25683 -0.319911 -0.0012 0
-1.25683 -0.319911 -0.000900002 0
-1.25683 -0.319912 -0.000900002 0
-1.25683 -0.319912 -0.000900002 0
-1.25683 -0.319912 -1.68802e-09 0
-1.25683 -0.319913 -1.68802e-09 0
-1.25683 -0.319913 -0.000900002 0
-1.25683 -0.319913 -0.000900002 0
-1.25683 -0.319914 -0.000600002 0
-1.25683 -0.319914 -0.000600002 0
-1.25683 -0.319913 -0.000500002 0
-1.25683 -0.319913 -0.000500002 0
-1.25683 -0.319913 -0.000400002 0
-1.25683 -0.319913 -0.000400002 0
-1.25683 -0.319913 -0.000900002 0
-1.25683 -0.319914 -0.000900002 0
-1.25683 -0.319914 -0.000600002 0
-1.25683 -0.319915 -0.000600002 0
-1.25683 -0.319916 -0.000900002 0
-1.25593 -0.320366 -0.000900002 0
-1.25682 -0.319918 -0.000900002 0
-1.25682 -0.319919 -0.000900002 0
-1.25682 -0.31992 -0.000700002 0
-1.25682 -0.319921 -0.000700002 0
-1.25682 -0.319922 -0.000700002 0
-1.25682 -0.319922 -0.000500002 0
-1.25682 -0.319923 -0.000500002 0
-1.25682 -0.319924 -0.000500002 0
-1.25682 -0.319924 -0.000500002 0
-1.25682 -0.319925 -0.000500002 0
-1.25682 -0.319925 -0.000500002 0
-1.25682 -0.319926 -0.000600002 0
-1.25681 -0.319927 -0.000600002 0
-1.25681 -0.319927 -0.000700002 0
-1.25681 -0.319928 -0.000700002 0
-1.25681 -0.319929 -0.000700002 0
-1.25681 -0.31993 -0.0011 0
-1.25681 -0.31993 -0.0011 0
-1.25681 -0.319931 -0.000500002 0
-1.25681 -0.319932 -0.000500002 0
-1.25681 -0.319933 -0.000900002 0
-1.2568 -0.319933 -0.000900002 0
-1.2568 -0.319934 -0.000300002 0
-1.2568 -0.319934 -0.000300002 0
-1.2568 -0.319934 -0.000300002 0
-1.25591 -0.320384 -0.000600002 0
-1.2568 -0.319936 -0.000600002 0
-1.2568 -0.319936 -0.001 0
-1.2568 -0.319936 -0.001 0
-1.25672 -0.319839 -0.000500002 0
-1.25672 -0.319839 -0.000500002 0
-1.25672 -0.31984 -0.000400002 0
-1.25672 -0.319841 -0.000400002 0
-1.25672 -0.319842 -0.000400002 0
-1.25671 -0.319842 -0.000800002 0
-1.25671 -0.319843 -0.000800002 0
-1.25671 -0.319843 -0.000500002 0
-1.25671 -0.319843 -0.000500002 0
-1.25671 -0.319843 -0.000800002 0
-1.25671 -0.319844 -0.000800002 0
-1.25671 -0.319844 -0.000800002 0
-1.25671 -0.319845 -0.000900002 0
-1.25492 -0.320744 -0.000900002 0
-1.25671 -0.319848 -0.000500002 0
-1.25671 -0.319848 -0.001 0
-1.25671 -0.319848 -0.001 0
-1.25671 -0.319849 -0.001 0
-1.2567 -0.31985 -0.000300002 0
-1.2567 -0.319851 -0.000300002 0
-1.2567 -0.319853 -0.000800002 0
-1.2567 -0.319855 -0.000800002 0
-1.2567 -0.319855 -0.000700002 0
-1.2567 -0.319855 -0.000700002 0
-1.2567 -0.319856 -0.000700002 0
-1.2567 -0.319856 -0.000700002 0
-1.2567 -0.319856 -0.000700002 0
-1.2567 -0.319857 -0.001 0
-1.2567 -0.319858 -0.001 0
-1.25678 -0.319956 -0.000300002 0
-1.25678 -0.319957 -0.000300002 0
-1.25677 -0.319957 -0.000300002 0
-1.25588 -0.320406 -0.000900002 0
-1.25677 -0.319957 -0.000900002 0
-1.25677 -0.319958 0.000399998 0
-1.25588 -0.320407 0.000399998 0
-1.25677 -0.319958 0.000399998 0
-1.25677 -0.319957 -0.0014 0
-1.25677 -0.319957 -0.0014 0
-1.25677 -0.319957 -0.000900002 0
-1.25676 -0.319957 -0.000900002 0
-1.25676 -0.319958 -0.000800002 0
-1.25676 -0.319958 -0.000800002 0
-1.25676 -0.319959 -0.000700002 0
-1.25676 -0.31996 -0.000700002 0
-1.25676 -0.31996 -1.57161e-09 0
-1.25676 -0.31996 -1.57161e-09 0
-1.25676 -0.319961 -0.000200002 0
-1.25676 -0.319962 -0.000200002 0
-1.25676 -0.319962 -0.000200002 0
-1.25676 -0.319962 -0.0012 0
-1.25676 -0.319963 -0.0012 0
-1.25675 -0.319963 -0.0012 0
-1.25675 -0.319963 -0.0011 0
-1.25675 -0.319964 -0.000900002 0
-1.25675 -0.319964 -0.000900002 0
-1.25675 -0.319964 -0.000500002 0
-1.25675 -0.319965 -0.000500002 0
-1.25675 -0.319966 -0.000500002 0
-1.25675 -0.319967 -0.000500002 0
-1.25675 -0.319968 -0.000800002 0
-1.25675 -0.319969 -0.000800002 0
-1.25675 -0.31997 -0.000800002 0
-1.25675 -0.31997 -0.0012 0
-1.25675 -0.319971 -0.0012 0
-1.25675 -0.319971 -0.000700002 0
-1.25675 -0.319972 -0.000700002 0
-1.25675 -0.319972 -0.000700002 0
-1.25675 -0.319973 -0.000600002 0
-1.25674 -0.319974 -0.000600002 0
-1.25674 -0.319975 -0.000200002 0
-1.25674 -0.319975 -0.000200002 0
-1.25674 -0.319975 -0.000600002 0
-1.25674 -0.319976 -0.000600002 0
-1.25585 -0.320426 -0.000400002 0
-1.25674 -0.319977 -0.000400002 0
-1.25674 -0.319978 -0.000400002 0
-1.25674 -0.319978 -0.000800002 0
-1.25674 -0.31998 -0.000800002 0
-1.25674 -0.319981 -0.000400002 0
-1.25674 -0.319982 -0.000400002 0
-1.25674 -0.319983 -0.000300002 0
-1.25674 -0.319984 -0.000300002 0
-1.25674 -0.319985 -0.000700002 0
-1.25495 -0.320883 -0.000700002 0
-1.25674 -0.319985 -0.000700002 0
-1.25674 -0.319986 -0.000800002 0
-1.25674 -0.319987 -0.000800002 0
-1.25673 -0.319988 -0.000600002 0
-1.25673 -0.319989 -0.000600002 0
-1.25673 -0.319989 -0.000800002 0
-1.25673 -0.31999 -0.000800002 0
-1.25673 -0.319991 -0.000300002 0
-1.25673 -0.319992 -0.000300002 0
-1.25673 -0.319992 -0.000500002 0
-1.25673 -0.319992 -0.000500002 0
-1.25673 -0.319993 -0.001 0
-1.25673 -0.319994 -0.001 0
-1.25665 -0.319897 -0.000600002 0
-1.25665 -0.319898 -0.000600002 0
-1.25397 -0.321246 -0.000700002 0
-1.25673 -0.319997 -0.000700002 0
-1.25673 -0.319998 -0.000700002 0
-1.25665 -0.319901 -0.000700002 0
-1.25665 -0.319901 -0.000300002 0
-1.25665 -0.319901 -0.000300002 0
-1.25664 -0.319902 -0.000300002 0
-1.25664 -0.319903 -0.000900002 0
-1.25664 -0.319903 -0.000500002 0
-1.25664 -0.319904 -0.000500002 0
-1.25664 -0.319904 -0.000500002 0
-1.25664 -0.319904 -0.000800002 0
-1.25664 -0.319904 -0.000800002 0
-1.25663 -0.319904 -0.000600002 0
-1.25663 -0.319904 -0.000600002 0
-1.25663 -0.319905 -0.000700002 0
-1.25663 -0.319906 -0.000700002 0
-1.25663 -0.319906 -0.000500002 0
-1.25663 -0.319906 -0.000500002 0
-1.25663 -0.319906 -0.000600002 0
-1.25662 -0.319906 -0.000600002 0
-1.25662 -0.319906 -0.000900002 0
-1.25662 -0.319906 -0.000900002 0
-1.25662 -0.319907 -0.0012 0
-1.25662 -0.319909 -0.0012 0
-1.25662 -0.319909 -0.000800002 0
-1.25662 -0.31991 -0.000800002 0
-1.25662 -0.31991 -0.000600002 0
-1.25661 -0.31991 -0.000600002 0
-1.25661 -0.319909 -0.000700002 0
-1.25669 -0.320008 -0.000700002 0
-1.25669 -0.320009 -0.000700002 0
-1.25669 -0.32001 -0.000700002 0
-1.25669 -0.32001 -0.001 0
-1.25668 -0.320012 -0.001 0
-1.25668 -0.320012 -0.000800002 0
-1.25668 -0.320013 -0.000800002 0
-1.25668 -0.320013 -0.000800002 0
-1.25668 -0.320015 -0.000600002 0
-1.25668 -0.320016 -0.000300002 0
-1.25668 -0.320016 -0.000300002 0
-1.25668 -0.320017 -0.000600002 0
-1.25667 -0.320017 -0.000600002 0
-1.25667 -0.320017 -0.000600002 0
-1.25667 -0.320017 -0.000600002 0
-1.25667 -0.320017 -0.000600002 0
-1.25667 -0.320017 -0.000500002 0
-1.25667 -0.320017 -0.000500002 0
-1.25667 -0.320018 -0.000500002 0
-1.25667 -0.320019 -0.000400002 0
-1.25659 -0.319922 -0.000400002 0
-1.25667 -0.320021 -0.000900002 0
-1.25667 -0.320021 -0.000900002 0
-1.25667 -0.32002 -0.000800002 0
-1.25667 -0.32002 -0.000800002 0
-1.25667 -0.32002 -0.000900002 0
-1.25659 -0.319923 -0.000900002 0
-1.25659 -0.319923 -0.000900002 0
-1.25659 -0.319923 -0.000800002 0
-1.25667 -0.320021 -0.000800002 0
-1.25667 -0.320021 -0.000800002 0
-1.25667 -0.320021 -0.000800002 0
-1.25667 -0.320021 -0.000900002 0
-1.25659 -0.319924 -0.000900002 0
-1.25659 -0.319924 -0.000500002 0
-1.25659 -0.319924 -0.000500002 0
-1.25659 -0.319924 -0.000500002 0
-1.25658 -0.319924 -0.000800002 0
-1.25569 -0.320373 -0.000800002 0
-1.25658 -0.319924 -0.000400002 0
-1.25658 -0.319924 -0.000400002 0
-1.25658 -0.319925 -0.000500002 0
-1.25658 -0.319925 -0.001 0
-1.25658 -0.319926 -0.001 0
-1.25666 -0.320022 -0.000100002 0
-1.25665 -0.320021 -0.000100002 0
-1.25665 -0.320022 -0.000100002 0
-1.25665 -0.320023 -0.000600002 0
-1.25665 -0.320025 -0.001 0
-1.25665 -0.320026 -0.001 0
-1.25665 -0.320027 -0.000800002 0
-1.25657 -0.31993 -0.000800002 0
-1.25657 -0.319933 -0.000900002 0
-1.25568 -0.320383 -0.000900002 0
-1.25657 -0.319934 -0.000900002 0
-1.25657 -0.319936 -0.000900002 0
-1.25656 -0.319936 -0.000800002 0
-1.25656 -0.319937 -0.000800002 0
-1.25656 -0.319939 -0.000500002 0
-1.25656 -0.31994 -0.000500002 0
-1.25656 -0.319943 -0.000600002 0
-1.25656 -0.319945 -0.000600002 0
-1.25655 -0.319946 -0.000500002 0
-1.25655 -0.319948 -0.000500002 0
-1.25655 -0.319949 -0.000400002 0
-1.25655 -0.31995 -0.000400002 0
-1.25655 -0.319952 -0.000300002 0
-1.25655 -0.319953 -0.000300002 0
-1.25655 -0.319954 -0.000300002 0
-1.25663 -0.320053 -0.000400002 0
-1.25662 -0.320056 -0.000400002 0
-1.25662 -0.320056 -0.000600002 0
-1.25662 -0.320058 -0.000600002 0
-1.25662 -0.320059 -0.000700002 0
-1.25662 -0.32006 -0.000700002 0
-1.25653 -0.319964 -0.000800002 0
-1.25653 -0.319964 -0.000800002 0
-1.25653 -0.319965 -0.000500002 0
-1.25653 -0.319966 -0.000500002 0
-1.25653 -0.319966 9.99984e-05 0
-1.25653 -0.319966 9.99984e-05 0
-1.25653 -0.319966 -0.000700002 0
-1.25653 -0.319967 -0.000700002 0
-1.25653 -0.319967 -0.000800002 0
-1.25653 -0.319967 -0.000800002 0
-1.2566 -0.320065 -0.000400002 0
-1.2566 -0.320065 -0.000600002 0
-1.2566 -0.320066 -0.000600002 0
-1.2566 -0.320066 -0.000600002 0
-1.2566 -0.320067 -0.000900002 0
-1.25652 -0.31997 -0.000600002 0
-1.25652 -0.31997 -0.000600002 0
-1.25652 -0.319971 -0.000600002 0
-1.25652 -0.319972 -0.000800002 0
-1.25652 -0.319973 -0.000800002 0
-1.25652 -0.319974 -0.000800002 0
-1.25651 -0.319975 -0.000800002 0
-1.25651 -0.319975 -0.000800002 0
-1.25651 -0.319975 -0.000600002 0
-1.25651 -0.319976 -0.000600002 0
-1.25651 -0.319976 -0.000600002 0
-1.25651 -0.319977 -0.000500002 0
-1.25651 -0.319977 -0.000500002 0
-1.25651 -0.319978 -0.000500002 0
-1.25651 -0.319978 -0.000800002 0
-1.25651 -0.319979 -0.000800002 0
-1.25651 -0.31998 -0.000800002 0
-1.25651 -0.31998 -0.000800002 0
-1.2565 -0.319982 -0.000500002 0
-1.2565 -0.319982 -0.000500002 0
-1.2565 -0.319983 -0.000900002 0
-1.2565 -0.319983 -0.000900002 0
-1.2565 -0.319984 -0.000100002 0
-1.2565 -0.319984 -0.000100002 0
-1.2565 -0.319985 -0.000100002 0
-1.2565 -0.319986 -0.000400002 0
-1.2565 -0.319987 -0.000400002 0
-1.2565 -0.319987 -0.000500002 0
-1.2565 -0.319988 -0.000500002 0
-1.2565 -0.319989 -0.000900002 0
-1.2565 -0.31999 -0.000900002 0
-1.2565 -0.319991 -0.000900002 0
-1.2565 -0.319992 -0.000700002 0
-1.2565 -0.319993 -0.000700002 0
-1.2565 -0.319995 -0.000700002 0
-1.25649 -0.319996 -0.000700002 0
-1.25649 -0.319997 -0.000500002 0
-1.25649 -0.319998 -0.000500002 0
-1.25649 -0.319999 -0.000400002 0
-1.25649 -0.320001 -0.000400002 0
-1.25649 -0.320002 -0.000900002 0
-1.25649 -0.320004 -0.000900002 0
-1.25649 -0.320005 -0.000700002 0
-1.25649 -0.320005 -0.000700002 0
-1.25649 -0.320006 -0.000700002 0
-1.25649 -0.320007 -0.000700002 0
-1.25649 -0.320008 -0.000600002 0
-1.25657 -0.320108 -0.000300002 0
-1.25657 -0.320109 -0.000300002 0
-1.25657 -0.32011 -0.000300002 0
-1.24674 -0.325049 -0.000900002 0
-1.25657 -0.320112 -0.000900002 0
-1.25656 -0.320112 -0.000900002 0
-1.25656 -0.320114 -0.001 0
-1.25656 -0.320115 -0.001 0
-1.25656 -0.320115 -0.000400002 0
-1.25656 -0.320116 -0.000400002 0
-1.25656 -0.320116 -0.000900002 0
-1.25656 -0.320117 -0.000900002 0
-1.25656 -0.320117 -0.0013 0
-1.25656 -0.320117 -0.0013 0
-1.25656 -0.320118 -0.000600002 0
-1.25656 -0.320119 -0.000600002 0
-1.25655 -0.320119 -0.000600002 0
-1.25655 -0.320119 -0.000700002 0
-1.25655 -0.320118 -0.000700002 0
-1.25655 -0.320116 -0.0015 0
-1.25655 -0.320115 -0.0015 0
-1.25655 -0.320116 -0.000400002 0
-1.25655 -0.320116 -0.000400002 0
-1.25655 -0.320116 -0.000400002 0
-1.25655 -0.320116 -0.000400002 0
-1.25647 -0.32002 -0.000200002 0
-1.25647 -0.320021 -0.000200002 0
-1.25647 -0.320021 -0.000200002 0
-1.25647 -0.320022 -0.0011 0
-1.25647 -0.320022 -0.0011 0
-1.25647 -0.320022 -0.000800002 0
-1.25646 -0.320023 -0.000800002 0
-1.25654 -0.320121 -0.000300002 0
-1.25654 -0.320122 -0.000300002 0
-1.25654 -0.320122 -0.000700002 0
-1.25654 -0.320122 -0.000700002 0
-1.25654 -0.320122 -0.000700002 0
-1.25654 -0.320122 -0.000500002 0
-1.25654 -0.320122 -0.000500002 0
-1.25654 -0.320122 -0.0011 0
-1.25646 -0.320025 -0.000600002 0
-1.25646 -0.320026 -0.000600002 0
-1.25654 -0.320124 -0.000600002 0
-1.25654 -0.320124 -0.000400002 0
-1.25653 -0.320125 -0.000400002 0
-1.25653 -0.320125 -0.001 0
-1.25653 -0.320126 -0.001 0
-1.25653 -0.320126 -0.000600002 0
-1.25653 -0.320126 -0.000600002 0
-1.25653 -0.320126 -0.000600002 0
-1.25652 -0.320127 -0.000600002 0
-1.25644 -0.320029 -0.000600002 0
-1.25652 -0.320127 -0.0012 0
-1.25734 -0.31958 -0.0012 0
-1.25652 -0.320128 -0.0012 0
-1.25644 -0.32003 -0.0011 0
-1.25644 -0.32003 -0.0011 0
-1.25644 -0.320031 -0.000900002 0
-1.25644 -0.320031 -0.000500002 0
-1.25465 -0.32093 -0.000500002 0
-1.25644 -0.320032 -0.000500002 0
-1.25644 -0.320032 -0.000500002 0
-1.25644 -0.320033 -0.000500002 0
-1.25651 -0.320131 -0.000500002 0
-1.25643 -0.320034 -0.000700002 0
-1.25643 -0.320034 -0.000800002 0
-1.25651 -0.320132 -0.000800002 0
-1.25651 -0.320133 -0.000800002 0
-1.25651 -0.320133 -0.000400002 0
-1.25651 -0.320135 -0.001 0
-1.25643 -0.320038 -0.001 0
-1.25643 -0.320038 -0.000200002 0
-1.25642 -0.320038 -0.000200002 0
-1.25642 -0.320038 -0.000200002 0
-1.25642 -0.320038 -0.0014 0
-1.25642 -0.320039 -0.0014 0
-1.25642 -0.32004 -0.000800002 0
-1.25642 -0.320042 -0.000800002 0
-1.25642 -0.320043 -0.000600002 0
-1.25642 -0.320043 -0.000600002 0
-1.25642 -0.320043 -0.001 0
-1.25642 -0.320044 -0.001 0
-1.2565 -0.320143 -0.001 0
-1.25649 -0.320143 -0.000500002 0
-1.25649 -0.320146 -0.000500002 0
-1.25649 -0.320147 -0.000600002 0
-1.25649 -0.320147 -0.000600002 0
-1.25649 -0.320148 -0.001 0
-1.25649 -0.320148 -0.001 0
-1.25649 -0.320147 -0.001 0
-1.25649 -0.320147 -0.000600002 0
-1.25649 -0.320147 -0.000800002 0
-1.25649 -0.320148 -0.000800002 0
-1.25649 -0.320148 -0.000800002 0
-1.25649 -0.320149 -0.000400002 0
-1.25649 -0.32015 -0.000400002 0
-1.25648 -0.320151 -0.000800002 0
-1.25648 -0.320152 -0.000900002 0
-1.25648 -0.320153 -0.000900002 0
-1.25648 -0.320154 -0.000700002 0
-1.25648 -0.320154 -0.000700002 0
-1.25648 -0.320155 -0.000600002 0
-1.25648 -0.320156 -0.000600002 0
-1.25648 -0.320156 -0.000300002 0
-1.25647 -0.320157 -0.000300002 0
-1.25647 -0.320157 -0.000700002 0
-1.25647 -0.320158 -0.000700002 0
-1.25647 -0.320158 -0.000700002 0
-1.25647 -0.320159 -0.000700002 0
-1.25647 -0.320159 -0.000300002 0
-1.25647 -0.320159 -0.000300002 0
-1.25647 -0.32016 -0.000400002 0
-1.25647 -0.32016 -0.000400002 0
-1.25646 -0.320161 -0.000700002 0
-1.25646 -0.320162 -0.000700002 0
-1.25646 -0.320161 -0.000400002 0
-1.25646 -0.320162 -0.000400002 0
-1.25646 -0.320162 -0.000900002 0
-1.25646 -0.320162 -0.000900002 0
-1.25646 -0.320163 -0.000300002 0
-1.25646 -0.320163 -0.000300002 0
-1.25646 -0.320164 -0.000300002 0
-1.25646 -0.320164 -0.000300002 0
-1.25646 -0.320163 -0.000800002 0
-1.25646 -0.320163 -0.000800002 0
-1.25646 -0.320164 -0.000800002 0
-1.25646 -0.320164 -0.000700002 0
-1.25646 -0.320164 -0.000700002 0
-1.25646 -0.320165 -0.000300002 0
-1.25646 -0.320166 -0.000300002 0
-1.25645 -0.320167 -0.000500002 0
-1.25645 -0.320167 -0.000500002 0
-1.25645 -0.320167 -0.000500002 0
-1.25645 -0.320167 -0.000400002 0
-1.25645 -0.320167 -0.000400002 0
-1.25645 -0.320168 -0.000400002 0
-1.25645 -0.320168 -0.000800002 0
-1.25377 -0.321516 -0.000800002 0
-1.25645 -0.320169 -0.000800002 0
-1.25644 -0.320169 -0.000800002 0
-1.25644 -0.320169 -0.000700002 0
-1.25644 -0.320169 -0.000700002 0
-1.25644 -0.320169 -0.000700002 0
-1.25644 -0.32017 -0.001 0
-1.25644 -0.32017 -0.001 0
-1.25644 -0.32017 -0.000400002 0
-1.25644 -0.320171 -0.001 0
-1.25644 -0.320171 -0.001 0
-1.25644 -0.320171 -0.001 0
-1.25644 -0.320171 -0.0011 0
-1.25644 -0.320172 -0.0011 0
-1.25644 -0.320172 -0.0011 0
-1.25644 -0.320173 -0.000700002 0
-1.25643 -0.320173 -0.000700002 0
-1.25643 -0.320174 -0.000500002 0
-1.25643 -0.320175 -0.000500002 0
-1.25643 -0.320175 -0.000800002 0
-1.25643 -0.320175 -0.000800002 0
-1.25643 -0.320176 -0.000400002 0
-1.25643 -0.320176 -0.000400002 0
-1.25643 -0.320177 -0.0011 0
-1.25643 -0.320177 -0.0011 0
-1.25643 -0.320177 -0.0011 0
-1.25643 -0.320177 -0.000500002 0
-1.25643 -0.320177 -0.000500002 0
-1.25643 -0.320178 -0.000700002 0
-1.25643 -0.320178 -0.000700002 0
-1.25643 -0.320179 -0.000700002 0
-1.25643 -0.320179 -0.000800002 0
-1.25643 -0.320179 -0.000800002 0
-1.25643 -0.320178 -0.000600002 0
-1.25642 -0.320178 -0.000600002 0
-1.25642 -0.320178 -0.000600002 0
-1.25642 -0.320178 -0.000200002 0
-1.25642 -0.320178 -0.000600002 0
-1.25642 -0.320178 -0.000600002 0
-1.25642 -0.320178 -0.000600002 0
-1.25374 -0.321524 -0.000500002 0
-1.25642 -0.320177 -0.000500002 0
-1.25642 -0.320177 -0.000500002 0
-1.25642 -0.320177 -0.000500002 0
-1.25642 -0.320177 -0.000500002 0
-1.25642 -0.320177 -0.000600002 0
-1.25641 -0.320178 -0.000600002 0
-1.25641 -0.320178 -0.000300002 0
-1.25641 -0.320179 -0.000300002 0
-1.25641 -0.320179 -0.000100002 0
-1.25641 -0.320179 -0.000100002 0
-1.25641 -0.320179 -0.000400002 0
-1.25641 -0.320179 -0.000400002 0
-1.25641 -0.32018 -0.000400002 0
-1.25641 -0.32018 -0.000700002 0
-1.25641 -0.320181 -0.000400002 0
-1.25641 -0.320181 -0.000400002 0
-1.2564 -0.320182 -0.000400002 0
-1.25551 -0.320631 -0.000700002 0
-1.2564 -0.320182 -0.000700002 0
-1.2564 -0.320182 -0.000500002 0
-1.2564 -0.320181 -0.000500002 0
-1.2564 -0.320181 -0.000700002 0
-1.2564 -0.320181 -0.000700002 0
-1.2564 -0.320181 -0.000600002 0
-1.2564 -0.320182 -0.000600002 0
-1.2564 -0.320183 -0.000600002 0
-1.2564 -0.320184 -0.000400002 0
-1.2564 -0.320185 -0.0011 0
-1.2564 -0.320186 -0.0011 0
-1.2564 -0.320187 -0.0011 0
-1.2564 -0.320188 -0.000500002 0
-1.2564 -0.320188 -0.000500002 0
-1.2564 -0.320188 -0.001 0
-1.25372 -0.321535 -0.001 0
-1.25639 -0.320188 -0.001 0
-1.25639 -0.320188 -0.000700002 0
-1.25639 -0.320189 -0.000700002 0
-1.25639 -0.32019 -0.000700002 0
-1.25639 -0.320192 -0.000800002 0
-1.25639 -0.320193 -0.000500002 0
-1.25639 -0.320194 -0.000500002 0
-1.25639 -0.320196 -0.000900002 0
-1.25639 -0.320197 -0.000900002 0
-1.25639 -0.320198 -0.000600002 0
-1.25639 -0.320199 -0.000600002 0
-1.25638 -0.3202 -0.000700002 0
-1.25638 -0.320201 -0.000700002 0
-1.25638 -0.320202 -0.001 0
-1.25638 -0.320203 -0.001 0
-1.25638 -0.320204 -0.000600002 0
-1.25638 -0.320205 -0.000600002 0
