ply
format ascii 1.0
element vertex 1665
property float x
property float y
property float z
property float intensity
end_header
-0.356851 -1.243 -0.006 0
-0.356851 -1.243 -0.006 0
-0.35685 -1.243 -0.0064 0
-0.356849 -1.243 -0.0064 0
-0.356849 -1.243 -0.0059 0
-0.356849 -1.243 -0.0059 0
-0.356848 -1.243 -0.0059 0
-0.356847 -1.243 -0.0058 0
-0.356845 -1.243 -0.0058 0
-0.356844 -1.243 -0.0054 0
-0.356844 -1.243 -0.0054 0
-0.356843 -1.243 -0.0058 0
-0.356842 -1.243 -0.0058 0
-0.356004 -1.24245 -0.0056 0
-0.356841 -1.243 -0.0056 0
-0.35684 -1.243 -0.0056 0
-0.356839 -1.243 -0.006 0
-0.356837 -1.243 -0.006 0
-0.356836 -1.243 -0.0056 0
-0.356834 -1.243 -0.0056 0
-0.356834 -1.243 -0.0055 0
-0.356833 -1.243 -0.0055 0
-0.356832 -1.243 -0.0059 0
-0.355158 -1.2419 -0.0059 0
-0.356832 -1.243 -0.0059 0
-0.356831 -1.243 -0.006 0
-0.35683 -1.243 -0.006 0
-0.356828 -1.243 -0.0058 0
-0.356828 -1.243 -0.0058 0
-0.356827 -1.243 -0.006 0
-0.356827 -1.243 -0.006 0
-0.356826 -1.243 -0.0055 0
-0.356824 -1.243 -0.0055 0
-0.356824 -1.243 -0.0057 0
-0.356824 -1.243 -0.0057 0
-0.356823 -1.243 -0.0062 0
-0.356821 -1.243 -0.0062 0
-0.356865 -1.24288 -0.0058 0
-0.356864 -1.24288 -0.0058 0
-0.354352 -1.24124 -0.0059 0
-0.356818 -1.243 -0.0059 0
-0.356817 -1.243 -0.0059 0
-0.35686 -1.24288 -0.0059 0
-0.356859 -1.24288 -0.0055 0
-0.356858 -1.24288 -0.0055 0
-0.356857 -1.24287 -0.0055 0
-0.356856 -1.24287 -0.0061 0
-0.356854 -1.24287 -0.0057 0
-0.356853 -1.24287 -0.0057 0
-0.356852 -1.24287 -0.0057 0
-0.356851 -1.24287 -0.006 0
-0.356851 -1.24287 -0.006 0
-0.35685 -1.24287 -0.0058 0
-0.35685 -1.24287 -0.0058 0
-0.356848 -1.24287 -0.0059 0
-0.356847 -1.24286 -0.0059 0
-0.356846 -1.24286 -0.0057 0
-0.356846 -1.24286 -0.0057 0
-0.356844 -1.24286 -0.0058 0
-0.356844 -1.24286 -0.0058 0
-0.356843 -1.24286 -0.0061 0
-0.356842 -1.24286 -0.0061 0
-0.356841 -1.24286 -0.0064 0
-0.356839 -1.24286 -0.0064 0
-0.356838 -1.24286 -0.006 0
-0.356836 -1.24285 -0.006 0
-0.356836 -1.24285 -0.0058 0
-0.356836 -1.24285 -0.0058 0
-0.356835 -1.24285 -0.0059 0
-0.356788 -1.24297 -0.0059 0
-0.356787 -1.24297 -0.0059 0
-0.356786 -1.24297 -0.0059 0
-0.356785 -1.24297 -0.0062 0
-0.356782 -1.24296 -0.0062 0
-0.356782 -1.24296 -0.006 0
-0.356781 -1.24296 -0.006 0
-0.35678 -1.24296 -0.006 0
-0.356777 -1.24296 -0.0058 0
-0.356776 -1.24296 -0.0055 0
-0.356775 -1.24296 -0.0055 0
-0.356773 -1.24296 -0.0058 0
-0.356773 -1.24296 -0.0058 0
-0.356773 -1.24296 -0.0058 0
-0.356771 -1.24296 -0.0058 0
-0.356772 -1.24296 -0.0058 0
-0.356772 -1.24296 -0.0057 0
-0.356771 -1.24296 -0.0057 0
-0.35677 -1.24296 -0.0057 0
-0.356769 -1.24296 -0.0056 0
-0.356812 -1.24284 -0.0056 0
-0.356767 -1.24296 -0.0061 0
-0.356766 -1.24296 -0.0061 0
-0.356767 -1.24295 -0.006 0
-0.356767 -1.24295 -0.006 0
-0.356766 -1.24295 -0.0061 0
-0.356811 -1.24284 -0.0061 0
-0.35681 -1.24284 -0.0061 0
-0.35681 -1.24284 -0.006 0
-0.356766 -1.24295 -0.006 0
-0.356766 -1.24295 -0.006 0
-0.356766 -1.24296 -0.006 0
-0.356766 -1.24296 -0.0061 0
-0.356809 -1.24284 -0.0061 0
-0.356809 -1.24284 -0.0057 0
-0.356809 -1.24284 -0.0057 0
-0.356809 -1.24284 -0.0057 0
-0.356808 -1.24283 -0.006 0
-0.35597 -1.24229 -0.006 0
-0.356807 -1.24283 -0.0056 0
-0.356807 -1.24283 -0.0056 0
-0.356805 -1.24283 -0.0057 0
-0.356804 -1.24283 -0.0062 0
-0.356803 -1.24283 -0.0062 0
-0.356759 -1.24294 -0.0053 0
-0.356759 -1.24294 -0.0053 0
-0.356758 -1.24294 -0.0053 0
-0.356756 -1.24294 -0.0058 0
-0.356755 -1.24294 -0.0062 0
-0.356754 -1.24294 -0.0062 0
-0.356752 -1.24294 -0.006 0
-0.356795 -1.24283 -0.006 0
-0.356793 -1.24283 -0.0061 0
-0.355954 -1.24228 -0.0061 0
-0.356791 -1.24283 -0.0061 0
-0.356789 -1.24282 -0.0061 0
-0.356787 -1.24282 -0.006 0
-0.356786 -1.24282 -0.006 0
-0.356784 -1.24282 -0.0057 0
-0.356782 -1.24282 -0.0057 0
-0.356778 -1.24282 -0.0058 0
-0.356776 -1.24282 -0.0058 0
-0.356774 -1.24282 -0.0057 0
-0.356771 -1.24282 -0.0057 0
-0.356769 -1.24282 -0.0056 0
-0.356768 -1.24282 -0.0056 0
-0.356766 -1.24282 -0.0055 0
-0.356765 -1.24282 -0.0055 0
-0.356763 -1.24282 -0.0055 0
-0.356717 -1.24293 -0.0056 0
-0.356714 -1.24293 -0.0056 0
-0.356712 -1.24293 -0.0058 0
-0.35671 -1.24293 -0.0058 0
-0.356708 -1.24293 -0.0059 0
-0.356706 -1.24293 -0.0059 0
-0.356748 -1.24281 -0.006 0
-0.356747 -1.24281 -0.006 0
-0.356746 -1.24281 -0.0057 0
-0.356745 -1.24281 -0.0057 0
-0.356744 -1.24281 -0.0051 0
-0.356743 -1.24281 -0.0051 0
-0.356742 -1.24281 -0.0059 0
-0.356742 -1.24281 -0.0059 0
-0.356741 -1.2428 -0.006 0
-0.356741 -1.24281 -0.006 0
-0.356696 -1.24292 -0.0056 0
-0.356695 -1.24292 -0.0058 0
-0.356694 -1.24292 -0.0058 0
-0.356694 -1.24292 -0.0058 0
-0.356692 -1.24292 -0.0061 0
-0.356735 -1.2428 -0.0058 0
-0.356735 -1.2428 -0.0058 0
-0.356734 -1.2428 -0.0058 0
-0.356733 -1.2428 -0.006 0
-0.356731 -1.2428 -0.006 0
-0.35673 -1.2428 -0.006 0
-0.356729 -1.2428 -0.006 0
-0.356728 -1.2428 -0.006 0
-0.356728 -1.2428 -0.0058 0
-0.356727 -1.2428 -0.0058 0
-0.356725 -1.2428 -0.0058 0
-0.356725 -1.2428 -0.0057 0
-0.356724 -1.2428 -0.0057 0
-0.356723 -1.2428 -0.0057 0
-0.356723 -1.2428 -0.006 0
-0.356722 -1.2428 -0.006 0
-0.356721 -1.2428 -0.006 0
-0.356719 -1.24279 -0.006 0
-0.356717 -1.24279 -0.0057 0
-0.356716 -1.24279 -0.0057 0
-0.356716 -1.24279 -0.0061 0
-0.356715 -1.24279 -0.0061 0
-0.356714 -1.24279 -0.0053 0
-0.356713 -1.24279 -0.0053 0
-0.356712 -1.24279 -0.0053 0
-0.356712 -1.24279 -0.0056 0
-0.356711 -1.24279 -0.0056 0
-0.35671 -1.24279 -0.0057 0
-0.356709 -1.24279 -0.0057 0
-0.356708 -1.24279 -0.0061 0
-0.356707 -1.24279 -0.0061 0
-0.356706 -1.24279 -0.0061 0
-0.356705 -1.24279 -0.0059 0
-0.356704 -1.24279 -0.0059 0
-0.356702 -1.24279 -0.0059 0
-0.356701 -1.24279 -0.0059 0
-0.3567 -1.24279 -0.0057 0
-0.356699 -1.24279 -0.0057 0
-0.356697 -1.24279 -0.0056 0
-0.356696 -1.24279 -0.0056 0
-0.356695 -1.24279 -0.0061 0
-0.356693 -1.2428 -0.0061 0
-0.356692 -1.2428 -0.0059 0
-0.356691 -1.2428 -0.0059 0
-0.35669 -1.24279 -0.0059 0
-0.356689 -1.24279 -0.0059 0
-0.356688 -1.24279 -0.0058 0
-0.356641 -1.24291 -0.0055 0
-0.35664 -1.24291 -0.0055 0
-0.356638 -1.24291 -0.0055 0
-0.347427 -1.2369 -0.0061 0
-0.356636 -1.24291 -0.0061 0
-0.356635 -1.24291 -0.0061 0
-0.356634 -1.24291 -0.0062 0
-0.356633 -1.24291 -0.0062 0
-0.356632 -1.24291 -0.0056 0
-0.356631 -1.24291 -0.0056 0
-0.35663 -1.24291 -0.0061 0
-0.356629 -1.24291 -0.0061 0
-0.356629 -1.24291 -0.0065 0
-0.356628 -1.24291 -0.0065 0
-0.356627 -1.24291 -0.0058 0
-0.356625 -1.24291 -0.0058 0
-0.356624 -1.24291 -0.0058 0
-0.356623 -1.24291 -0.0059 0
-0.356624 -1.2429 -0.0059 0
-0.356626 -1.2429 -0.0067 0
-0.356626 -1.2429 -0.0067 0
-0.356626 -1.2429 -0.0056 0
-0.356626 -1.2429 -0.0056 0
-0.356626 -1.2429 -0.0056 0
-0.356625 -1.2429 -0.0056 0
-0.356667 -1.24278 -0.0054 0
-0.356666 -1.24278 -0.0054 0
-0.356665 -1.24278 -0.0054 0
-0.356664 -1.24278 -0.0063 0
-0.356664 -1.24278 -0.0063 0
-0.356663 -1.24278 -0.006 0
-0.356662 -1.24278 -0.006 0
-0.356618 -1.2429 -0.0055 0
-0.356617 -1.2429 -0.0055 0
-0.356617 -1.2429 -0.0059 0
-0.356616 -1.2429 -0.0059 0
-0.356616 -1.2429 -0.0059 0
-0.356616 -1.2429 -0.0057 0
-0.356615 -1.2429 -0.0057 0
-0.356615 -1.2429 -0.0063 0
-0.356657 -1.24278 -0.0058 0
-0.356656 -1.24278 -0.0058 0
-0.35661 -1.24289 -0.0058 0
-0.35661 -1.24289 -0.0056 0
-0.35661 -1.24289 -0.0056 0
-0.356609 -1.24289 -0.0062 0
-0.356606 -1.24289 -0.0062 0
-0.356605 -1.24289 -0.0058 0
-0.356605 -1.24289 -0.0058 0
-0.356603 -1.24288 -0.0058 0
-0.356603 -1.24288 -0.0058 0
-0.356646 -1.24277 -0.0058 0
-0.356602 -1.24288 -0.0064 0
-0.357484 -1.24331 -0.0064 0
-0.356601 -1.24288 -0.0064 0
-0.356645 -1.24276 -0.0063 0
-0.356644 -1.24276 -0.0063 0
-0.356643 -1.24276 -0.0061 0
-0.356642 -1.24276 -0.0057 0
-0.354966 -1.24167 -0.0057 0
-0.356641 -1.24276 -0.0057 0
-0.35664 -1.24276 -0.0057 0
-0.356639 -1.24276 -0.0057 0
-0.356594 -1.24288 -0.0057 0
-0.356638 -1.24276 -0.0059 0
-0.356637 -1.24276 -0.006 0
-0.356592 -1.24288 -0.006 0
-0.356591 -1.24288 -0.006 0
-0.35659 -1.24288 -0.0056 0
-0.356587 -1.24287 -0.0062 0
-0.35663 -1.24275 -0.0062 0
-0.356629 -1.24275 -0.0054 0
-0.356629 -1.24275 -0.0054 0
-0.356628 -1.24275 -0.0054 0
-0.356627 -1.24275 -0.0066 0
-0.356626 -1.24275 -0.0066 0
-0.356625 -1.24275 -0.006 0
-0.356622 -1.24275 -0.006 0
-0.356621 -1.24275 -0.0058 0
-0.35662 -1.24275 -0.0058 0
-0.35662 -1.24275 -0.0062 0
-0.35662 -1.24275 -0.0062 0
-0.356574 -1.24287 -0.0062 0
-0.356573 -1.24287 -0.0057 0
-0.356571 -1.24287 -0.0057 0
-0.356569 -1.24287 -0.0058 0
-0.356569 -1.24287 -0.0058 0
-0.356568 -1.24287 -0.0062 0
-0.356568 -1.24287 -0.0062 0
-0.356568 -1.24287 -0.0062 0
-0.356568 -1.24287 -0.0058 0
-0.356568 -1.24287 -0.006 0
-0.356567 -1.24287 -0.006 0
-0.356565 -1.24286 -0.006 0
-0.356565 -1.24286 -0.0056 0
-0.356563 -1.24286 -0.0056 0
-0.356562 -1.24286 -0.006 0
-0.35656 -1.24286 -0.0061 0
-0.356559 -1.24286 -0.0061 0
-0.356557 -1.24286 -0.0059 0
-0.356557 -1.24286 -0.0059 0
-0.356555 -1.24286 -0.0058 0
-0.356553 -1.24286 -0.0058 0
-0.356552 -1.24286 -0.0055 0
-0.356552 -1.24286 -0.0055 0
-0.356551 -1.24286 -0.0059 0
-0.356549 -1.24285 -0.0059 0
-0.356548 -1.24285 -0.0059 0
-0.356547 -1.24285 -0.0059 0
-0.356546 -1.24285 -0.0055 0
-0.356546 -1.24285 -0.0055 0
-0.356545 -1.24285 -0.0056 0
-0.356545 -1.24285 -0.0056 0
-0.356543 -1.24285 -0.0059 0
-0.356542 -1.24285 -0.0059 0
-0.356542 -1.24285 -0.0056 0
-0.356542 -1.24285 -0.0056 0
-0.356542 -1.24285 -0.0061 0
-0.356541 -1.24285 -0.0061 0
-0.356541 -1.24285 -0.0055 0
-0.35654 -1.24285 -0.0055 0
-0.35654 -1.24285 -0.0055 0
-0.35654 -1.24285 -0.0055 0
-0.35654 -1.24285 -0.006 0
-0.356539 -1.24285 -0.006 0
-0.356539 -1.24285 -0.006 0
-0.356538 -1.24285 -0.0059 0
-0.356537 -1.24285 -0.0059 0
-0.356536 -1.24285 -0.0055 0
-0.356534 -1.24284 -0.0055 0
-0.356533 -1.24284 -0.0057 0
-0.356532 -1.24284 -0.0057 0
-0.356531 -1.24284 -0.0057 0
-0.35653 -1.24284 -0.0056 0
-0.35653 -1.24284 -0.0056 0
-0.356529 -1.24284 -0.0056 0
-0.356529 -1.24284 -0.006 0
-0.354015 -1.2412 -0.006 0
-0.356527 -1.24284 -0.006 0
-0.356526 -1.24284 -0.006 0
-0.356526 -1.24284 -0.0059 0
-0.356525 -1.24284 -0.0059 0
-0.356525 -1.24283 -0.0059 0
-0.356524 -1.24283 -0.0062 0
-0.356523 -1.24283 -0.0062 0
-0.356523 -1.24283 -0.0056 0
-0.356521 -1.24283 -0.0062 0
-0.356521 -1.24283 -0.0062 0
-0.356521 -1.24283 -0.0062 0
-0.356521 -1.24283 -0.0063 0
-0.35652 -1.24283 -0.0063 0
-0.356519 -1.24283 -0.0063 0
-0.356518 -1.24283 -0.0059 0
-0.356517 -1.24283 -0.0059 0
-0.356516 -1.24283 -0.0057 0
-0.356515 -1.24283 -0.0057 0
-0.356514 -1.24283 -0.006 0
-0.356514 -1.24283 -0.006 0
-0.356513 -1.24283 -0.0056 0
-0.356513 -1.24283 -0.0056 0
-0.356512 -1.24283 -0.0063 0
-0.356512 -1.24283 -0.0063 0
-0.356511 -1.24283 -0.0063 0
-0.356511 -1.24283 -0.0057 0
-0.356511 -1.24283 -0.0057 0
-0.35651 -1.24283 -0.0059 0
-0.35651 -1.24283 -0.0059 0
-0.356509 -1.24283 -0.0059 0
-0.356508 -1.24283 -0.006 0
-0.356508 -1.24283 -0.006 0
-0.356508 -1.24282 -0.0058 0
-0.356508 -1.24282 -0.0058 0
-0.356508 -1.24282 -0.0058 0
-0.356507 -1.24282 -0.0054 0
-0.356507 -1.24282 -0.0058 0
-0.356507 -1.24282 -0.0058 0
-0.356506 -1.24282 -0.0058 0
-0.353994 -1.24118 -0.0057 0
-0.356506 -1.24282 -0.0057 0
-0.356505 -1.24282 -0.0057 0
-0.356505 -1.24282 -0.0057 0
-0.356505 -1.24282 -0.0057 0
-0.356504 -1.24282 -0.0058 0
-0.356503 -1.24282 -0.0058 0
-0.356502 -1.24281 -0.0055 0
-0.356501 -1.24281 -0.0055 0
-0.3565 -1.24281 -0.0053 0
-0.3565 -1.24281 -0.0053 0
-0.3565 -1.24281 -0.0056 0
-0.3565 -1.24281 -0.0056 0
-0.3565 -1.24281 -0.0056 0
-0.356498 -1.24281 -0.0059 0
-0.356497 -1.24281 -0.0056 0
-0.356496 -1.24281 -0.0056 0
-0.356494 -1.24281 -0.0056 0
-0.355657 -1.24226 -0.0059 0
-0.356494 -1.24281 -0.0059 0
-0.356493 -1.24281 -0.0057 0
-0.356494 -1.24281 -0.0057 0
-0.356493 -1.24281 -0.0059 0
-0.356493 -1.2428 -0.0059 0
-0.356493 -1.2428 -0.0058 0
-0.356492 -1.2428 -0.0058 0
-0.356491 -1.2428 -0.0058 0
-0.35649 -1.2428 -0.0056 0
-0.356489 -1.2428 -0.0063 0
-0.356488 -1.24281 -0.0063 0
-0.356486 -1.2428 -0.0063 0
-0.356485 -1.2428 -0.0057 0
-0.356485 -1.2428 -0.0057 0
-0.356485 -1.2428 -0.0062 0
-0.353973 -1.24116 -0.0062 0
-0.356484 -1.2428 -0.0062 0
-0.356484 -1.2428 -0.0059 0
-0.356483 -1.2428 -0.0059 0
-0.356481 -1.2428 -0.0059 0
-0.356479 -1.2428 -0.006 0
-0.356477 -1.2428 -0.0057 0
-0.356475 -1.2428 -0.0057 0
-0.356474 -1.2428 -0.0061 0
-0.356472 -1.2428 -0.0061 0
-0.356471 -1.2428 -0.0058 0
-0.35647 -1.2428 -0.0058 0
-0.356468 -1.2428 -0.0059 0
-0.356468 -1.2428 -0.0059 0
-0.356467 -1.2428 -0.0062 0
-0.356465 -1.2428 -0.0062 0
-0.356464 -1.2428 -0.0058 0
-0.356463 -1.2428 -0.0058 0
-0.356462 -1.2428 -0.0058 0
-0.354786 -1.24171 -0.0064 0
-0.35646 -1.2428 -0.0064 0
-0.354785 -1.24171 -0.0061 0
-0.356459 -1.2428 -0.0061 0
-0.356458 -1.2428 -0.0058 0
-0.356457 -1.2428 -0.0058 0
-0.356455 -1.2428 -0.0063 0
-0.356454 -1.2428 -0.0063 0
-0.356453 -1.2428 -0.0063 0
-0.356495 -1.24268 -0.0054 0
-0.356495 -1.24268 -0.0058 0
-0.356495 -1.24268 -0.0058 0
-0.356495 -1.24268 -0.0058 0
-0.35645 -1.2428 -0.0059 0
-0.356448 -1.24279 -0.0058 0
-0.356492 -1.24268 -0.0058 0
-0.356491 -1.24268 -0.0058 0
-0.356445 -1.24279 -0.0057 0
-0.356445 -1.24279 -0.0058 0
-0.356445 -1.24279 -0.0058 0
-0.390774 -1.2652 -0.0058 0
-0.356446 -1.24279 -0.006 0
-0.355608 -1.24224 -0.006 0
-0.356444 -1.24279 -0.006 0
-0.356444 -1.24279 -0.006 0
-0.356488 -1.24267 -0.0057 0
-0.356487 -1.24267 -0.0057 0
-0.356485 -1.24267 -0.0059 0
-0.356485 -1.24267 -0.0059 0
-0.356484 -1.24267 -0.0057 0
-0.356484 -1.24267 -0.0057 0
-0.356484 -1.24267 -0.006 0
-0.356484 -1.24267 -0.006 0
-0.356482 -1.24267 -0.0055 0
-0.356482 -1.24267 -0.0055 0
-0.356481 -1.24266 -0.0055 0
-0.356478 -1.24266 -0.006 0
-0.356477 -1.24266 -0.0059 0
-0.356476 -1.24266 -0.0059 0
-0.356475 -1.24266 -0.0059 0
-0.356474 -1.24266 -0.0055 0
-0.356473 -1.24266 -0.0055 0
-0.356472 -1.24266 -0.0061 0
-0.356471 -1.24266 -0.006 0
-0.356471 -1.24266 -0.006 0
-0.356471 -1.24266 -0.006 0
-0.356471 -1.24266 -0.0061 0
-0.35647 -1.24266 -0.0061 0
-0.356469 -1.24266 -0.0057 0
-0.356468 -1.24266 -0.0057 0
-0.356468 -1.24266 -0.0057 0
-0.356467 -1.24266 -0.0056 0
-0.356466 -1.24266 -0.0056 0
-0.356465 -1.24266 -0.0058 0
-0.356464 -1.24266 -0.0058 0
-0.356462 -1.24266 -0.0057 0
-0.356462 -1.24266 -0.0057 0
-0.356461 -1.24266 -0.0055 0
-0.356461 -1.24265 -0.0055 0
-0.356461 -1.24265 -0.0055 0
-0.356461 -1.24265 -0.0061 0
-0.356461 -1.24265 -0.0061 0
-0.356459 -1.24265 -0.0058 0
-0.356457 -1.24265 -0.0058 0
-0.356456 -1.24265 -0.0063 0
-0.356455 -1.24265 -0.0063 0
-0.356409 -1.24277 -0.0063 0
-0.356406 -1.24277 -0.0059 0
-0.354731 -1.24167 -0.0059 0
-0.356404 -1.24276 -0.0059 0
-0.356403 -1.24276 -0.0061 0
-0.356401 -1.24276 -0.0061 0
-0.3564 -1.24276 -0.0061 0
-0.356399 -1.24276 -0.0058 0
-0.356398 -1.24276 -0.0058 0
-0.356397 -1.24276 -0.006 0
-0.356439 -1.24264 -0.006 0
-0.356394 -1.24276 -0.006 0
-0.354718 -1.24167 -0.006 0
-0.356436 -1.24264 -0.006 0
-0.35639 -1.24276 -0.0057 0
-0.356389 -1.24276 -0.0057 0
-0.356387 -1.24276 -0.0055 0
-0.356387 -1.24276 -0.0055 0
-0.356384 -1.24276 -0.006 0
-0.356384 -1.24276 -0.006 0
-0.356384 -1.24276 -0.0056 0
-0.356382 -1.24276 -0.0056 0
-0.356426 -1.24264 -0.0056 0
-0.354706 -1.24166 -0.0056 0
-0.356379 -1.24275 -0.0056 0
-0.356379 -1.24275 -0.006 0
-0.35642 -1.24263 -0.006 0
-0.356419 -1.24263 -0.0058 0
-0.356419 -1.24263 -0.0058 0
-0.356417 -1.24263 -0.0059 0
-0.356416 -1.24263 -0.0059 0
-0.356415 -1.24263 -0.0059 0
-0.356414 -1.24263 -0.0054 0
-0.356414 -1.24263 -0.0054 0
-0.356413 -1.24263 -0.0059 0
-0.356413 -1.24263 -0.0059 0
-0.356413 -1.24263 -0.0062 0
-0.356412 -1.24263 -0.0062 0
-0.356411 -1.24263 -0.0055 0
-0.35641 -1.24263 -0.0055 0
-0.35641 -1.24263 -0.0063 0
-0.35641 -1.24263 -0.0063 0
-0.35641 -1.24263 -0.0059 0
-0.35641 -1.24263 -0.0059 0
-0.35641 -1.24263 -0.0063 0
-0.356409 -1.24263 -0.0063 0
-0.356408 -1.24263 -0.0057 0
-0.356407 -1.24263 -0.0061 0
-0.356405 -1.24263 -0.0061 0
-0.356404 -1.24263 -0.0061 0
-0.356403 -1.24263 -0.0061 0
-0.3564 -1.24262 -0.0061 0
-0.356398 -1.24262 -0.0054 0
-0.356397 -1.24262 -0.0054 0
-0.356396 -1.24262 -0.0058 0
-0.356394 -1.24262 -0.0059 0
-0.356392 -1.24262 -0.0059 0
-0.356391 -1.24262 -0.0059 0
-0.356391 -1.24262 -0.006 0
-0.356388 -1.24262 -0.006 0
-0.356387 -1.24262 -0.0056 0
-0.356386 -1.24262 -0.0056 0
-0.356383 -1.24262 -0.0061 0
-0.356383 -1.24262 -0.0061 0
-0.356382 -1.24262 -0.0061 0
-0.35638 -1.24262 -0.0061 0
-0.356378 -1.24262 -0.0055 0
-0.356377 -1.24262 -0.0055 0
-0.356376 -1.24262 -0.0061 0
-0.356374 -1.24262 -0.0061 0
-0.356373 -1.24261 -0.0055 0
-0.356371 -1.24261 -0.006 0
-0.356369 -1.24261 -0.006 0
-0.356368 -1.24261 -0.006 0
-0.356366 -1.24261 -0.0059 0
-0.356365 -1.24261 -0.0059 0
-0.356363 -1.24261 -0.0059 0
-0.356362 -1.24261 -0.0059 0
-0.356361 -1.24261 -0.0061 0
-0.35636 -1.24261 -0.0061 0
-0.356359 -1.24261 -0.0061 0
-0.356358 -1.24261 -0.0064 0
-0.356358 -1.24261 -0.0064 0
-0.356357 -1.24261 -0.0059 0
-0.356356 -1.24261 -0.0059 0
-0.356356 -1.24261 -0.0058 0
-0.356355 -1.24261 -0.0058 0
-0.356352 -1.24261 -0.0063 0
-0.356351 -1.24261 -0.0063 0
-0.356349 -1.24261 -0.006 0
-0.356346 -1.24261 -0.006 0
-0.356345 -1.24261 -0.0063 0
-0.356345 -1.24261 -0.0063 0
-0.356345 -1.24261 -0.0058 0
-0.356344 -1.24261 -0.0058 0
-0.356344 -1.2426 -0.0058 0
-0.356343 -1.2426 -0.0058 0
-0.356343 -1.2426 -0.0057 0
-0.356342 -1.2426 -0.0057 0
-0.356341 -1.2426 -0.0057 0
-0.356339 -1.2426 -0.006 0
-0.356338 -1.2426 -0.006 0
-0.356336 -1.2426 -0.0064 0
-0.356335 -1.2426 -0.0064 0
-0.356335 -1.2426 -0.0058 0
-0.356335 -1.2426 -0.0058 0
-0.356335 -1.2426 -0.0059 0
-0.356335 -1.2426 -0.0059 0
-0.356334 -1.2426 -0.0059 0
-0.356334 -1.24259 -0.0058 0
-0.356333 -1.24259 -0.0058 0
-0.356333 -1.24259 -0.0058 0
-0.356332 -1.24259 -0.0051 0
-0.35633 -1.24259 -0.0055 0
-0.356329 -1.24259 -0.0055 0
-0.356328 -1.24259 -0.0056 0
-0.356327 -1.24259 -0.0056 0
-0.356327 -1.24259 -0.0056 0
-0.356326 -1.24259 -0.0058 0
-0.356325 -1.24259 -0.0058 0
-0.356325 -1.24259 -0.0057 0
-0.356324 -1.24258 -0.0057 0
-0.356324 -1.24258 -0.0057 0
-0.356323 -1.24258 -0.0062 0
-0.356323 -1.24258 -0.0062 0
-0.356321 -1.24258 -0.006 0
-0.356318 -1.24258 -0.006 0
-0.356317 -1.24258 -0.006 0
-0.356316 -1.24258 -0.006 0
-0.356315 -1.24258 -0.006 0
-0.356314 -1.24258 -0.0059 0
-0.356313 -1.24258 -0.0059 0
-0.356312 -1.24258 -0.006 0
-0.356311 -1.24258 -0.006 0
-0.35631 -1.24258 -0.006 0
-0.356308 -1.24258 -0.0055 0
-0.356307 -1.24258 -0.0059 0
-0.356307 -1.24258 -0.0059 0
-0.356306 -1.24258 -0.006 0
-0.356304 -1.24258 -0.006 0
-0.356303 -1.24258 -0.006 0
-0.3563 -1.24258 -0.0063 0
-0.356297 -1.24258 -0.0063 0
-0.356295 -1.24257 -0.0058 0
-0.356293 -1.24258 -0.0058 0
-0.356292 -1.24258 -0.0058 0
-0.356291 -1.24258 -0.0058 0
-0.35629 -1.24258 -0.0058 0
-0.356287 -1.24258 -0.0058 0
-0.356285 -1.24258 -0.006 0
-0.356283 -1.24258 -0.006 0
-0.356281 -1.24258 -0.006 0
-0.35628 -1.24258 -0.006 0
-0.356278 -1.24258 -0.006 0
-0.356277 -1.24258 -0.0053 0
-0.356277 -1.24258 -0.0053 0
-0.356276 -1.24258 -0.0057 0
-0.356275 -1.24258 -0.0057 0
-0.355437 -1.24203 -0.0057 0
-0.356272 -1.24257 -0.0059 0
-0.356272 -1.24257 -0.0059 0
-0.356271 -1.24257 -0.0059 0
-0.35627 -1.24257 -0.0059 0
-0.356268 -1.24257 -0.0061 0
-0.356267 -1.24257 -0.0061 0
-0.356266 -1.24257 -0.0059 0
-0.356265 -1.24257 -0.0059 0
-0.356262 -1.24257 -0.0059 0
-0.356262 -1.24257 -0.0059 0
-0.356262 -1.24257 -0.0053 0
-0.356261 -1.24257 -0.0053 0
-0.35626 -1.24257 -0.0053 0
-0.354583 -1.24148 -0.0059 0
-0.356257 -1.24257 -0.0059 0
-0.356256 -1.24257 -0.0058 0
-0.356256 -1.24257 -0.0058 0
-0.356254 -1.24257 -0.0058 0
-0.356254 -1.24257 -0.006 0
-0.356253 -1.24257 -0.006 0
-0.356253 -1.24257 -0.0054 0
-0.356251 -1.24257 -0.0054 0
-0.35625 -1.24257 -0.0056 0
-0.35625 -1.24257 -0.0056 0
-0.356249 -1.24257 -0.0055 0
-0.356248 -1.24257 -0.0055 0
-0.356248 -1.24257 -0.0055 0
-0.356248 -1.24257 -0.006 0
-0.356247 -1.24257 -0.006 0
-0.355408 -1.24202 -0.0056 0
-0.355407 -1.24202 -0.0056 0
-0.356244 -1.24256 -0.0056 0
-0.356243 -1.24256 -0.0057 0
-0.346194 -1.236 -0.0061 0
-0.356241 -1.24256 -0.0061 0
-0.35624 -1.24256 -0.0061 0
-0.356239 -1.24256 -0.0056 0
-0.356238 -1.24256 -0.0056 0
-0.356238 -1.24256 -0.006 0
-0.356236 -1.24256 -0.006 0
-0.356236 -1.24256 -0.0058 0
-0.356191 -1.24268 -0.0058 0
-0.35619 -1.24268 -0.0054 0
-0.35619 -1.24268 -0.0054 0
-0.356189 -1.24268 -0.0054 0
-0.356189 -1.24268 -0.006 0
-0.356188 -1.24268 -0.006 0
-0.356188 -1.24268 -0.0054 0
-0.356187 -1.24268 -0.0054 0
-0.356187 -1.24268 -0.0055 0
-0.356186 -1.24268 -0.0055 0
-0.356186 -1.24268 -0.0057 0
-0.356185 -1.24268 -0.0057 0
-0.356229 -1.24256 -0.0057 0
-0.356228 -1.24256 -0.006 0
-0.356227 -1.24256 -0.006 0
-0.356226 -1.24256 -0.0062 0
-0.356179 -1.24268 -0.0062 0
-0.356177 -1.24268 -0.0059 0
-0.356221 -1.24256 -0.0059 0
-0.35622 -1.24256 -0.006 0
-0.353706 -1.24092 -0.006 0
-0.356218 -1.24256 -0.006 0
-0.356216 -1.24256 -0.006 0
-0.356215 -1.24256 -0.0066 0
-0.356213 -1.24256 -0.0066 0
-0.356212 -1.24256 -0.0064 0
-0.356211 -1.24256 -0.0054 0
-0.35621 -1.24256 -0.0054 0
-0.356209 -1.24256 -0.0054 0
-0.356208 -1.24256 -0.006 0
-0.356208 -1.24255 -0.0062 0
-0.356207 -1.24255 -0.0062 0
-0.356207 -1.24255 -0.0062 0
-0.356206 -1.24255 -0.006 0
-0.356204 -1.24255 -0.0059 0
-0.356203 -1.24255 -0.0059 0
-0.356202 -1.24255 -0.0062 0
-0.356202 -1.24255 -0.0062 0
-0.356202 -1.24255 -0.0056 0
-0.356202 -1.24255 -0.0056 0
-0.356201 -1.24254 -0.0056 0
-0.3562 -1.24254 -0.0063 0
-0.356199 -1.24254 -0.0058 0
-0.356199 -1.24254 -0.0058 0
-0.356198 -1.24254 -0.0058 0
-0.356153 -1.24266 -0.0056 0
-0.356151 -1.24266 -0.0057 0
-0.356151 -1.24266 -0.0057 0
-0.35615 -1.24266 -0.006 0
-0.356151 -1.24266 -0.006 0
-0.35615 -1.24266 -0.0056 0
-0.356151 -1.24266 -0.0056 0
-0.356152 -1.24266 -0.0059 0
-0.356151 -1.24266 -0.0058 0
-0.356151 -1.24265 -0.0058 0
-0.35615 -1.24265 -0.0058 0
-0.356148 -1.24265 -0.0058 0
-0.356146 -1.24265 -0.0058 0
-0.356145 -1.24265 -0.0058 0
-0.322653 -1.22078 -0.0058 0
-0.356145 -1.24265 -0.0057 0
-0.356145 -1.24265 -0.0057 0
-0.356144 -1.24265 -0.0061 0
-0.356143 -1.24265 -0.0061 0
-0.356142 -1.24265 -0.0061 0
-0.356141 -1.24265 -0.0058 0
-0.356141 -1.24265 -0.0058 0
-0.35614 -1.24265 -0.0062 0
-0.356139 -1.24265 -0.0062 0
-0.356138 -1.24265 -0.0057 0
-0.356137 -1.24265 -0.0057 0
-0.356136 -1.24265 -0.0059 0
-0.356133 -1.24265 -0.0059 0
-0.356131 -1.24265 -0.0059 0
-0.35613 -1.24265 -0.0059 0
-0.356128 -1.24265 -0.0058 0
-0.356126 -1.24265 -0.0058 0
-0.356125 -1.24264 -0.0058 0
-0.356124 -1.24264 -0.0058 0
-0.356123 -1.24264 -0.0058 0
-0.356122 -1.24264 -0.0059 0
-0.356121 -1.24264 -0.0059 0
-0.35612 -1.24264 -0.0059 0
-0.35612 -1.24264 -0.0059 0
-0.356119 -1.24264 -0.006 0
-0.356118 -1.24264 -0.006 0
-0.356117 -1.24264 -0.006 0
-0.356115 -1.24264 -0.0053 0
-0.356115 -1.24264 -0.0053 0
-0.356114 -1.24264 -0.0061 0
-0.356113 -1.24263 -0.0061 0
-0.356113 -1.24263 -0.0061 0
-0.356112 -1.24263 -0.0056 0
-0.356112 -1.24263 -0.0056 0
-0.356111 -1.24263 -0.0057 0
-0.356109 -1.24263 -0.0057 0
-0.356107 -1.24263 -0.0057 0
-0.356106 -1.24263 -0.0057 0
-0.356105 -1.24262 -0.0061 0
-0.356104 -1.24262 -0.0061 0
-0.356102 -1.24262 -0.0061 0
-0.3561 -1.24262 -0.0059 0
-0.3561 -1.24262 -0.0054 0
-0.356099 -1.24262 -0.0054 0
-0.356098 -1.24262 -0.0058 0
-0.356097 -1.24262 -0.0058 0
-0.356097 -1.24262 -0.0058 0
-0.356097 -1.24262 -0.0058 0
-0.356097 -1.24262 -0.0057 0
-0.353584 -1.24098 -0.0057 0
-0.356097 -1.24262 -0.0062 0
-0.356094 -1.24261 -0.0062 0
-0.356093 -1.24261 -0.0057 0
-0.356092 -1.24261 -0.0057 0
-0.354417 -1.24152 -0.0061 0
-0.35609 -1.24261 -0.0061 0
-0.35609 -1.24261 -0.006 0
-0.356089 -1.24261 -0.006 0
-0.356089 -1.24261 -0.0052 0
-0.356088 -1.24261 -0.0052 0
-0.356087 -1.24261 -0.0058 0
-0.356086 -1.24261 -0.0058 0
-0.356128 -1.24249 -0.0059 0
-0.356124 -1.24249 -0.0059 0
-0.356124 -1.24249 -0.0061 0
-0.356123 -1.24249 -0.0061 0
-0.356121 -1.24249 -0.0061 0
-0.356075 -1.24261 -0.0061 0
-0.356072 -1.24261 -0.0057 0
-0.356071 -1.24261 -0.0057 0
-0.35607 -1.24261 -0.006 0
-0.356067 -1.24261 -0.006 0
-0.353554 -1.24096 -0.0059 0
-0.356065 -1.2426 -0.0059 0
-0.356065 -1.2426 -0.0058 0
-0.356064 -1.2426 -0.0058 0
-0.356065 -1.2426 -0.0058 0
-0.346017 -1.23604 -0.0059 0
-0.356064 -1.2426 -0.0059 0
-0.356108 -1.24248 -0.006 0
-0.356107 -1.24248 -0.006 0
-0.356062 -1.2426 -0.006 0
-0.356061 -1.2426 -0.0057 0
-0.35606 -1.2426 -0.0057 0
-0.356059 -1.2426 -0.0057 0
-0.356058 -1.2426 -0.0057 0
-0.356057 -1.2426 -0.006 0
-0.356056 -1.2426 -0.006 0
-0.356054 -1.2426 -0.0055 0
-0.356053 -1.2426 -0.0055 0
-0.356053 -1.2426 -0.0056 0
-0.356052 -1.2426 -0.0056 0
-0.35605 -1.2426 -0.0058 0
-0.356049 -1.2426 -0.0058 0
-0.356048 -1.2426 -0.0053 0
-0.356047 -1.2426 -0.0053 0
-0.356089 -1.24248 -0.0059 0
-0.356087 -1.24248 -0.0059 0
-0.356086 -1.24248 -0.0059 0
-0.356086 -1.24248 -0.0059 0
-0.35604 -1.24259 -0.0055 0
-0.356084 -1.24247 -0.0055 0
-0.356083 -1.24247 -0.006 0
-0.356082 -1.24247 -0.006 0
-0.35608 -1.24247 -0.006 0
-0.356035 -1.24259 -0.006 0
-0.356034 -1.24259 -0.0057 0
-0.356032 -1.24259 -0.006 0
-0.35603 -1.24259 -0.006 0
-0.35603 -1.24258 -0.006 0
-0.356028 -1.24258 -0.0055 0
-0.356027 -1.24258 -0.0058 0
-0.356026 -1.24258 -0.0058 0
-0.356025 -1.24258 -0.0058 0
-0.356024 -1.24258 -0.0061 0
-0.356024 -1.24258 -0.0058 0
-0.356023 -1.24258 -0.0058 0
-0.356023 -1.24258 -0.0058 0
-0.356067 -1.24246 -0.0058 0
-0.356064 -1.24246 -0.0059 0
-0.356063 -1.24246 -0.0059 0
-0.356062 -1.24246 -0.0062 0
-0.356061 -1.24246 -0.0056 0
-0.35606 -1.24246 -0.0056 0
-0.356059 -1.24246 -0.0056 0
-0.356058 -1.24246 -0.0061 0
-0.356058 -1.24245 -0.0061 0
-0.356057 -1.24245 -0.0058 0
-0.356055 -1.24245 -0.0058 0
-0.356053 -1.24245 -0.0063 0
-0.356052 -1.24245 -0.0063 0
-0.35605 -1.24245 -0.0059 0
-0.356004 -1.24257 -0.0059 0
-0.356003 -1.24257 -0.0059 0
-0.356001 -1.24257 -0.0057 0
-0.356 -1.24256 -0.0056 0
-0.355999 -1.24256 -0.0056 0
-0.355998 -1.24256 -0.0056 0
-0.355995 -1.24256 -0.0057 0
-0.355994 -1.24256 -0.0064 0
-0.355992 -1.24256 -0.0064 0
-0.355991 -1.24256 -0.0064 0
-0.355991 -1.24256 -0.0062 0
-0.35599 -1.24256 -0.006 0
-0.355989 -1.24256 -0.006 0
-0.355989 -1.24256 -0.006 0
-0.355989 -1.24256 -0.0055 0
-0.355988 -1.24256 -0.0054 0
-0.355988 -1.24256 -0.0054 0
-0.355988 -1.24256 -0.0054 0
-0.355987 -1.24256 -0.0056 0
-0.355986 -1.24256 -0.0059 0
-0.355986 -1.24256 -0.0059 0
-0.355986 -1.24256 -0.0059 0
-0.355984 -1.24256 -0.0064 0
-0.355983 -1.24256 -0.0059 0
-0.355981 -1.24256 -0.0059 0
-0.356023 -1.24244 -0.0057 0
-0.356022 -1.24244 -0.0057 0
-0.356021 -1.24244 -0.0055 0
-0.35602 -1.24244 -0.0055 0
-0.356019 -1.24244 -0.006 0
-0.356018 -1.24244 -0.006 0
-0.356017 -1.24244 -0.0054 0
-0.356017 -1.24244 -0.0054 0
-0.356016 -1.24244 -0.0061 0
-0.35434 -1.24134 -0.0061 0
-0.356013 -1.24244 -0.0061 0
-0.356012 -1.24244 -0.0061 0
-0.35601 -1.24243 -0.0053 0
-0.35601 -1.24243 -0.0053 0
-0.35601 -1.24243 -0.0055 0
-0.356009 -1.24243 -0.0055 0
-0.355963 -1.24255 -0.0061 0
-0.355963 -1.24255 -0.0061 0
-0.355962 -1.24255 -0.0063 0
-0.355962 -1.24255 -0.0063 0
-0.355962 -1.24255 -0.0063 0
-0.355961 -1.24255 -0.0059 0
-0.355961 -1.24255 -0.0059 0
-0.35596 -1.24255 -0.0062 0
-0.355959 -1.24255 -0.0062 0
-0.355958 -1.24255 -0.0064 0
-0.355958 -1.24255 -0.0064 0
-0.355957 -1.24255 -0.0059 0
-0.355956 -1.24254 -0.0059 0
-0.355999 -1.24243 -0.0059 0
-0.355953 -1.24254 -0.0058 0
-0.355952 -1.24254 -0.0063 0
-0.355952 -1.24254 -0.0063 0
-0.355952 -1.24254 -0.0063 0
-0.355951 -1.24254 -0.0059 0
-0.35595 -1.24254 -0.0059 0
-0.355949 -1.24254 -0.0062 0
-0.355949 -1.24254 -0.0062 0
-0.355948 -1.24254 -0.0062 0
-0.35599 -1.24242 -0.0061 0
-0.35599 -1.24242 -0.0058 0
-0.355989 -1.24242 -0.0058 0
-0.355987 -1.24242 -0.0058 0
-0.355986 -1.24242 -0.0061 0
-0.355983 -1.24242 -0.0056 0
-0.355981 -1.24242 -0.0056 0
-0.355981 -1.24242 -0.0056 0
-0.355981 -1.24242 -0.0057 0
-0.35598 -1.24242 -0.0057 0
-0.355979 -1.24242 -0.0061 0
-0.355979 -1.24242 -0.0061 0
-0.355978 -1.24242 -0.0061 0
-0.355977 -1.24241 -0.0059 0
-0.355976 -1.24241 -0.0059 0
-0.355975 -1.24241 -0.0059 0
-0.353462 -1.24077 -0.0059 0
-0.355974 -1.24241 -0.0059 0
-0.355973 -1.24241 -0.0057 0
-0.355973 -1.24241 -0.0057 0
-0.355971 -1.24241 -0.0061 0
-0.355967 -1.24241 -0.0061 0
-0.354291 -1.24132 -0.0057 0
-0.355964 -1.24241 -0.0057 0
-0.355962 -1.24241 -0.0059 0
-0.35596 -1.24241 -0.0059 0
-0.355959 -1.24241 -0.0057 0
-0.355958 -1.24241 -0.0057 0
-0.355957 -1.24241 -0.0059 0
-0.355956 -1.24241 -0.0059 0
-0.345863 -1.23597 -0.0059 0
-0.35591 -1.24253 -0.0059 0
-0.355909 -1.24253 -0.0063 0
-0.355908 -1.24253 -0.0063 0
-0.355907 -1.24253 -0.006 0
-0.355906 -1.24253 -0.006 0
-0.355949 -1.24241 -0.0056 0
-0.355948 -1.24241 -0.0056 0
-0.355903 -1.24253 -0.0065 0
-0.355902 -1.24253 -0.0065 0
-0.355899 -1.24253 -0.0052 0
-0.355898 -1.24253 -0.0052 0
-0.355897 -1.24252 -0.0057 0
-0.355896 -1.24252 -0.0059 0
-0.355895 -1.24252 -0.0059 0
-0.355894 -1.24252 -0.0059 0
-0.355893 -1.24252 -0.0058 0
-0.355892 -1.24252 -0.0056 0
-0.355891 -1.24252 -0.0056 0
-0.35589 -1.24252 -0.0056 0
-0.355889 -1.24252 -0.0058 0
-0.355888 -1.24252 -0.0054 0
-0.355886 -1.24252 -0.0054 0
-0.355929 -1.2424 -0.0054 0
-0.355928 -1.2424 -0.0062 0
-0.355883 -1.24252 -0.0062 0
-0.355881 -1.24252 -0.0056 0
-0.356717 -1.24306 -0.0056 0
-0.355922 -1.2424 -0.0056 0
-0.355921 -1.2424 -0.0059 0
-0.355919 -1.2424 -0.0061 0
-0.355918 -1.2424 -0.0061 0
-0.355917 -1.2424 -0.0061 0
-0.355916 -1.2424 -0.0058 0
-0.355915 -1.24239 -0.0058 0
-0.355913 -1.24239 -0.0061 0
-0.355912 -1.24239 -0.0061 0
-0.355912 -1.24239 -0.0058 0
-0.355912 -1.24239 -0.0058 0
-0.355912 -1.24239 -0.0063 0
-0.355912 -1.24239 -0.0063 0
-0.355912 -1.24239 -0.0063 0
-0.355911 -1.24239 -0.0055 0
-0.355911 -1.24239 -0.0055 0
-0.35591 -1.24239 -0.0055 0
-0.35591 -1.24239 -0.006 0
-0.355909 -1.24239 -0.006 0
-0.355907 -1.24238 -0.0057 0
-0.355906 -1.24238 -0.0057 0
-0.355906 -1.24238 -0.0059 0
-0.355067 -1.24183 -0.0058 0
-0.355904 -1.24238 -0.0058 0
-0.355903 -1.24238 -0.0058 0
-0.355902 -1.24238 -0.0062 0
-0.355901 -1.24238 -0.0062 0
-0.355899 -1.24238 -0.0058 0
-0.355899 -1.24238 -0.0058 0
-0.355898 -1.24238 -0.0058 0
-0.355897 -1.24238 -0.0057 0
-0.355894 -1.24238 -0.0057 0
-0.355893 -1.24238 -0.0057 0
-0.355891 -1.24237 -0.0057 0
-0.35589 -1.24237 -0.0055 0
-0.35589 -1.24237 -0.0055 0
-0.35589 -1.24237 -0.006 0
-0.35589 -1.24237 -0.006 0
-0.355889 -1.24237 -0.0054 0
-0.355888 -1.24237 -0.0054 0
-0.355888 -1.24237 -0.0055 0
-0.355889 -1.24237 -0.0055 0
-0.355888 -1.24237 -0.0055 0
-0.355887 -1.24237 -0.0065 0
-0.355886 -1.24237 -0.0054 0
-0.355047 -1.24182 -0.0054 0
-0.355884 -1.24237 -0.0054 0
-0.355883 -1.24237 -0.006 0
-0.355882 -1.24236 -0.006 0
-0.355879 -1.24236 -0.0055 0
-0.355878 -1.24236 -0.0055 0
-0.354201 -1.24127 -0.0055 0
-0.355875 -1.24236 -0.0055 0
-0.355874 -1.24236 -0.0055 0
-0.355035 -1.24181 -0.0055 0
-0.355871 -1.24236 -0.0055 0
-0.35587 -1.24236 -0.0059 0
-0.355869 -1.24236 -0.0062 0
-0.390201 -1.26477 -0.0062 0
-0.355868 -1.24236 -0.0062 0
-0.355869 -1.24236 -0.0056 0
-0.355868 -1.24236 -0.0056 0
-0.355867 -1.24236 -0.0057 0
-0.355867 -1.24236 -0.0057 0
-0.355867 -1.24236 -0.0057 0
-0.355865 -1.24236 -0.0058 0
-0.355864 -1.24236 -0.0061 0
-0.355863 -1.24236 -0.0061 0
-0.355862 -1.24236 -0.0061 0
-0.355861 -1.24236 -0.0057 0
-0.355861 -1.24235 -0.0057 0
-0.35586 -1.24235 -0.0058 0
-0.355813 -1.24247 -0.0058 0
-0.355812 -1.24247 -0.0061 0
-0.355812 -1.24247 -0.0061 0
-0.390139 -1.26489 -0.0063 0
-0.355809 -1.24247 -0.0063 0
-0.355808 -1.24247 -0.0057 0
-0.355807 -1.24247 -0.0057 0
-0.355805 -1.24247 -0.0058 0
-0.355804 -1.24247 -0.0058 0
-0.355803 -1.24247 -0.0063 0
-0.354128 -1.24137 -0.0063 0
-0.3558 -1.24247 -0.0056 0
-0.355799 -1.24247 -0.0056 0
-0.355799 -1.24247 -0.0057 0
-0.355842 -1.24235 -0.0057 0
-0.355842 -1.24235 -0.0066 0
-0.355841 -1.24235 -0.0066 0
-0.35584 -1.24235 -0.0066 0
-0.355839 -1.24235 -0.0063 0
-0.355838 -1.24235 -0.0063 0
-0.355837 -1.24235 -0.0057 0
-0.355836 -1.24235 -0.0057 0
-0.355834 -1.24235 -0.0056 0
-0.355833 -1.24235 -0.0056 0
-0.355833 -1.24235 -0.006 0
-0.355832 -1.24235 -0.006 0
-0.355831 -1.24235 -0.006 0
-0.35583 -1.24235 -0.0053 0
-0.355828 -1.24235 -0.0053 0
-0.354989 -1.2418 -0.0057 0
-0.355824 -1.24235 -0.0057 0
-0.355824 -1.24235 -0.0066 0
-0.355823 -1.24235 -0.0066 0
-0.355822 -1.24235 -0.0051 0
-0.355821 -1.24235 -0.0051 0
-0.355819 -1.24235 -0.0057 0
-0.355819 -1.24235 -0.0057 0
-0.355817 -1.24235 -0.0062 0
-0.355817 -1.24235 -0.0062 0
-0.355814 -1.24235 -0.0057 0
-0.355813 -1.24234 -0.0057 0
-0.355812 -1.24234 -0.0052 0
-0.355812 -1.24234 -0.0052 0
-0.355765 -1.24246 -0.0056 0
-0.355808 -1.24234 -0.0056 0
-0.355807 -1.24234 -0.0065 0
-0.355762 -1.24246 -0.0065 0
-0.355761 -1.24246 -0.0055 0
-0.355761 -1.24246 -0.0055 0
-0.355762 -1.24246 -0.0057 0
-0.355761 -1.24246 -0.0057 0
-0.353248 -1.24082 -0.0058 0
-0.355759 -1.24246 -0.0058 0
-0.355759 -1.24246 -0.0057 0
-0.354921 -1.24191 -0.0057 0
-0.355757 -1.24245 -0.0057 0
-0.355757 -1.24245 -0.006 0
-0.355757 -1.24245 -0.006 0
-0.355758 -1.24245 -0.0056 0
-0.355758 -1.24245 -0.0056 0
-0.355757 -1.24245 -0.0056 0
-0.355757 -1.24245 -0.0056 0
-0.355756 -1.24245 -0.006 0
-0.355755 -1.24245 -0.006 0
-0.355753 -1.24245 -0.006 0
-0.355797 -1.24233 -0.0055 0
-0.355796 -1.24233 -0.0055 0
-0.355795 -1.24233 -0.0057 0
-0.355794 -1.24232 -0.0057 0
-0.355794 -1.24232 -0.0061 0
-0.354956 -1.24178 -0.0061 0
-0.355792 -1.24232 -0.0062 0
-0.355792 -1.24232 -0.0062 0
-0.355791 -1.24232 -0.0062 0
-0.35579 -1.24232 -0.006 0
-0.355789 -1.24232 -0.006 0
-0.355787 -1.24232 -0.006 0
-0.355787 -1.24232 -0.006 0
-0.355786 -1.24232 -0.006 0
-0.355786 -1.24232 -0.006 0
-0.355785 -1.24232 -0.0058 0
-0.355785 -1.24232 -0.0058 0
-0.355783 -1.24232 -0.0058 0
-0.355782 -1.24232 -0.0062 0
-0.355781 -1.24232 -0.0055 0
-0.355782 -1.24232 -0.0055 0
-0.355781 -1.24232 -0.0055 0
-0.355735 -1.24244 -0.0062 0
-0.355736 -1.24244 -0.0055 0
-0.355736 -1.24244 -0.0055 0
-0.355736 -1.24244 -0.0055 0
-0.355734 -1.24244 -0.006 0
-0.355733 -1.24244 -0.0057 0
-0.355777 -1.24232 -0.0057 0
-0.355777 -1.24232 -0.0057 0
-0.355732 -1.24244 -0.0059 0
-0.355731 -1.24244 -0.006 0
-0.35573 -1.24244 -0.006 0
-0.35573 -1.24244 -0.0058 0
-0.355729 -1.24244 -0.0058 0
-0.355772 -1.24232 -0.006 0
-0.355771 -1.24232 -0.006 0
-0.35577 -1.24232 -0.0057 0
-0.35577 -1.24232 -0.0057 0
-0.355724 -1.24244 -0.0054 0
-0.355767 -1.24232 -0.0054 0
-0.355767 -1.24233 -0.006 0
-0.355766 -1.24233 -0.006 0
-0.355765 -1.24233 -0.006 0
-0.355764 -1.24232 -0.006 0
-0.355762 -1.24232 -0.006 0
-0.353249 -1.24068 -0.006 0
-0.355761 -1.24232 -0.006 0
-0.355761 -1.24232 -0.0056 0
-0.35576 -1.24232 -0.0056 0
-0.35576 -1.24232 -0.0063 0
-0.355759 -1.24232 -0.0063 0
-0.355758 -1.24232 -0.0052 0
-0.355757 -1.24232 -0.0052 0
-0.355755 -1.24232 -0.0058 0
-0.355755 -1.24232 -0.0058 0
-0.355754 -1.24232 -0.0064 0
-0.355754 -1.24232 -0.0064 0
-0.355753 -1.24232 -0.0064 0
-0.355752 -1.24232 -0.0054 0
-0.355751 -1.24231 -0.0062 0
-0.355751 -1.24231 -0.0062 0
-0.35575 -1.24231 -0.0062 0
-0.355749 -1.24231 -0.0061 0
-0.355704 -1.24243 -0.0061 0
-0.355702 -1.24243 -0.0057 0
-0.3557 -1.24243 -0.0057 0
-0.355699 -1.24243 -0.0057 0
-0.355698 -1.24243 -0.006 0
-0.355696 -1.24243 -0.0056 0
-0.355696 -1.24243 -0.0056 0
-0.355694 -1.24243 -0.0056 0
-0.355693 -1.24243 -0.0058 0
-0.355692 -1.24243 -0.0058 0
-0.35569 -1.24243 -0.0057 0
-0.355689 -1.24243 -0.0057 0
-0.355688 -1.24242 -0.0058 0
-0.355687 -1.24242 -0.0058 0
-0.355686 -1.24242 -0.0061 0
-0.355685 -1.24242 -0.0061 0
-0.355685 -1.24242 -0.0061 0
-0.353172 -1.24078 -0.0055 0
-0.355682 -1.24242 -0.0055 0
-0.355682 -1.24242 -0.0059 0
-0.355681 -1.24242 -0.0059 0
-0.35568 -1.24242 -0.0061 0
-0.355679 -1.24242 -0.0061 0
-0.355678 -1.24242 -0.0059 0
-0.355677 -1.24242 -0.0059 0
-0.355676 -1.24242 -0.0059 0
-0.355721 -1.2423 -0.0062 0
-0.354882 -1.24175 -0.0054 0
-0.355719 -1.2423 -0.0054 0
-0.355717 -1.2423 -0.0054 0
-0.355716 -1.2423 -0.0062 0
-0.355715 -1.2423 -0.0062 0
-0.355713 -1.2423 -0.0058 0
-0.355712 -1.24229 -0.0058 0
-0.355666 -1.24241 -0.0058 0
-0.355665 -1.24241 -0.0061 0
-0.35571 -1.24229 -0.006 0
-0.355709 -1.24229 -0.006 0
-0.355708 -1.24229 -0.006 0
-0.355708 -1.24229 -0.0057 0
-0.355708 -1.24229 -0.0057 0
-0.353194 -1.24065 -0.0059 0
-0.355704 -1.24229 -0.0059 0
-0.355703 -1.24229 -0.006 0
-0.355702 -1.24229 -0.006 0
-0.355701 -1.24229 -0.0057 0
-0.3557 -1.24229 -0.0057 0
-0.355699 -1.24229 -0.0063 0
-0.355698 -1.24229 -0.0063 0
-0.355697 -1.24229 -0.0057 0
-0.355695 -1.24228 -0.0057 0
-0.355694 -1.24228 -0.0057 0
-0.355693 -1.24228 -0.0056 0
-0.355691 -1.24228 -0.006 0
-0.35569 -1.24228 -0.006 0
-0.355689 -1.24228 -0.006 0
-0.355687 -1.24228 -0.0057 0
-0.355687 -1.24228 -0.0057 0
-0.355687 -1.24228 -0.0062 0
-0.355686 -1.24228 -0.0062 0
-0.355685 -1.24228 -0.0058 0
-0.355684 -1.24228 -0.0058 0
-0.355684 -1.24228 -0.0058 0
-0.355683 -1.24228 -0.0058 0
-0.355682 -1.24228 -0.0058 0
-0.355682 -1.24228 -0.0058 0
-0.355681 -1.24228 -0.0058 0
-0.35568 -1.24228 -0.006 0
-0.355678 -1.24228 -0.006 0
-0.355677 -1.24228 -0.0059 0
-0.355677 -1.24228 -0.0059 0
-0.355676 -1.24228 -0.0059 0
-0.355675 -1.24228 -0.0059 0
-0.355673 -1.24228 -0.0059 0
-0.355672 -1.24228 -0.006 0
-0.355671 -1.24228 -0.006 0
-0.35567 -1.24228 -0.0057 0
-0.355669 -1.24228 -0.0057 0
-0.355668 -1.24228 -0.0056 0
-0.355667 -1.24228 -0.0056 0
-0.355666 -1.24228 -0.0066 0
-0.355664 -1.24228 -0.0066 0
-0.355663 -1.24228 -0.006 0
-0.355662 -1.24228 -0.006 0
-0.35566 -1.24228 -0.0057 0
-0.355659 -1.24228 -0.0057 0
-0.355658 -1.24228 -0.006 0
-0.355658 -1.24228 -0.006 0
-0.353101 -1.24075 -0.0054 0
-0.355613 -1.24239 -0.0054 0
-0.355657 -1.24228 -0.0059 0
-0.355657 -1.24228 -0.0059 0
-0.355656 -1.24227 -0.0058 0
-0.355655 -1.24227 -0.0058 0
-0.355654 -1.24227 -0.0058 0
-0.355653 -1.24227 -0.0061 0
-0.355653 -1.24227 -0.0061 0
-0.355652 -1.24227 -0.0059 0
-0.355651 -1.24227 -0.0059 0
-0.35565 -1.24227 -0.0057 0
-0.355649 -1.24227 -0.0057 0
-0.355647 -1.24227 -0.006 0
-0.355646 -1.24227 -0.006 0
-0.355646 -1.24227 -0.0057 0
-0.355646 -1.24227 -0.0057 0
-0.355644 -1.24227 -0.0061 0
-0.355644 -1.24227 -0.0061 0
-0.355643 -1.24227 -0.0058 0
-0.355642 -1.24227 -0.006 0
-0.355642 -1.24227 -0.006 0
-0.355641 -1.24227 -0.006 0
-0.355641 -1.24227 -0.0055 0
-0.35564 -1.24227 -0.0055 0
-0.35564 -1.24227 -0.0056 0
-0.35564 -1.24227 -0.0061 0
-0.355639 -1.24227 -0.0061 0
-0.353126 -1.24063 -0.0061 0
-0.355635 -1.24226 -0.006 0
-0.355634 -1.24226 -0.006 0
-0.355633 -1.24226 -0.0053 0
-0.355633 -1.24226 -0.0053 0
-0.355632 -1.24226 -0.0061 0
-0.35563 -1.24226 -0.0061 0
-0.355629 -1.24226 -0.0057 0
-0.355628 -1.24226 -0.0057 0
-0.355627 -1.24226 -0.0063 0
-0.355627 -1.24226 -0.0063 0
-0.355626 -1.24226 -0.0063 0
-0.355626 -1.24226 -0.0054 0
-0.355625 -1.24226 -0.0054 0
-0.355623 -1.24226 -0.006 0
-0.355621 -1.24225 -0.006 0
-0.35562 -1.24225 -0.0056 0
-0.355618 -1.24225 -0.0056 0
-0.355617 -1.24225 -0.0057 0
-0.355616 -1.24225 -0.0057 0
-0.355613 -1.24225 -0.006 0
-0.355611 -1.24225 -0.006 0
-0.35561 -1.24225 -0.0059 0
-0.355608 -1.24225 -0.0059 0
-0.355607 -1.24225 -0.006 0
-0.355606 -1.24225 -0.006 0
-0.355605 -1.24225 -0.0057 0
-0.355604 -1.24225 -0.0057 0
-0.355604 -1.24225 -0.0057 0
-0.355604 -1.24225 -0.0061 0
-0.355603 -1.24225 -0.0061 0
-0.355601 -1.24225 -0.0055 0
-0.355601 -1.24225 -0.0055 0
-0.3556 -1.24225 -0.0061 0
-0.3556 -1.24225 -0.0061 0
-0.3556 -1.24225 -0.0056 0
-0.355599 -1.24225 -0.0056 0
-0.3556 -1.24225 -0.0058 0
-0.3556 -1.24225 -0.0058 0
-0.3556 -1.24225 -0.0057 0
-0.355599 -1.24225 -0.0057 0
-0.355598 -1.24225 -0.0057 0
-0.355598 -1.24225 -0.0057 0
-0.355597 -1.24225 -0.0057 0
-0.355596 -1.24225 -0.0057 0
-0.355595 -1.24224 -0.0057 0
-0.355592 -1.24224 -0.0057 0
-0.355591 -1.24224 -0.0056 0
-0.35559 -1.24224 -0.0056 0
-0.355589 -1.24224 -0.0056 0
-0.355543 -1.24236 -0.006 0
-0.355542 -1.24236 -0.006 0
-0.355541 -1.24236 -0.006 0
-0.357214 -1.24345 -0.0056 0
-0.355538 -1.24236 -0.0056 0
-0.355537 -1.24236 -0.0056 0
-0.355537 -1.24236 -0.0056 0
-0.355536 -1.24236 -0.0056 0
-0.355535 -1.24236 -0.0056 0
-0.355578 -1.24224 -0.0062 0
-0.355534 -1.24236 -0.0062 0
-0.355534 -1.24236 -0.0062 0
-0.355532 -1.24236 -0.0057 0
-0.355573 -1.24224 -0.0063 0
-0.355576 -1.24223 -0.0063 0
-0.355631 -1.2421 -0.0063 0
-0.355866 -1.24148 0.0077 0
-0.355938 -1.24126 0.0442 0
-0.356051 -1.24093 0.0442 0
-0.355278 -1.24013 -0.0056 0
-0.355274 -1.24009 -0.0056 0
-0.355273 -1.24005 0.0297 0
-0.355229 -1.24017 0.0297 0
-0.355202 -1.24032 0.0297 0
-0.355068 -1.24081 -0.000200002 0
-0.355028 -1.24094 0.0049 0
-0.354188 -1.24042 0.0049 0
-0.354187 -1.24043 0.0049 0
-0.35419 -1.24045 -0.0089 0
-0.354193 -1.24046 -0.0069 0
-0.354152 -1.24058 -0.0069 0
-0.354107 -1.24069 -0.0065 0
-0.353273 -1.24014 -0.0065 0
-0.354028 -1.24092 -0.000300001 0
-0.353149 -1.24047 -0.000300001 0
-0.353052 -1.24071 0.0062 0
-0.353838 -1.24137 0.0062 0
-0.352992 -1.24083 -0.0044 0
-0.352802 -1.24129 -0.0044 0
-0.353632 -1.24183 0.0011 0
-0.353582 -1.24194 0.0011 0
-0.353583 -1.24192 -0.004 0
-0.352752 -1.24138 -0.004 0
-0.35276 -1.24139 -0.0049 0
-0.352768 -1.24139 -0.0049 0
-0.352773 -1.24139 -0.000400001 0
-0.352775 -1.2414 -0.000400001 0
-0.352774 -1.2414 -0.0039 0
-0.352774 -1.24139 -0.0039 0
-0.352773 -1.24139 -0.003 0
-0.352777 -1.24139 -0.003 0
-0.352778 -1.24139 -9.31323e-10 0
-0.352779 -1.24139 -9.31323e-10 0
-0.352779 -1.24139 -0.0024 0
-0.352778 -1.24139 -0.0024 0
-0.353616 -1.24193 -0.0028 0
-0.352781 -1.24138 -0.0028 0
-0.352781 -1.24139 -0.000400001 0
-0.352782 -1.24139 -0.000400001 0
-0.35278 -1.24139 -0.000400001 0
-0.353616 -1.24194 -0.0027 0
-0.352778 -1.24139 -0.0027 0
-0.352782 -1.24139 -0.0054 0
-0.352785 -1.24139 -0.0054 0
-0.352784 -1.24139 -0.000700001 0
-0.352785 -1.24139 -0.000700001 0
-0.352785 -1.24139 -0.0024 0
-0.352783 -1.24139 -0.0024 0
-0.352782 -1.24139 -0.0024 0
-0.352779 -1.24138 -0.0023 0
-0.352778 -1.24138 -0.000200001 0
-0.352776 -1.24138 -0.000200001 0
-0.352775 -1.24138 -0.000200001 0
-0.352772 -1.24138 -0.0061 0
-0.352774 -1.24138 -0.0032 0
-0.352774 -1.24138 -0.0032 0
-0.352775 -1.24138 -0.0032 0
-0.352774 -1.24138 -0.0044 0
-0.352772 -1.24138 -0.0049 0
-0.352771 -1.24138 -0.0049 0
-0.352771 -1.24138 -0.0049 0
-0.352771 -1.24138 -0.000500001 0
-0.352773 -1.24138 -0.0034 0
-0.352774 -1.24138 -0.0034 0
-0.352772 -1.24138 -0.0034 0
-0.353609 -1.24192 -0.0037 0
-0.352772 -1.24137 -0.0037 0
-0.35277 -1.24137 -0.0023 0
-0.35277 -1.24137 -0.0023 0
-0.35277 -1.24137 -0.0048 0
-0.352769 -1.24137 -0.0048 0
-0.352769 -1.24137 -0.0022 0
-0.35277 -1.24137 -0.0022 0
-0.352769 -1.24137 -0.0019 0
-0.352767 -1.24137 -0.0019 0
-0.352767 -1.24137 -0.0033 0
-0.352766 -1.24137 -0.0033 0
-0.352765 -1.24137 -0.004 0
-0.352764 -1.24137 -0.004 0
-0.352762 -1.24137 -0.0035 0
-0.352765 -1.24137 -0.0035 0
-0.352767 -1.24137 -0.0048 0
-0.352764 -1.24137 -0.0019 0
-0.352761 -1.24137 -0.0019 0
-0.353591 -1.24192 -0.0019 0
-0.352751 -1.24137 -0.000800001 0
-0.35275 -1.24137 -0.000800001 0
-0.352756 -1.24136 -0.0024 0
-0.353593 -1.24191 -0.0024 0
-0.352757 -1.24136 -0.0044 0
-0.353589 -1.24191 -0.000300002 0
-0.352752 -1.24136 -0.000300002 0
-0.35275 -1.24136 -0.000300002 0
-0.352748 -1.24136 -0.0015 0
-0.353583 -1.24191 -0.0015 0
-0.353581 -1.24191 -0.0051 0
-0.352744 -1.24136 -0.0051 0
-0.352744 -1.24136 -0.0017 0
-0.35358 -1.24191 -0.0017 0
-0.353578 -1.24191 -0.0023 0
-0.351068 -1.24026 -0.0023 0
-0.35274 -1.24136 -0.0029 0
-0.352739 -1.24136 -0.0029 0
-0.353574 -1.24191 -0.005 0
-0.352736 -1.24136 -0.005 0
-0.352691 -1.24148 -0.0057 0
-0.352734 -1.24136 -0.0057 0
-0.353571 -1.2419 -0.000400002 0
-0.352737 -1.24136 -0.000400002 0
-0.352738 -1.24135 -0.000400002 0
-0.352743 -1.24135 -0.002 0
-0.352743 -1.24135 -0.0042 0
-0.352743 -1.24135 -0.0042 0
-0.352738 -1.24135 -0.0028 0
-0.352739 -1.24135 -0.0028 0
-0.352736 -1.24135 -0.0037 0
-0.352735 -1.24135 -0.0037 0
-0.352732 -1.24135 -0.000600002 0
-0.353569 -1.2419 -0.000600002 0
-0.352732 -1.24135 -0.0047 0
-0.352731 -1.24135 -0.0047 0
-0.352731 -1.24135 0.0012 0
-0.35273 -1.24135 0.0012 0
-0.352729 -1.24135 -0.0036 0
-0.352725 -1.24135 -0.0036 0
-0.352724 -1.24135 -0.0021 0
-0.352725 -1.24135 -0.0021 0
-0.352723 -1.24135 -0.0035 0
-0.353559 -1.2419 -0.0035 0
-0.352722 -1.24135 -0.000300002 0
-0.35272 -1.24135 -0.000300002 0
-0.35272 -1.24135 -0.000900002 0
-0.353554 -1.2419 -0.000900002 0
-0.210473 -1.14825 -0.000900002 0
-0.352715 -1.24135 0.000399998 0
-0.352713 -1.24135 0.000399998 0
-0.352712 -1.24135 -0.0011 0
-0.352712 -1.24135 -0.0011 0
-0.352711 -1.24134 -0.0026 0
-0.352713 -1.24134 -0.0026 0
-0.352715 -1.24134 -0.0043 0
-0.351042 -1.24025 -0.0043 0
-0.352714 -1.24134 -0.0043 0
-0.352715 -1.24134 -0.0036 0
-0.352716 -1.24134 -0.0036 0
-0.352716 -1.24134 -0.0029 0
-0.352715 -1.24134 -0.0029 0
-0.352714 -1.24134 -0.0029 0
-0.352712 -1.24134 -0.005 0
-0.352708 -1.24134 -0.005 0
-0.352705 -1.24134 -0.0017 0
-0.352704 -1.24134 -0.0017 0
-0.352704 -1.24134 -0.0017 0
-0.352702 -1.24134 0.000699998 0
-0.3527 -1.24134 0.000699998 0
-0.3527 -1.24134 -0.004 0
-0.3527 -1.24134 -0.004 0
-0.352702 -1.24134 -0.0016 0
-0.352699 -1.24134 -0.0016 0
-0.352692 -1.24134 -0.0021 0
-0.317543 -1.21835 -0.0021 0
-0.352682 -1.24135 -0.0021 0
-0.352648 -1.2414 -0.0019 0
-0.353415 -1.24206 -0.0019 0
-0.352492 -1.24164 -0.0053 0
-0.353222 -1.24235 -0.0053 0
-0.352245 -1.24201 -0.0053 0
-0.351909 -1.24256 -0.0032 0
-0.351741 -1.24281 -0.0048 0
-0.351559 -1.24309 -0.0048 0
-0.342172 -1.23734 -0.0048 0
-0.351188 -1.24365 -0.0054 0
-0.349187 -1.2432 -0.0054 0
-0.350605 -1.24474 -0.005 0
-0.350334 -1.2452 -0.005 0
-0.349812 -1.24603 -0.0028 0
-0.349432 -1.24676 -0.0028 0
-0.34918 -1.24714 -0.0048 0
-0.34887 -1.24766 -0.0048 0
-0.348236 -1.24873 -0.0044 0
-0.347071 -1.24874 -0.0044 0
-0.347572 -1.24985 -0.0058 0
-0.347239 -1.25041 -0.0058 0
-0.346019 -1.25056 -0.0058 0
-0.345176 -1.25213 -0.000200002 0
-0.344804 -1.25275 -0.0014 0
-0.343532 -1.25296 -0.0014 0
-0.343125 -1.25363 -0.0014 0
-0.341459 -1.25443 -0.0013 0
-0.341855 -1.25569 -0.0058 0
-0.341404 -1.25641 -0.0058 0
-0.340157 -1.25647 -0.0058 0
-0.338019 -1.25612 -0.000500002 0
-0.338799 -1.25854 -0.0027 0
-0.338352 -1.25923 -0.0027 0
-0.337752 -1.26029 -0.0027 0
-0.304922 -1.2413 -0.0011 0
-0.303518 -1.24171 0.0021 0
-0.302145 -1.24202 0.0021 0
-0.300043 -1.24371 -0.0012 0
-0.29942 -1.24474 -0.0012 0
-0.298788 -1.24579 -0.0048 0
-0.29752 -1.24781 -0.0048 0
-0.296069 -1.24821 -0.0043 0
-0.295458 -1.24911 -0.0043 0
-0.294796 -1.25013 -0.003 0
-0.292641 -1.25159 -0.003 0
-0.291117 -1.25211 -0.0022 0
-0.291279 -1.25366 -0.0022 0
-0.289072 -1.25514 -0.000500002 0
-0.288357 -1.25622 -0.000500002 0
-0.286741 -1.25694 -0.000800002 0
-0.285119 -1.25768 -0.000800002 0
-0.283537 -1.2602 -0.000700002 0
-0.282696 -1.26156 -0.000700002 0
-0.280961 -1.2625 -0.0018 0
-0.279233 -1.26519 -0.0051 0
-0.277499 -1.26606 -0.0051 0
-0.276626 -1.26738 -0.0051 0
-0.275732 -1.26873 -0.0047 0
-0.27403 -1.26944 -0.0047 0
-0.273144 -1.27077 -0.0066 0
-0.27227 -1.27205 -0.0066 0
-0.27144 -1.27321 -0.0066 0
-0.269776 -1.27546 -0.001 0
-0.26899 -1.27645 0.0018 0
-0.268191 -1.27746 0.0018 0
-0.266659 -1.27924 -0.000700003 0
-0.266714 -1.28068 -0.000700003 0
-0.265058 -1.28113 -0.0017 0
-0.265115 -1.28256 -0.0017 0
-0.263645 -1.28401 -0.0023 0
-0.264482 -1.28609 -0.0023 0
-0.263561 -1.28731 -0.000700003 0
-0.262631 -1.28857 -0.000700003 0
-0.262023 -1.28896 -0.000700003 0
-0.260207 -1.29136 -0.0068 0
-0.260116 -1.29312 -0.0078 0
-0.259142 -1.29446 -0.0078 0
-0.258243 -1.29564 -0.0078 0
-0.256256 -1.29839 -0.0021 0
-0.255253 -1.29984 -0.008 0
-0.253359 -1.30084 -0.008 0
-0.253162 -1.30285 -0.008 0
-0.250994 -1.30593 -0.0042 0
-0.249949 -1.30732 -0.0022 0
-0.248911 -1.30864 -0.0022 0
-0.248547 -1.31101 -0.0022 0
-0.27862 -1.33368 -0.000600003 0
-0.279258 -1.33613 -0.000200003 0
-0.279041 -1.33806 -0.000200003 0
-0.276971 -1.34068 -0.0052 0
-0.275043 -1.34158 -0.0052 0
-0.274801 -1.34356 -0.0026 0
-0.273708 -1.34503 -0.0026 0
-0.271481 -1.34804 -0.0061 0
-0.270347 -1.34965 -0.0061 0
-0.26997 -1.35197 -0.007 0
-0.268768 -1.35366 -0.007 0
-0.2668 -1.35466 -0.007 0
-0.200277 -1.31564 0.000499997 0
-0.264312 -1.35824 0.000499997 0
