ply
format ascii 1.0
element vertex 1730
property float x
property float y
property float z
property float intensity
end_header
0.15737 0.705676 -0.0034 0
0.15737 0.705674 -0.0034 0
0.15737 0.705672 -0.0034 0
0.15737 0.705671 -0.0037 0
0.157369 0.705668 -0.0037 0
0.157369 0.705667 -0.0029 0
0.157369 0.705666 -0.0029 0
0.157368 0.705666 -0.0033 0
0.157368 0.705664 -0.0033 0
0.157368 0.705664 -0.0033 0
0.157367 0.705663 -0.0033 0
0.157367 0.705662 -0.0026 0
0.157367 0.705661 -0.0026 0
0.157367 0.70566 -0.0033 0
0.157368 0.705658 -0.0033 0
0.157368 0.705657 -0.0037 0
0.157368 0.705655 -0.0037 0
0.157367 0.705654 -0.0033 0
0.157367 0.705653 -0.0033 0
0.157367 0.705652 -0.0031 0
0.157366 0.705652 -0.0031 0
0.157366 0.705652 -0.0034 0
0.157367 0.705649 -0.0034 0
0.157363 0.702648 -0.0036 0
0.157369 0.705647 -0.0036 0
0.157369 0.705646 -0.003 0
0.15737 0.705645 -0.003 0
0.157369 0.705644 -0.003 0
0.15737 0.705643 -0.0033 0
0.15737 0.705643 -0.0033 0
0.157493 0.705614 -0.0031 0
0.157371 0.705641 -0.0031 0
0.157372 0.705641 -0.0033 0
0.157496 0.705613 -0.0033 0
0.157497 0.705612 -0.0031 0
0.157374 0.705638 -0.0031 0
0.157375 0.705637 -0.0031 0
0.157375 0.705637 -0.0027 0
0.157375 0.705637 -0.0027 0
0.157375 0.705636 -0.0027 0
0.157497 0.705607 -0.0032 0
0.157497 0.705606 -0.0032 0
0.157374 0.705632 -0.0034 0
0.157374 0.705631 -0.0034 0
0.157374 0.705629 -0.003 0
0.157373 0.705628 -0.003 0
0.157495 0.705599 -0.0036 0
0.157495 0.705598 -0.0036 0
0.157495 0.705598 -0.0036 0
0.157495 0.705597 -0.0027 0
0.157495 0.705596 -0.0027 0
0.157495 0.705595 -0.0031 0
0.157495 0.705594 -0.0031 0
0.157373 0.705621 -0.0029 0
0.157373 0.70562 -0.0029 0
0.157373 0.70562 -0.0029 0
0.157374 0.705619 -0.0035 0
0.157373 0.705617 -0.0032 0
0.157373 0.705615 -0.0032 0
0.157373 0.705614 -0.0032 0
0.157373 0.705613 -0.0034 0
0.157373 0.705612 -0.0034 0
0.157495 0.705584 -0.0034 0
0.157494 0.705584 -0.0033 0
0.157371 0.70561 -0.0029 0
0.157371 0.705608 -0.0029 0
0.157371 0.705607 -0.0024 0
0.157371 0.705606 -0.0024 0
0.157371 0.705604 -0.0024 0
0.157372 0.705604 -0.0037 0
0.157373 0.705603 -0.0037 0
0.157373 0.705603 -0.0036 0
0.157373 0.705603 -0.0036 0
0.157373 0.705602 -0.0023 0
0.157373 0.705601 -0.0023 0
0.157373 0.705601 -0.0035 0
0.157373 0.705601 -0.0035 0
0.157373 0.705599 -0.0035 0
0.157373 0.705598 -0.0031 0
0.157373 0.705596 -0.0031 0
0.157372 0.705594 -0.0033 0
0.157371 0.705592 -0.0033 0
0.157371 0.705591 -0.0033 0
0.15737 0.705588 -0.0034 0
0.157369 0.705587 -0.0034 0
0.157368 0.705586 -0.0035 0
0.157367 0.705585 -0.0035 0
0.157367 0.705584 -0.0035 0
0.157367 0.705581 -0.0031 0
0.157367 0.705581 -0.0042 0
0.157366 0.70558 -0.0042 0
0.157366 0.705578 -0.0042 0
0.157365 0.705577 -0.0028 0
0.157364 0.705576 -0.0028 0
0.157487 0.705547 -0.0032 0
0.157488 0.705547 -0.0032 0
0.157488 0.705546 -0.0032 0
0.157488 0.705545 -0.0034 0
0.157489 0.705544 -0.0034 0
0.157489 0.705542 -0.0031 0
0.157489 0.705541 -0.0031 0
0.157488 0.70554 -0.0031 0
0.157488 0.70554 -0.0036 0
0.157487 0.705539 -0.0036 0
0.157487 0.705539 -0.0035 0
0.157486 0.705537 -0.0035 0
0.157486 0.705536 -0.0032 0
0.157486 0.705535 -0.0032 0
0.157364 0.705563 -0.0036 0
0.157364 0.705562 -0.0036 0
0.157363 0.705561 -0.0036 0
0.157362 0.70556 -0.003 0
0.157361 0.705559 -0.003 0
0.157361 0.705558 -0.003 0
0.15736 0.705557 -0.003 0
0.15736 0.705555 -0.003 0
0.157359 0.705554 -0.0034 0
0.15736 0.705554 -0.0034 0
0.15736 0.705552 -0.0035 0
0.15736 0.705552 -0.0035 0
0.157483 0.705524 -0.0034 0
0.157484 0.705524 -0.0034 0
0.157485 0.705523 -0.0034 0
0.157484 0.705521 -0.0033 0
0.157485 0.705521 -0.0033 0
0.157362 0.705545 -0.0028 0
0.157362 0.705543 -0.0028 0
0.157361 0.705541 -0.0032 0
0.157483 0.705512 -0.0032 0
0.157483 0.705511 -0.0037 0
0.157482 0.705509 -0.0037 0
0.157482 0.705508 -0.0037 0
0.157482 0.705506 -0.0038 0
0.157482 0.705505 -0.0038 0
0.157481 0.705503 -0.0032 0
0.157481 0.705501 -0.0032 0
0.157481 0.705497 -0.0031 0
0.157481 0.705496 -0.0031 0
0.15748 0.705494 -0.004 0
0.15748 0.705493 -0.004 0
0.157479 0.705492 -0.004 0
0.157479 0.705491 -0.003 0
0.157478 0.70549 -0.003 0
0.157477 0.705488 -0.0037 0
0.157354 0.705514 -0.0037 0
0.157353 0.705512 -0.0032 0
0.157475 0.705484 -0.0032 0
0.157351 0.70551 -0.0036 0
0.157351 0.705509 -0.0036 0
0.15735 0.705508 -0.0036 0
0.15735 0.705507 -0.0034 0
0.157349 0.705507 -0.0034 0
0.157349 0.705505 -0.0031 0
0.157349 0.705504 -0.0031 0
0.157348 0.705502 -0.0036 0
0.157349 0.705501 -0.0036 0
0.157348 0.705499 -0.0031 0
0.157348 0.705498 -0.0031 0
0.157348 0.705496 -0.0032 0
0.157348 0.705495 -0.0032 0
0.157348 0.705493 -0.0032 0
0.157348 0.705492 -0.0035 0
0.157347 0.705491 -0.0035 0
0.157346 0.70549 -0.0034 0
0.157467 0.70546 -0.0033 0
0.157339 0.702487 -0.0033 0
0.157344 0.705485 -0.0033 0
0.157343 0.705485 -0.0033 0
0.157343 0.705483 -0.0033 0
0.157342 0.705482 -0.0031 0
0.157342 0.70548 -0.0031 0
0.157342 0.70548 -0.0031 0
0.157342 0.705478 -0.0038 0
0.157342 0.705476 -0.0036 0
0.157342 0.705476 -0.0036 0
0.157341 0.705474 -0.0036 0
0.157341 0.705473 -0.0027 0
0.157341 0.705472 -0.0027 0
0.157341 0.705471 -0.0038 0
0.157342 0.70547 -0.0038 0
0.157342 0.70547 -0.0035 0
0.157341 0.70547 -0.0035 0
0.157341 0.70547 -0.0035 0
0.157341 0.705469 -0.0026 0
0.15734 0.705469 -0.0026 0
0.15734 0.705469 -0.0035 0
0.157341 0.705468 -0.0035 0
0.157341 0.705467 -0.0032 0
0.157341 0.705466 -0.0032 0
0.157342 0.705465 -0.0031 0
0.157342 0.705464 -0.0031 0
0.157342 0.705465 -0.003 0
0.157343 0.705465 -0.003 0
0.157342 0.705464 -0.0035 0
0.157342 0.705464 -0.0035 0
0.157341 0.705464 -0.0032 0
0.157341 0.705463 -0.0032 0
0.15734 0.705463 -0.0035 0
0.157337 0.704462 -0.0035 0
0.157339 0.70546 -0.0035 0
0.157339 0.705458 -0.0035 0
0.157338 0.705457 -0.0033 0
0.157338 0.705455 -0.0033 0
0.157337 0.705454 -0.0031 0
0.157337 0.705455 -0.0031 0
0.157337 0.705453 -0.0031 0
0.157336 0.705452 -0.0031 0
0.157336 0.705452 -0.0031 0
0.157336 0.705452 -0.0031 0
0.157336 0.705451 -0.0031 0
0.157335 0.705449 -0.0032 0
0.157336 0.705448 -0.0032 0
0.157336 0.705447 -0.0033 0
0.157336 0.705445 -0.0033 0
0.157335 0.705444 -0.0033 0
0.157335 0.705443 -0.0037 0
0.157335 0.705441 -0.0037 0
0.157334 0.70544 -0.0031 0
0.157334 0.705439 -0.0031 0
0.157334 0.705437 -0.0035 0
0.157334 0.705436 -0.0035 0
0.157334 0.705435 -0.0029 0
0.157334 0.705434 -0.0029 0
0.157334 0.705433 -0.0029 0
0.157332 0.704432 -0.0032 0
0.157334 0.705431 -0.0032 0
0.157334 0.705431 -0.0036 0
0.157334 0.70543 -0.0036 0
0.157457 0.705401 -0.0031 0
0.157457 0.7054 -0.0031 0
0.157457 0.705399 -0.003 0
0.157456 0.705398 -0.003 0
0.157456 0.705397 -0.003 0
0.157456 0.705396 -0.0034 0
0.157456 0.705395 -0.0034 0
0.157456 0.705393 -0.0031 0
0.157457 0.705392 -0.0031 0
0.157457 0.705392 -0.0034 0
0.157457 0.705391 -0.0034 0
0.157456 0.705391 -0.0034 0
0.157456 0.70539 -0.0035 0
0.157451 0.703388 -0.0035 0
0.157455 0.705387 -0.0031 0
0.157454 0.705386 -0.0031 0
0.157454 0.705385 -0.0036 0
0.157454 0.705384 -0.0036 0
0.157453 0.705383 -0.0029 0
0.157453 0.705382 -0.0029 0
0.157452 0.705381 -0.0034 0
0.15745 0.705379 -0.0034 0
0.15745 0.705378 -0.0033 0
0.157451 0.705378 -0.0033 0
0.157451 0.705377 -0.0033 0
0.157451 0.705375 -0.0033 0
0.157451 0.705375 -0.0033 0
0.15745 0.705374 -0.0036 0
0.15745 0.705373 -0.0036 0
0.157327 0.705399 -0.0029 0
0.157327 0.705399 -0.0029 0
0.157327 0.705398 -0.0029 0
0.157325 0.704397 -0.0035 0
0.157327 0.705396 -0.0035 0
0.157327 0.705395 -0.0022 0
0.157326 0.704395 -0.0022 0
0.157328 0.705394 -0.0022 0
0.157329 0.705393 -0.004 0
0.15733 0.705392 -0.004 0
0.15733 0.70539 -0.0035 0
0.157331 0.705389 -0.0035 0
0.157331 0.705388 -0.0034 0
0.157331 0.705387 -0.0034 0
0.15733 0.705387 -0.0033 0
0.15733 0.705384 -0.0033 0
0.15733 0.705383 -0.0026 0
0.15733 0.705383 -0.0026 0
0.15733 0.705382 -0.0028 0
0.15733 0.705382 -0.0028 0
0.15733 0.70538 -0.0028 0
0.15733 0.705379 -0.0038 0
0.15733 0.705378 -0.0038 0
0.15733 0.705378 -0.0038 0
0.15733 0.705377 -0.0037 0
0.15733 0.705375 -0.0035 0
0.157331 0.705374 -0.0035 0
0.15733 0.705374 -0.0035 0
0.15733 0.705372 -0.0031 0
0.15733 0.705371 -0.0031 0
0.157329 0.705371 -0.0031 0
0.157328 0.70537 -0.0034 0
0.157327 0.70537 -0.0034 0
0.157327 0.705369 -0.0034 0
0.157326 0.705368 -0.0038 0
0.157326 0.705368 -0.0038 0
0.157326 0.705368 -0.0033 0
0.157326 0.705367 -0.0033 0
0.157325 0.705366 -0.0033 0
0.157325 0.705365 -0.0032 0
0.157325 0.705363 -0.0032 0
0.157325 0.705362 -0.0028 0
0.157325 0.705362 -0.0028 0
0.157325 0.705361 -0.0032 0
0.157324 0.70536 -0.0032 0
0.157322 0.70436 -0.003 0
0.157324 0.705359 -0.003 0
0.157324 0.705358 -0.003 0
0.157323 0.705357 -0.0034 0
0.157322 0.705356 -0.0034 0
0.157322 0.705355 -0.0034 0
0.15732 0.705354 -0.003 0
0.157319 0.705354 -0.0029 0
0.157319 0.705354 -0.0029 0
0.157318 0.705353 -0.0033 0
0.157314 0.703353 -0.0033 0
0.157318 0.705352 -0.0033 0
0.157318 0.705351 -0.0034 0
0.157317 0.70535 -0.0034 0
0.157316 0.705348 -0.0032 0
0.157316 0.705348 -0.0032 0
0.157315 0.705348 -0.0034 0
0.157315 0.705348 -0.0034 0
0.157314 0.705348 -0.0029 0
0.157314 0.705346 -0.0029 0
0.157314 0.705346 -0.0031 0
0.157314 0.705345 -0.0031 0
0.157314 0.705344 -0.0036 0
0.157313 0.705343 -0.0036 0
0.157435 0.705315 -0.0032 0
0.157434 0.705315 -0.0032 0
0.157427 0.702315 -0.0033 0
0.157311 0.70534 -0.0033 0
0.157311 0.705339 -0.0033 0
0.157434 0.70531 -0.0033 0
0.157433 0.705308 -0.0029 0
0.157434 0.705308 -0.0029 0
0.157434 0.705306 -0.0029 0
0.157434 0.705304 -0.0035 0
0.157434 0.705303 -0.0031 0
0.157434 0.705302 -0.0031 0
0.157435 0.7053 -0.0031 0
0.157435 0.705299 -0.0034 0
0.157436 0.705298 -0.0034 0
0.157437 0.705296 -0.0032 0
0.157437 0.705296 -0.0032 0
0.157437 0.705293 -0.0033 0
0.157437 0.705292 -0.0033 0
0.157437 0.705291 -0.0031 0
0.157437 0.70529 -0.0031 0
0.157439 0.705288 -0.0032 0
0.157439 0.705287 -0.0032 0
0.15744 0.705286 -0.0035 0
0.15744 0.705284 -0.0035 0
0.15744 0.705283 -0.0038 0
0.157439 0.705281 -0.0038 0
0.157439 0.70528 -0.0034 0
0.15744 0.705278 -0.0034 0
0.15744 0.705277 -0.0032 0
0.15744 0.705276 -0.0032 0
0.157441 0.705276 -0.0033 0
0.157318 0.7053 -0.0033 0
0.157318 0.705298 -0.0033 0
0.157318 0.705297 -0.0033 0
0.157318 0.705296 -0.0036 0
0.157318 0.705293 -0.0036 0
0.157318 0.705292 -0.0034 0
0.157318 0.705291 -0.0034 0
0.157318 0.70529 -0.0034 0
0.157317 0.705287 -0.0032 0
0.157317 0.705286 -0.0029 0
0.157317 0.705284 -0.0029 0
0.157317 0.705283 -0.0032 0
0.157318 0.705282 -0.0032 0
0.157318 0.705281 -0.0032 0
0.157318 0.70528 -0.0032 0
0.157319 0.70528 -0.0032 0
0.157319 0.70528 -0.0031 0
0.157319 0.705279 -0.0031 0
0.157319 0.705277 -0.0031 0
0.157318 0.705277 -0.003 0
0.15744 0.705248 -0.003 0
0.157317 0.705275 -0.0035 0
0.157317 0.705274 -0.0035 0
0.157318 0.705274 -0.0034 0
0.157318 0.705275 -0.0034 0
0.157318 0.705274 -0.0035 0
0.157441 0.705246 -0.0035 0
0.157441 0.705246 -0.0035 0
0.157441 0.705246 -0.0034 0
0.157318 0.705273 -0.0034 0
0.157317 0.705274 -0.0034 0
0.157317 0.705274 -0.0034 0
0.157317 0.705274 -0.0035 0
0.157439 0.705246 -0.0035 0
0.15744 0.705245 -0.0031 0
0.15744 0.705245 -0.0031 0
0.15744 0.705245 -0.0031 0
0.157442 0.705243 -0.0034 0
0.15744 0.704242 -0.0034 0
0.157442 0.705242 -0.003 0
0.157442 0.705241 -0.003 0
0.157442 0.705238 -0.0031 0
0.157442 0.705237 -0.0036 0
0.157443 0.705236 -0.0036 0
0.157322 0.705263 -0.0027 0
0.157323 0.705262 -0.0027 0
0.157322 0.705261 -0.0027 0
0.157322 0.705259 -0.0032 0
0.157321 0.705258 -0.0036 0
0.15732 0.705257 -0.0036 0
0.15732 0.705256 -0.0034 0
0.157442 0.705227 -0.0034 0
0.15744 0.705225 -0.0035 0
0.157437 0.704225 -0.0035 0
0.157439 0.705224 -0.0035 0
0.157439 0.705221 -0.0035 0
0.157439 0.70522 -0.0034 0
0.157439 0.705218 -0.0034 0
0.157438 0.705216 -0.0031 0
0.157438 0.705214 -0.0031 0
0.157436 0.70521 -0.0032 0
0.157435 0.705208 -0.0032 0
0.157434 0.705206 -0.0031 0
0.157434 0.705203 -0.0031 0
0.157433 0.705202 -0.003 0
0.157433 0.7052 -0.003 0
0.157432 0.705199 -0.0029 0
0.157432 0.705197 -0.0029 0
0.157431 0.705196 -0.0029 0
0.157307 0.705222 -0.003 0
0.157306 0.705219 -0.003 0
0.157306 0.705217 -0.0032 0
0.157306 0.705214 -0.0032 0
0.157306 0.705212 -0.0033 0
0.157305 0.705211 -0.0033 0
0.157427 0.70518 -0.0034 0
0.157428 0.705179 -0.0034 0
0.157428 0.705178 -0.0031 0
0.157428 0.705176 -0.0031 0
0.157428 0.705175 -0.0025 0
0.157429 0.705173 -0.0025 0
0.157429 0.705172 -0.0033 0
0.157429 0.705171 -0.0033 0
0.157429 0.705171 -0.0034 0
0.157429 0.705171 -0.0034 0
0.157306 0.705197 -0.003 0
0.157306 0.705196 -0.0032 0
0.157307 0.705195 -0.0032 0
0.157307 0.705194 -0.0032 0
0.157307 0.705192 -0.0035 0
0.15743 0.705164 -0.0032 0
0.157429 0.705163 -0.0032 0
0.157428 0.705163 -0.0032 0
0.157428 0.705162 -0.0034 0
0.157428 0.70516 -0.0034 0
0.157427 0.705159 -0.0034 0
0.157427 0.705157 -0.0034 0
0.157427 0.705157 -0.0034 0
0.157427 0.705156 -0.0032 0
0.157428 0.705155 -0.0032 0
0.157427 0.705153 -0.0032 0
0.157427 0.705152 -0.0031 0
0.157428 0.705152 -0.0031 0
0.157427 0.705151 -0.0031 0
0.157426 0.705151 -0.0034 0
0.157426 0.70515 -0.0034 0
0.157426 0.705149 -0.0034 0
0.157426 0.705147 -0.0034 0
0.157426 0.705143 -0.0031 0
0.157426 0.705142 -0.0031 0
0.157426 0.705142 -0.0035 0
0.157425 0.705142 -0.0035 0
0.157425 0.705141 -0.0027 0
0.157425 0.70514 -0.0027 0
0.157424 0.70514 -0.0027 0
0.157423 0.70514 -0.003 0
0.157423 0.705139 -0.003 0
0.157423 0.705138 -0.0031 0
0.157423 0.705137 -0.0031 0
0.157422 0.705136 -0.0035 0
0.157421 0.705135 -0.0035 0
0.157421 0.705134 -0.0035 0
0.15742 0.705134 -0.0033 0
0.157419 0.705133 -0.0033 0
0.157417 0.705132 -0.0033 0
0.157416 0.705131 -0.0033 0
0.157416 0.70513 -0.0031 0
0.157415 0.705129 -0.0031 0
0.157414 0.705128 -0.003 0
0.157413 0.705127 -0.003 0
0.157412 0.705127 -0.0035 0
0.157411 0.705126 -0.0035 0
0.15741 0.705124 -0.0033 0
0.15741 0.705124 -0.0033 0
0.157409 0.705122 -0.0033 0
0.157409 0.705122 -0.0033 0
0.157409 0.705121 -0.0032 0
0.157284 0.705146 -0.0029 0
0.157283 0.705145 -0.0029 0
0.157282 0.705143 -0.0029 0
0.157262 0.694143 -0.0035 0
0.157281 0.705142 -0.0035 0
0.157281 0.705141 -0.0035 0
0.15728 0.70514 -0.0036 0
0.15728 0.705139 -0.0036 0
0.157279 0.705138 -0.003 0
0.157279 0.705137 -0.003 0
0.157279 0.705136 -0.0035 0
0.157279 0.705135 -0.0035 0
0.157279 0.705135 -0.0039 0
0.157279 0.705134 -0.0039 0
0.157279 0.705133 -0.0032 0
0.157279 0.705131 -0.0032 0
0.15728 0.705129 -0.0032 0
0.15728 0.705128 -0.0033 0
0.157282 0.705128 -0.0033 0
0.157283 0.705129 -0.0041 0
0.157284 0.705128 -0.0041 0
0.157284 0.705128 -0.003 0
0.157284 0.705128 -0.003 0
0.157284 0.705128 -0.003 0
0.157284 0.705127 -0.003 0
0.157407 0.705097 -0.0028 0
0.157406 0.705096 -0.0028 0
0.157406 0.705095 -0.0037 0
0.157406 0.705094 -0.0037 0
0.157407 0.705094 -0.0037 0
0.157406 0.705093 -0.0034 0
0.157406 0.705092 -0.0034 0
0.157283 0.705119 -0.0029 0
0.157282 0.705118 -0.0029 0
0.157282 0.705119 -0.0033 0
0.157282 0.705118 -0.0033 0
0.157282 0.705118 -0.0033 0
0.157283 0.705117 -0.0031 0
0.157283 0.705116 -0.0031 0
0.157284 0.705115 -0.0037 0
0.157406 0.705085 -0.0032 0
0.157406 0.705084 -0.0032 0
0.157283 0.70511 -0.0032 0
0.157284 0.705109 -0.003 0
0.157284 0.705109 -0.003 0
0.157284 0.705108 -0.0036 0
0.157284 0.705105 -0.0036 0
0.157285 0.705103 -0.0032 0
0.157286 0.705101 -0.0032 0
0.157286 0.7051 -0.0032 0
0.157287 0.705099 -0.0032 0
0.157409 0.70507 -0.0032 0
0.157287 0.705098 -0.0038 0
0.157412 0.70607 -0.0038 0
0.157286 0.705097 -0.0038 0
0.15741 0.705069 -0.0037 0
0.15741 0.705067 -0.0037 0
0.15741 0.705065 -0.0035 0
0.15741 0.705065 -0.0031 0
0.157406 0.703064 -0.0031 0
0.15741 0.705063 -0.0031 0
0.15741 0.705063 -0.0031 0
0.15741 0.705061 -0.0031 0
0.157287 0.705088 -0.0031 0
0.15741 0.70506 -0.0033 0
0.15741 0.705059 -0.0034 0
0.157287 0.705085 -0.0034 0
0.157287 0.705084 -0.0034 0
0.157287 0.705083 -0.003 0
0.157287 0.70508 -0.0036 0
0.15741 0.70505 -0.0036 0
0.15741 0.705049 -0.0028 0
0.157411 0.705048 -0.0028 0
0.157411 0.705048 -0.0028 0
0.157411 0.705046 -0.004 0
0.157411 0.705045 -0.004 0
0.157411 0.705044 -0.0034 0
0.157411 0.70504 -0.0034 0
0.15741 0.705039 -0.0032 0
0.15741 0.705039 -0.0032 0
0.15741 0.705039 -0.0036 0
0.157409 0.705039 -0.0036 0
0.157285 0.705065 -0.0036 0
0.157285 0.705065 -0.0031 0
0.157283 0.705063 -0.0032 0
0.157283 0.705061 -0.0032 0
0.157283 0.705061 -0.0032 0
0.157282 0.70506 -0.0036 0
0.157283 0.70506 -0.0036 0
0.157283 0.70506 -0.0036 0
0.157283 0.705059 -0.0032 0
0.157283 0.705059 -0.0034 0
0.157283 0.705058 -0.0034 0
0.157283 0.705056 -0.0034 0
0.157284 0.705055 -0.003 0
0.157283 0.705054 -0.003 0
0.157283 0.705052 -0.0034 0
0.157282 0.705051 -0.0035 0
0.157282 0.705049 -0.0035 0
0.157282 0.705048 -0.0033 0
0.157282 0.705047 -0.0033 0
0.157282 0.705045 -0.0032 0
0.157282 0.705043 -0.0032 0
0.157282 0.705041 -0.0029 0
0.157282 0.70504 -0.0029 0
0.157282 0.70504 -0.0033 0
0.157282 0.705038 -0.0033 0
0.157282 0.705037 -0.0033 0
0.157282 0.705035 -0.0033 0
0.157282 0.705034 -0.0029 0
0.157282 0.705033 -0.0029 0
0.157283 0.705032 -0.003 0
0.157282 0.705032 -0.003 0
0.157282 0.70503 -0.0033 0
0.157282 0.70503 -0.0033 0
0.157282 0.705029 -0.003 0
0.157282 0.705029 -0.003 0
0.157282 0.705029 -0.0035 0
0.157282 0.705029 -0.0035 0
0.157281 0.705028 -0.0029 0
0.157281 0.705027 -0.0029 0
0.157281 0.705027 -0.0029 0
0.157281 0.705027 -0.0029 0
0.157281 0.705027 -0.0034 0
0.157282 0.705026 -0.0034 0
0.157282 0.705025 -0.0034 0
0.157282 0.705025 -0.0033 0
0.157282 0.705024 -0.0033 0
0.157282 0.705022 -0.0029 0
0.157282 0.705019 -0.0029 0
0.157282 0.705018 -0.0031 0
0.157283 0.705017 -0.0031 0
0.157283 0.705016 -0.0031 0
0.157283 0.705014 -0.003 0
0.157283 0.705014 -0.003 0
0.157283 0.705013 -0.003 0
0.157283 0.705012 -0.0034 0
0.157278 0.70201 -0.0034 0
0.157285 0.705009 -0.0034 0
0.157285 0.705009 -0.0034 0
0.157285 0.705008 -0.0033 0
0.157285 0.705006 -0.0033 0
0.157285 0.705006 -0.0033 0
0.157285 0.705005 -0.0036 0
0.157285 0.705004 -0.0036 0
0.157285 0.705004 -0.003 0
0.157286 0.705002 -0.0036 0
0.157286 0.705001 -0.0036 0
0.157286 0.705001 -0.0036 0
0.157286 0.705001 -0.0037 0
0.157285 0.705 -0.0037 0
0.157285 0.705 -0.0037 0
0.157285 0.704999 -0.0033 0
0.157285 0.704997 -0.0033 0
0.157284 0.704996 -0.0031 0
0.157284 0.704995 -0.0031 0
0.157284 0.704995 -0.0034 0
0.157284 0.704994 -0.0034 0
0.157284 0.704993 -0.003 0
0.157284 0.704993 -0.003 0
0.157283 0.704992 -0.0037 0
0.157283 0.704992 -0.0037 0
0.157283 0.704992 -0.0037 0
0.157284 0.704991 -0.0031 0
0.157284 0.70499 -0.0031 0
0.157284 0.70499 -0.0033 0
0.157284 0.70499 -0.0033 0
0.157283 0.704989 -0.0033 0
0.157283 0.704988 -0.0034 0
0.157284 0.704988 -0.0034 0
0.157285 0.704987 -0.0032 0
0.157285 0.704986 -0.0032 0
0.157286 0.704985 -0.0032 0
0.157286 0.704984 -0.0028 0
0.157287 0.704984 -0.0032 0
0.157287 0.704984 -0.0032 0
0.157287 0.704983 -0.0032 0
0.157283 0.701982 -0.0031 0
0.157289 0.704982 -0.0031 0
0.157289 0.704981 -0.0031 0
0.15729 0.70498 -0.0031 0
0.15729 0.70498 -0.0031 0
0.15729 0.704979 -0.0032 0
0.15729 0.704978 -0.0032 0
0.15729 0.704976 -0.0029 0
0.15729 0.704975 -0.0029 0
0.15729 0.704974 -0.0027 0
0.15729 0.704973 -0.0027 0
0.15729 0.704974 -0.003 0
0.15729 0.704974 -0.003 0
0.15729 0.704973 -0.003 0
0.157291 0.704971 -0.0033 0
0.15729 0.70497 -0.003 0
0.157291 0.704968 -0.003 0
0.157291 0.704967 -0.003 0
0.157289 0.703966 -0.0033 0
0.157291 0.704965 -0.0033 0
0.157292 0.704964 -0.0031 0
0.157293 0.704964 -0.0031 0
0.157293 0.704964 -0.0033 0
0.157293 0.704963 -0.0033 0
0.157293 0.704963 -0.0032 0
0.157293 0.704962 -0.0032 0
0.157293 0.704961 -0.0032 0
0.157292 0.704961 -0.003 0
0.157291 0.70496 -0.0037 0
0.15729 0.704959 -0.0037 0
0.157289 0.704957 -0.0037 0
0.157289 0.704956 -0.0031 0
0.157289 0.704956 -0.0031 0
0.157289 0.704956 -0.0036 0
0.157283 0.701956 -0.0036 0
0.157289 0.704955 -0.0036 0
0.15729 0.704954 -0.0033 0
0.15729 0.704953 -0.0033 0
0.15729 0.704951 -0.0033 0
0.157289 0.704949 -0.0034 0
0.157288 0.704948 -0.0031 0
0.157287 0.704946 -0.0031 0
0.157286 0.704945 -0.0035 0
0.157285 0.704944 -0.0035 0
0.157285 0.704943 -0.0032 0
0.157284 0.704942 -0.0032 0
0.157283 0.70494 -0.0033 0
0.157283 0.70494 -0.0033 0
0.157283 0.704938 -0.0036 0
0.157282 0.704937 -0.0036 0
0.157281 0.704937 -0.0032 0
0.157281 0.704936 -0.0032 0
0.157279 0.704935 -0.0032 0
0.157275 0.702934 -0.0038 0
0.157278 0.704934 -0.0038 0
0.157275 0.702933 -0.0035 0
0.157279 0.704932 -0.0035 0
0.157279 0.704931 -0.0032 0
0.157279 0.704929 -0.0032 0
0.157279 0.704927 -0.0037 0
0.157279 0.704926 -0.0037 0
0.157278 0.704925 -0.0037 0
0.1574 0.704895 -0.0028 0
0.1574 0.704895 -0.0032 0
0.1574 0.704895 -0.0032 0
0.1574 0.704895 -0.0032 0
0.157277 0.704922 -0.0033 0
0.157277 0.70492 -0.0032 0
0.1574 0.704892 -0.0032 0
0.1574 0.704891 -0.0032 0
0.157279 0.704915 -0.0031 0
0.157281 0.704914 -0.0032 0
0.157281 0.704914 -0.0032 0
0.157358 0.745913 -0.0032 0
0.157282 0.704913 -0.0034 0
0.157281 0.703913 -0.0034 0
0.157282 0.704913 -0.0034 0
0.157281 0.704912 -0.0034 0
0.157404 0.704885 -0.0031 0
0.157403 0.704884 -0.0031 0
0.157402 0.704882 -0.0033 0
0.157403 0.704881 -0.0033 0
0.157403 0.704881 -0.0031 0
0.157403 0.70488 -0.0031 0
0.157404 0.70488 -0.0034 0
0.157404 0.704879 -0.0034 0
0.157404 0.704878 -0.0029 0
0.157404 0.704877 -0.0029 0
0.157403 0.704876 -0.0029 0
0.157403 0.704874 -0.0034 0
0.157403 0.704872 -0.0033 0
0.157402 0.704871 -0.0033 0
0.157402 0.704871 -0.0033 0
0.157401 0.70487 -0.0029 0
0.157401 0.704869 -0.0029 0
0.157401 0.704868 -0.0035 0
0.157401 0.704866 -0.0034 0
0.157402 0.704866 -0.0034 0
0.157402 0.704866 -0.0034 0
0.157402 0.704865 -0.0035 0
0.157403 0.704864 -0.0035 0
0.157403 0.704862 -0.0031 0
0.157403 0.704862 -0.0031 0
0.157403 0.704861 -0.0031 0
0.157403 0.70486 -0.003 0
0.157402 0.70486 -0.003 0
0.157402 0.704859 -0.0032 0
0.157402 0.704858 -0.0032 0
0.157401 0.704856 -0.0031 0
0.157401 0.704856 -0.0031 0
0.157401 0.704855 -0.0029 0
0.157402 0.704854 -0.0029 0
0.157402 0.704854 -0.0029 0
0.157401 0.704854 -0.0035 0
0.157402 0.704853 -0.0035 0
0.157402 0.704851 -0.0032 0
0.157401 0.704849 -0.0032 0
0.157401 0.704848 -0.0037 0
0.157401 0.704847 -0.0037 0
0.157278 0.704873 -0.0037 0
0.157278 0.70487 -0.0033 0
0.157274 0.702868 -0.0033 0
0.157278 0.704867 -0.0033 0
0.157278 0.704865 -0.0035 0
0.157277 0.704864 -0.0035 0
0.157277 0.704863 -0.0035 0
0.157277 0.704861 -0.0032 0
0.157277 0.70486 -0.0032 0
0.157276 0.704859 -0.0034 0
0.157399 0.70483 -0.0034 0
0.157276 0.704856 -0.0034 0
0.157272 0.702855 -0.0034 0
0.157398 0.704826 -0.0031 0
0.157275 0.704852 -0.0031 0
0.157275 0.70485 -0.0031 0
0.157274 0.704849 -0.0029 0
0.157274 0.704849 -0.0029 0
0.157274 0.704846 -0.0034 0
0.157274 0.704846 -0.0034 0
0.157274 0.704845 -0.003 0
0.157273 0.704844 -0.003 0
0.157395 0.704816 -0.003 0
0.157269 0.702842 -0.003 0
0.157273 0.704841 -0.003 0
0.157273 0.70484 -0.0034 0
0.157396 0.704809 -0.0034 0
0.157396 0.704807 -0.0032 0
0.157397 0.704806 -0.0032 0
0.157397 0.704805 -0.0033 0
0.157397 0.704803 -0.0033 0
0.157397 0.704802 -0.0033 0
0.157397 0.704801 -0.0028 0
0.157398 0.7048 -0.0028 0
0.157398 0.704799 -0.0033 0
0.157398 0.704799 -0.0033 0
0.157398 0.704799 -0.0036 0
0.157398 0.704798 -0.0036 0
0.157398 0.704797 -0.0029 0
0.157397 0.704796 -0.0029 0
0.157396 0.704796 -0.0037 0
0.157396 0.704797 -0.0037 0
0.157395 0.704798 -0.0033 0
0.157394 0.704798 -0.0033 0
0.157394 0.704798 -0.0037 0
0.157393 0.704797 -0.0037 0
0.157393 0.704796 -0.0031 0
0.157393 0.704795 -0.0035 0
0.157393 0.704793 -0.0035 0
0.157393 0.704792 -0.0035 0
0.157393 0.70479 -0.0035 0
0.157392 0.704787 -0.0035 0
0.157392 0.704785 -0.0028 0
0.157392 0.704784 -0.0028 0
0.157393 0.704782 -0.0032 0
0.157392 0.70478 -0.0033 0
0.157391 0.704778 -0.0033 0
0.157392 0.704777 -0.0033 0
0.157393 0.704776 -0.0034 0
0.157392 0.704774 -0.003 0
0.157391 0.704772 -0.003 0
0.157391 0.704771 -0.003 0
0.157389 0.704769 -0.0035 0
0.157389 0.704769 -0.0035 0
0.157389 0.704768 -0.0035 0
0.157388 0.704766 -0.0035 0
0.157388 0.704764 -0.0029 0
0.157387 0.704763 -0.0029 0
0.157386 0.704762 -0.0035 0
0.157386 0.704761 -0.0035 0
0.157386 0.704759 -0.0029 0
0.157386 0.704756 -0.0034 0
0.157386 0.704755 -0.0034 0
0.157386 0.704753 -0.0034 0
0.157385 0.704751 -0.0033 0
0.157384 0.70475 -0.0033 0
0.157384 0.704749 -0.0033 0
0.157383 0.704748 -0.0033 0
0.157382 0.704747 -0.0035 0
0.157382 0.704746 -0.0035 0
0.157381 0.704745 -0.0035 0
0.157381 0.704745 -0.0038 0
0.157381 0.704744 -0.0038 0
0.157381 0.704743 -0.0033 0
0.15738 0.704743 -0.0033 0
0.15738 0.704743 -0.0032 0
0.157379 0.704741 -0.0032 0
0.157378 0.704739 -0.0037 0
0.157378 0.704738 -0.0037 0
0.157378 0.704735 -0.0034 0
0.157377 0.704732 -0.0034 0
0.157378 0.704731 -0.0037 0
0.157378 0.704731 -0.0037 0
0.157378 0.70473 -0.0032 0
0.157378 0.70473 -0.0032 0
0.157379 0.704729 -0.0032 0
0.15738 0.704727 -0.0032 0
0.15738 0.704727 -0.0031 0
0.15738 0.704726 -0.0031 0
0.157379 0.704725 -0.0031 0
0.157379 0.704723 -0.0034 0
0.15738 0.704721 -0.0034 0
0.157379 0.704719 -0.0038 0
0.157379 0.704718 -0.0038 0
0.157379 0.704718 -0.0032 0
0.15738 0.704718 -0.0032 0
0.15738 0.704717 -0.0033 0
0.157381 0.704716 -0.0033 0
0.157381 0.704715 -0.0033 0
0.157381 0.704715 -0.0032 0
0.157381 0.704715 -0.0032 0
0.157381 0.704714 -0.0032 0
0.157381 0.704714 -0.0025 0
0.15738 0.704711 -0.0029 0
0.157381 0.70471 -0.0029 0
0.157381 0.704708 -0.003 0
0.157381 0.704707 -0.003 0
0.157382 0.704706 -0.003 0
0.157383 0.704705 -0.0032 0
0.157383 0.704703 -0.0032 0
0.157384 0.704702 -0.0031 0
0.157385 0.704702 -0.0031 0
0.157385 0.704701 -0.0031 0
0.157385 0.7047 -0.0036 0
0.157385 0.7047 -0.0036 0
0.157385 0.704698 -0.0034 0
0.157384 0.704694 -0.0034 0
0.157384 0.704693 -0.0034 0
0.157383 0.704693 -0.0034 0
0.157383 0.704692 -0.0033 0
0.157382 0.704691 -0.0033 0
0.157381 0.70469 -0.0033 0
0.157381 0.704689 -0.0034 0
0.157381 0.704688 -0.0034 0
0.157382 0.704687 -0.0034 0
0.157381 0.704684 -0.0029 0
0.157381 0.704683 -0.0033 0
0.157381 0.704683 -0.0033 0
0.157381 0.704682 -0.0034 0
0.15738 0.704681 -0.0034 0
0.15738 0.704679 -0.0034 0
0.157379 0.704677 -0.0037 0
0.157378 0.704673 -0.0037 0
0.157377 0.704672 -0.0032 0
0.157376 0.70467 -0.0032 0
0.157375 0.704669 -0.0032 0
0.157374 0.704668 -0.0032 0
0.157373 0.704668 -0.0032 0
0.157372 0.704665 -0.0032 0
0.157371 0.704664 -0.0034 0
0.15737 0.704662 -0.0034 0
0.157369 0.704661 -0.0034 0
0.157368 0.704659 -0.0034 0
0.157367 0.704658 -0.0034 0
0.157367 0.704657 -0.0027 0
0.157366 0.704657 -0.0027 0
0.157366 0.704656 -0.0031 0
0.157366 0.704655 -0.0031 0
0.157364 0.703654 -0.0031 0
0.157365 0.704652 -0.0033 0
0.157365 0.704651 -0.0033 0
0.157365 0.70465 -0.0033 0
0.157365 0.70465 -0.0033 0
0.157364 0.704648 -0.0035 0
0.157364 0.704647 -0.0035 0
0.157364 0.704645 -0.0033 0
0.157363 0.704644 -0.0033 0
0.157363 0.704642 -0.0033 0
0.157363 0.704641 -0.0033 0
0.157362 0.704641 -0.0027 0
0.157362 0.70464 -0.0027 0
0.157361 0.704639 -0.0027 0
0.157357 0.702638 -0.0033 0
0.15736 0.704637 -0.0033 0
0.15736 0.704636 -0.0032 0
0.15736 0.704635 -0.0032 0
0.157359 0.704635 -0.0032 0
0.15736 0.704633 -0.0034 0
0.15736 0.704633 -0.0034 0
0.15736 0.704632 -0.0028 0
0.157359 0.70463 -0.0028 0
0.15736 0.704629 -0.003 0
0.15736 0.704629 -0.003 0
0.157359 0.704628 -0.0029 0
0.157359 0.704627 -0.0029 0
0.157359 0.704627 -0.0029 0
0.157358 0.704627 -0.0034 0
0.157358 0.704626 -0.0034 0
0.157356 0.703625 -0.003 0
0.157356 0.703624 -0.003 0
0.157358 0.704623 -0.003 0
0.157358 0.704622 -0.0031 0
0.157333 0.692622 -0.0035 0
0.157356 0.704621 -0.0035 0
0.157356 0.70462 -0.0035 0
0.157355 0.704619 -0.003 0
0.157355 0.704618 -0.003 0
0.157355 0.704617 -0.0034 0
0.157355 0.704616 -0.0034 0
0.157354 0.704616 -0.0032 0
0.15723 0.704643 -0.0032 0
0.15723 0.704643 -0.0028 0
0.15723 0.704642 -0.0028 0
0.15723 0.704642 -0.0034 0
0.15723 0.704641 -0.0034 0
0.157229 0.70464 -0.0034 0
0.15723 0.70464 -0.0028 0
0.15723 0.704639 -0.0028 0
0.15723 0.704639 -0.0029 0
0.15723 0.704638 -0.0029 0
0.157229 0.704637 -0.0031 0
0.15723 0.704637 -0.0031 0
0.157353 0.704608 -0.0031 0
0.157353 0.704607 -0.0034 0
0.157352 0.704607 -0.0034 0
0.157351 0.704606 -0.0036 0
0.157227 0.70463 -0.0036 0
0.157227 0.704629 -0.0033 0
0.15735 0.7046 -0.0033 0
0.15735 0.704599 -0.0034 0
0.157344 0.701598 -0.0034 0
0.157349 0.704598 -0.0034 0
0.157348 0.704596 -0.0034 0
0.157347 0.704596 -0.004 0
0.157346 0.704594 -0.004 0
0.157346 0.704593 -0.0038 0
0.157345 0.704592 -0.0028 0
0.157345 0.704591 -0.0028 0
0.157345 0.70459 -0.0028 0
0.157346 0.704588 -0.0034 0
0.157346 0.704587 -0.0036 0
0.157347 0.704586 -0.0036 0
0.157347 0.704586 -0.0036 0
0.157347 0.704584 -0.0034 0
0.157347 0.704582 -0.0033 0
0.157347 0.704581 -0.0033 0
0.157348 0.70458 -0.0036 0
0.157348 0.704579 -0.0036 0
0.157349 0.704578 -0.003 0
0.15735 0.704577 -0.003 0
0.157351 0.704577 -0.003 0
0.157351 0.704575 -0.0037 0
0.157352 0.704573 -0.0032 0
0.157352 0.704573 -0.0032 0
0.157352 0.704573 -0.0032 0
0.157229 0.704598 -0.003 0
0.157229 0.704597 -0.0031 0
0.157229 0.704596 -0.0031 0
0.15723 0.704595 -0.0034 0
0.15723 0.704595 -0.0034 0
0.15723 0.704595 -0.003 0
0.15723 0.704595 -0.003 0
0.15723 0.704596 -0.0033 0
0.157231 0.704596 -0.0032 0
0.157231 0.704595 -0.0032 0
0.157231 0.704594 -0.0032 0
0.157231 0.704592 -0.0032 0
0.15723 0.70459 -0.0032 0
0.15723 0.704589 -0.0032 0
0.157156 0.664589 -0.0032 0
0.157231 0.704588 -0.0031 0
0.157231 0.704588 -0.0031 0
0.157231 0.704587 -0.0035 0
0.157231 0.704585 -0.0035 0
0.157231 0.704584 -0.0035 0
0.157231 0.704583 -0.0032 0
0.157231 0.704583 -0.0032 0
0.157231 0.704582 -0.0036 0
0.157231 0.704581 -0.0036 0
0.157231 0.704579 -0.0031 0
0.157231 0.704578 -0.0031 0
0.157231 0.704577 -0.0033 0
0.157228 0.704575 -0.0033 0
0.157228 0.704574 -0.0033 0
0.157227 0.704572 -0.0033 0
0.157226 0.704571 -0.0032 0
0.157225 0.704569 -0.0032 0
0.157225 0.704568 -0.0032 0
0.157225 0.704567 -0.0032 0
0.157225 0.704566 -0.0032 0
0.157226 0.704564 -0.0033 0
0.157226 0.704563 -0.0033 0
0.157227 0.704561 -0.0033 0
0.157228 0.704559 -0.0033 0
0.157229 0.704558 -0.0034 0
0.157229 0.704557 -0.0034 0
0.157228 0.704556 -0.0034 0
0.157227 0.704555 -0.0027 0
0.157227 0.704554 -0.0027 0
0.157227 0.704553 -0.0035 0
0.157227 0.704552 -0.0035 0
0.157227 0.704552 -0.0035 0
0.157227 0.704552 -0.003 0
0.157227 0.704551 -0.003 0
0.157227 0.70455 -0.0031 0
0.157229 0.704546 -0.0031 0
0.15723 0.704544 -0.0031 0
0.15723 0.704542 -0.0031 0
0.157231 0.70454 -0.0035 0
0.157231 0.704538 -0.0035 0
0.157231 0.704537 -0.0035 0
0.157231 0.704535 -0.0033 0
0.157231 0.704534 -0.0028 0
0.157231 0.704532 -0.0028 0
0.157232 0.704531 -0.0032 0
0.157232 0.70453 -0.0032 0
0.157233 0.70453 -0.0032 0
0.157233 0.704529 -0.0032 0
0.157233 0.704529 -0.0031 0
0.157228 0.701528 -0.0031 0
0.157234 0.704528 -0.0036 0
0.157233 0.704525 -0.0036 0
0.157233 0.704524 -0.0031 0
0.157233 0.704524 -0.0031 0
0.157229 0.702523 -0.0035 0
0.157232 0.704521 -0.0035 0
0.157232 0.704521 -0.0034 0
0.157233 0.70452 -0.0034 0
0.157233 0.704519 -0.0026 0
0.157233 0.704518 -0.0026 0
0.157233 0.704517 -0.0032 0
0.157232 0.704516 -0.0032 0
0.157355 0.704486 -0.0033 0
0.157354 0.704483 -0.0033 0
0.157353 0.704482 -0.0035 0
0.157353 0.704481 -0.0035 0
0.157353 0.70448 -0.0035 0
0.157229 0.704506 -0.0035 0
0.157228 0.704503 -0.0031 0
0.157228 0.704502 -0.0031 0
0.157227 0.704501 -0.0034 0
0.157226 0.704498 -0.0034 0
0.15722 0.701497 -0.0033 0
0.157226 0.704496 -0.0033 0
0.157226 0.704495 -0.0032 0
0.157226 0.704494 -0.0032 0
0.157227 0.704495 -0.0032 0
0.157206 0.692494 -0.0033 0
0.157228 0.704493 -0.0033 0
0.157351 0.704465 -0.0034 0
0.15735 0.704464 -0.0034 0
0.157227 0.704491 -0.0034 0
0.157227 0.70449 -0.0031 0
0.157227 0.704489 -0.0031 0
0.157227 0.704488 -0.0031 0
0.157226 0.704487 -0.0031 0
0.157226 0.704486 -0.0034 0
0.157226 0.704485 -0.0034 0
0.157225 0.704483 -0.0029 0
0.157225 0.704482 -0.0029 0
0.157224 0.704482 -0.003 0
0.157224 0.704481 -0.003 0
0.157223 0.70448 -0.0032 0
0.157223 0.704478 -0.0032 0
0.157223 0.704477 -0.0027 0
0.157222 0.704476 -0.0027 0
0.157345 0.704446 -0.0033 0
0.157344 0.704444 -0.0033 0
0.157345 0.704443 -0.0033 0
0.157346 0.704442 -0.0033 0
0.157223 0.704468 -0.0029 0
0.157346 0.70444 -0.0029 0
0.157346 0.704438 -0.0034 0
0.157346 0.704437 -0.0034 0
0.157346 0.704435 -0.0034 0
0.157223 0.704462 -0.0034 0
0.157223 0.70446 -0.0031 0
0.157223 0.704458 -0.0034 0
0.157223 0.704456 -0.0034 0
0.157223 0.704455 -0.0034 0
0.157223 0.704454 -0.0029 0
0.157223 0.704452 -0.0032 0
0.157224 0.704451 -0.0032 0
0.157223 0.70445 -0.0032 0
0.157223 0.704448 -0.0035 0
0.157223 0.704448 -0.0032 0
0.157223 0.704448 -0.0032 0
0.157225 0.704446 -0.0032 0
0.157347 0.704418 -0.0032 0
0.157347 0.704415 -0.0033 0
0.157347 0.704414 -0.0033 0
0.157347 0.704413 -0.0036 0
0.157347 0.704412 -0.003 0
0.157347 0.70441 -0.003 0
0.157346 0.704409 -0.003 0
0.157347 0.704409 -0.0035 0
0.157347 0.704408 -0.0035 0
0.157347 0.704406 -0.0032 0
0.157348 0.704403 -0.0032 0
0.157348 0.704401 -0.0037 0
0.157348 0.7044 -0.0037 0
0.157347 0.704398 -0.0033 0
0.157224 0.704423 -0.0033 0
0.157224 0.704422 -0.0033 0
0.157224 0.70442 -0.0031 0
0.157223 0.704419 -0.003 0
0.157223 0.704419 -0.003 0
0.157223 0.704418 -0.003 0
0.157222 0.704415 -0.0031 0
0.157222 0.704413 -0.0038 0
0.157221 0.704411 -0.0038 0
0.157221 0.70441 -0.0038 0
0.15722 0.70441 -0.0036 0
0.15722 0.704409 -0.0034 0
0.15722 0.704409 -0.0034 0
0.15722 0.704408 -0.0034 0
0.15722 0.704408 -0.0029 0
0.157222 0.704406 -0.0028 0
0.157222 0.704406 -0.0028 0
0.157222 0.704405 -0.0028 0
0.157222 0.704405 -0.003 0
0.157222 0.704404 -0.0033 0
0.157222 0.704404 -0.0033 0
0.157222 0.704404 -0.0033 0
0.15722 0.704402 -0.0038 0
0.15722 0.704401 -0.0033 0
0.157219 0.7044 -0.0033 0
0.157339 0.704372 -0.0031 0
0.157339 0.70437 -0.0031 0
0.157339 0.704369 -0.0029 0
0.157339 0.704368 -0.0029 0
0.157338 0.704367 -0.0034 0
0.157338 0.704367 -0.0034 0
0.157337 0.704366 -0.0028 0
0.157337 0.704366 -0.0028 0
0.157337 0.704364 -0.0035 0
0.157333 0.702362 -0.0035 0
0.157337 0.704361 -0.0035 0
0.157337 0.70436 -0.0035 0
0.157338 0.704356 -0.0027 0
0.157338 0.704356 -0.0027 0
0.157338 0.704357 -0.0029 0
0.157338 0.704355 -0.0029 0
0.157215 0.704381 -0.0035 0
0.157215 0.70438 -0.0035 0
0.157215 0.704379 -0.0037 0
0.157215 0.704379 -0.0037 0
0.157215 0.704379 -0.0037 0
0.157215 0.704378 -0.0033 0
0.157215 0.704378 -0.0033 0
0.157215 0.704377 -0.0036 0
0.157215 0.704376 -0.0036 0
0.157215 0.704375 -0.0038 0
0.157216 0.704374 -0.0038 0
0.157215 0.704373 -0.0033 0
0.157216 0.704372 -0.0033 0
0.157339 0.704343 -0.0033 0
0.157217 0.704367 -0.0032 0
0.157217 0.704366 -0.0037 0
0.157217 0.704366 -0.0037 0
0.157217 0.704366 -0.0037 0
0.157217 0.704365 -0.0033 0
0.157217 0.704364 -0.0033 0
0.157217 0.704363 -0.0036 0
0.157217 0.704362 -0.0036 0
0.157217 0.704361 -0.0036 0
0.157339 0.704332 -0.0035 0
0.157339 0.704331 -0.0032 0
0.157339 0.70433 -0.0032 0
0.157338 0.704329 -0.0032 0
0.157338 0.704327 -0.0035 0
0.157337 0.704325 -0.003 0
0.157336 0.704324 -0.003 0
0.157336 0.704323 -0.003 0
0.157337 0.704322 -0.0031 0
0.157337 0.704322 -0.0031 0
0.157337 0.704321 -0.0035 0
0.157336 0.70432 -0.0035 0
0.157336 0.704319 -0.0035 0
0.157336 0.704318 -0.0033 0
0.157336 0.704317 -0.0033 0
0.157336 0.704315 -0.0033 0
0.157329 0.701315 -0.0033 0
0.157335 0.704315 -0.0033 0
0.157335 0.704314 -0.0031 0
0.157335 0.704314 -0.0031 0
0.157335 0.704312 -0.0035 0
0.157333 0.704309 -0.0035 0
0.157328 0.702307 -0.0031 0
0.157331 0.704306 -0.0031 0
0.157331 0.704304 -0.0033 0
0.15733 0.704302 -0.0033 0
0.157329 0.704301 -0.0031 0
0.157329 0.7043 -0.0031 0
0.157328 0.704299 -0.0033 0
0.157327 0.704298 -0.0033 0
0.157182 0.692325 -0.0033 0
0.157204 0.704324 -0.0033 0
0.157204 0.704323 -0.0037 0
0.157204 0.704322 -0.0037 0
0.157204 0.704321 -0.0034 0
0.157203 0.70432 -0.0034 0
0.157325 0.704292 -0.003 0
0.157325 0.704291 -0.003 0
0.157202 0.704317 -0.0039 0
0.157202 0.704316 -0.0039 0
0.157201 0.704314 -0.0026 0
0.157201 0.704312 -0.0026 0
0.1572 0.704311 -0.0031 0
0.1572 0.70431 -0.0033 0
0.1572 0.704309 -0.0033 0
0.157201 0.704308 -0.0033 0
0.157202 0.704306 -0.0032 0
0.157202 0.704305 -0.003 0
0.157201 0.704304 -0.003 0
0.157201 0.704303 -0.003 0
0.157202 0.704301 -0.0032 0
0.157201 0.7043 -0.0028 0
0.157201 0.704298 -0.0028 0
0.157323 0.70427 -0.0028 0
0.157322 0.704269 -0.0036 0
0.157199 0.704295 -0.0036 0
0.157198 0.704294 -0.003 0
0.157199 0.705292 -0.003 0
0.157319 0.704264 -0.003 0
0.157319 0.704262 -0.0033 0
0.157319 0.70426 -0.0035 0
0.157319 0.704259 -0.0035 0
0.157319 0.704258 -0.0035 0
0.157319 0.704257 -0.0032 0
0.15732 0.704255 -0.0032 0
0.15732 0.704251 -0.0035 0
0.157321 0.70425 -0.0035 0
0.157321 0.70425 -0.0032 0
0.157322 0.70425 -0.0032 0
0.157322 0.70425 -0.0037 0
0.157322 0.70425 -0.0037 0
0.157322 0.704249 -0.0037 0
0.157323 0.704248 -0.0029 0
0.157323 0.704248 -0.0029 0
0.157323 0.704247 -0.0029 0
0.157323 0.704247 -0.0034 0
0.157323 0.704246 -0.0034 0
0.157324 0.704242 -0.0031 0
0.157325 0.704241 -0.0031 0
0.157325 0.70424 -0.0033 0
0.157323 0.703239 -0.0032 0
0.157325 0.704238 -0.0032 0
0.157324 0.704237 -0.0032 0
0.157324 0.704236 -0.0036 0
0.157323 0.704235 -0.0036 0
0.157323 0.704234 -0.0032 0
0.157323 0.704233 -0.0032 0
0.157322 0.704233 -0.0032 0
0.157323 0.704232 -0.0031 0
0.157323 0.704228 -0.0031 0
0.157323 0.704226 -0.0031 0
0.157323 0.704224 -0.0031 0
0.157324 0.704222 -0.0029 0
0.157324 0.704222 -0.0029 0
0.157325 0.704222 -0.0034 0
0.157326 0.704221 -0.0034 0
0.157325 0.70422 -0.0028 0
0.157324 0.70422 -0.0028 0
0.157324 0.704219 -0.0029 0
0.157325 0.70422 -0.0029 0
0.157325 0.704219 -0.0029 0
0.157326 0.704217 -0.0039 0
0.157326 0.704216 -0.0028 0
0.157324 0.703214 -0.0028 0
0.157326 0.704213 -0.0028 0
0.157326 0.704212 -0.0034 0
0.157326 0.704211 -0.0034 0
0.157325 0.704208 -0.0029 0
0.157325 0.704207 -0.0029 0
0.157321 0.702205 -0.0029 0
0.157325 0.704203 -0.0029 0
0.157324 0.704203 -0.0029 0
0.157323 0.7032 -0.0029 0
0.157325 0.704199 -0.0029 0
0.157325 0.704197 -0.0033 0
0.157325 0.704196 -0.0036 0
0.157407 0.745196 -0.0036 0
0.157324 0.704196 -0.0036 0
0.157324 0.704197 -0.003 0
0.157323 0.704196 -0.003 0
0.157323 0.704195 -0.0031 0
0.157323 0.704195 -0.0031 0
0.157323 0.704195 -0.0031 0
0.157324 0.704192 -0.0032 0
0.157323 0.704191 -0.0035 0
0.157323 0.70419 -0.0035 0
0.157323 0.704189 -0.0035 0
0.157323 0.704189 -0.0031 0
0.157323 0.704188 -0.0031 0
0.157322 0.704187 -0.0032 0
0.157198 0.704213 -0.0032 0
0.157199 0.704211 -0.0035 0
0.157199 0.704211 -0.0035 0
0.157275 0.745209 -0.0037 0
0.157198 0.704207 -0.0037 0
0.157198 0.704206 -0.0031 0
0.157198 0.704205 -0.0031 0
0.157198 0.704203 -0.0032 0
0.157197 0.704202 -0.0032 0
0.157197 0.704201 -0.0037 0
0.157194 0.7022 -0.0037 0
0.157196 0.704199 -0.003 0
0.157195 0.704198 -0.003 0
0.157195 0.704198 -0.0031 0
0.157318 0.704169 -0.0031 0
0.157318 0.704168 -0.004 0
0.157319 0.704167 -0.004 0
0.157319 0.704166 -0.004 0
0.157319 0.704165 -0.0037 0
0.157318 0.704164 -0.0037 0
0.157317 0.704163 -0.0031 0
0.157316 0.704162 -0.0031 0
0.157315 0.704161 -0.003 0
0.157314 0.704161 -0.003 0
0.157314 0.70416 -0.0034 0
0.157314 0.704159 -0.0034 0
0.157314 0.704158 -0.0034 0
0.157313 0.704157 -0.0027 0
0.157311 0.704156 -0.0027 0
0.157308 0.703155 -0.0031 0
0.157309 0.704153 -0.0031 0
0.157309 0.704153 -0.004 0
0.157308 0.704152 -0.004 0
0.157307 0.704152 -0.0025 0
0.157306 0.704151 -0.0025 0
0.157306 0.704149 -0.0031 0
0.157306 0.704149 -0.0031 0
0.157306 0.704147 -0.0036 0
0.157305 0.704147 -0.0036 0
0.157305 0.704143 -0.0031 0
0.157305 0.704142 -0.0031 0
0.157304 0.704141 -0.0026 0
0.157304 0.704141 -0.0026 0
0.15718 0.704167 -0.003 0
0.157303 0.704138 -0.003 0
0.157303 0.704137 -0.0039 0
0.15718 0.704163 -0.0039 0
0.157181 0.704161 -0.0029 0
0.157182 0.704161 -0.0029 0
0.157182 0.704162 -0.0031 0
0.157182 0.70416 -0.0031 0
0.157176 0.70116 -0.0032 0
0.157182 0.704159 -0.0032 0
0.157182 0.704158 -0.0031 0
0.157181 0.703157 -0.0031 0
0.157183 0.704156 -0.0031 0
0.157183 0.704155 -0.0034 0
0.157185 0.704154 -0.0034 0
0.157186 0.704155 -0.003 0
0.157186 0.704155 -0.003 0
0.157186 0.704154 -0.003 0
0.157186 0.704153 -0.003 0
0.157187 0.704152 -0.0034 0
0.157187 0.70415 -0.0034 0
0.157187 0.704148 -0.0034 0
0.157311 0.70412 -0.0029 0
0.15731 0.704119 -0.0029 0
0.157311 0.704117 -0.0031 0
0.157311 0.704115 -0.0031 0
0.157312 0.704115 -0.0035 0
0.15731 0.703114 -0.0035 0
0.157312 0.704113 -0.0036 0
0.157312 0.704112 -0.0036 0
0.157312 0.704111 -0.0036 0
0.157312 0.70411 -0.0034 0
0.157311 0.704109 -0.0034 0
0.157311 0.704108 -0.0034 0
0.15731 0.704108 -0.0034 0
0.15731 0.704107 -0.0034 0
0.157309 0.704107 -0.0034 0
0.157309 0.704107 -0.0032 0
0.157308 0.704106 -0.0032 0
0.157308 0.704105 -0.0032 0
0.157307 0.704104 -0.0036 0
0.157307 0.704104 -0.0029 0
0.157307 0.704104 -0.0029 0
0.157305 0.704104 -0.0029 0
0.157182 0.70413 -0.0036 0
0.157181 0.704131 -0.0029 0
0.157182 0.704131 -0.0029 0
0.157182 0.704131 -0.0029 0
0.157181 0.704129 -0.0034 0
0.157181 0.704128 -0.0031 0
0.157304 0.7041 -0.0031 0
0.157304 0.7041 -0.0031 0
0.157179 0.704128 -0.0033 0
0.157179 0.704127 -0.0034 0
0.157179 0.704126 -0.0034 0
0.157179 0.704125 -0.0032 0
0.157179 0.704125 -0.0032 0
0.157302 0.704096 -0.0034 0
0.157301 0.704095 -0.0034 0
0.157301 0.704094 -0.0031 0
0.1573 0.704094 -0.0031 0
0.157176 0.704121 -0.0028 0
0.157297 0.704093 -0.0028 0
0.157296 0.704093 -0.0034 0
0.157295 0.704093 -0.0034 0
0.157295 0.704092 -0.0034 0
0.157295 0.70409 -0.0034 0
0.157294 0.704089 -0.0034 0
0.157288 0.701088 -0.0034 0
0.157294 0.704087 -0.0034 0
0.157295 0.704087 -0.003 0
0.157297 0.704085 -0.003 0
0.157297 0.704084 -0.0037 0
0.157297 0.704082 -0.0037 0
0.157297 0.704082 -0.0026 0
0.157297 0.704081 -0.0026 0
0.157296 0.704079 -0.0032 0
0.157296 0.704078 -0.0032 0
0.157296 0.704078 -0.0038 0
0.157295 0.704078 -0.0038 0
0.157295 0.704077 -0.0038 0
0.157296 0.704075 -0.0028 0
0.157296 0.704074 -0.0036 0
0.157296 0.704074 -0.0036 0
0.157296 0.704073 -0.0036 0
0.157295 0.704073 -0.0035 0
0.157172 0.704099 -0.0035 0
0.157171 0.704098 -0.0031 0
0.157171 0.704096 -0.0031 0
0.15717 0.704094 -0.0031 0
0.157171 0.704093 -0.0034 0
0.15717 0.704091 -0.003 0
0.15717 0.70409 -0.003 0
0.15717 0.704089 -0.003 0
0.15717 0.704088 -0.0032 0
0.15717 0.704086 -0.0032 0
0.157169 0.704085 -0.0031 0
0.15717 0.704083 -0.0031 0
0.157169 0.704082 -0.0032 0
0.157169 0.704081 -0.0032 0
0.157169 0.70408 -0.0035 0
0.157169 0.704079 -0.0035 0
0.157169 0.704078 -0.0035 0
0.157163 0.701077 -0.0029 0
0.157168 0.704076 -0.0029 0
0.157169 0.704075 -0.0033 0
0.157168 0.704074 -0.0033 0
0.157168 0.704073 -0.0035 0
0.157168 0.704072 -0.0035 0
0.157168 0.704071 -0.0033 0
0.157169 0.704069 -0.0033 0
0.157169 0.704068 -0.0033 0
0.157292 0.70404 -0.0036 0
0.157291 0.703039 -0.0028 0
0.157293 0.704038 -0.0028 0
0.157293 0.704036 -0.0028 0
0.157293 0.704035 -0.0036 0
0.157292 0.704033 -0.0036 0
0.157292 0.704032 -0.0032 0
0.157291 0.70403 -0.0032 0
0.157168 0.704057 -0.0032 0
0.157168 0.704056 -0.0035 0
0.157291 0.704028 -0.0034 0
0.157292 0.704026 -0.0034 0
0.157292 0.704026 -0.0034 0
0.157292 0.704025 -0.0031 0
0.157292 0.704025 -0.0031 0
0.157286 0.701023 -0.0033 0
0.157293 0.704021 -0.0033 0
0.157292 0.704019 -0.0034 0
0.157292 0.704018 -0.0034 0
0.157292 0.704017 -0.0031 0
0.157291 0.704016 -0.0031 0
0.15729 0.704016 -0.0037 0
0.157291 0.704014 -0.0037 0
0.157291 0.704013 -0.0031 0
0.157291 0.704011 -0.0031 0
0.157291 0.704009 -0.0031 0
0.15729 0.704008 -0.003 0
0.15729 0.704006 -0.0034 0
0.157289 0.704005 -0.0034 0
0.157288 0.704005 -0.0034 0
0.157287 0.704003 -0.0031 0
0.157287 0.704003 -0.0031 0
0.157287 0.704003 -0.0036 0
0.157287 0.704002 -0.0036 0
0.157287 0.704001 -0.0032 0
0.157287 0.704 -0.0032 0
0.157286 0.704 -0.0032 0
0.157286 0.704 -0.0032 0
0.157285 0.703999 -0.0032 0
0.157285 0.703998 -0.0032 0
0.157284 0.703998 -0.0032 0
0.157283 0.703997 -0.0034 0
0.157282 0.703996 -0.0034 0
0.157282 0.703995 -0.0033 0
0.157282 0.703995 -0.0033 0
0.157282 0.703994 -0.0033 0
0.157281 0.703993 -0.0033 0
0.157281 0.703991 -0.0033 0
0.15728 0.70399 -0.0034 0
0.157279 0.703989 -0.0034 0
0.157279 0.703988 -0.0031 0
0.157279 0.703987 -0.0031 0
0.157278 0.703986 -0.003 0
0.157278 0.703985 -0.003 0
0.157278 0.703984 -0.004 0
0.157277 0.703983 -0.004 0
0.157277 0.703982 -0.0034 0
0.157277 0.70398 -0.0034 0
0.157276 0.703978 -0.0031 0
0.157276 0.703977 -0.0031 0
0.157276 0.703976 -0.0034 0
0.157277 0.703975 -0.0034 0
0.157148 0.701002 -0.0028 0
0.157154 0.704002 -0.0028 0
0.157277 0.703974 -0.0033 0
0.157277 0.703974 -0.0033 0
0.157277 0.703973 -0.0032 0
0.157277 0.703972 -0.0032 0
0.157277 0.70397 -0.0032 0
0.157276 0.70397 -0.0035 0
0.157277 0.703969 -0.0035 0
0.157277 0.703968 -0.0033 0
0.157277 0.703967 -0.0033 0
0.157277 0.703966 -0.0031 0
0.157276 0.703966 -0.0031 0
0.157276 0.703963 -0.0034 0
0.157275 0.703963 -0.0034 0
0.157275 0.703962 -0.0031 0
0.157276 0.703962 -0.0031 0
0.157275 0.70396 -0.0035 0
0.157275 0.70396 -0.0035 0
0.157274 0.703959 -0.0032 0
0.157274 0.703958 -0.0034 0
0.157274 0.703958 -0.0034 0
0.157274 0.703957 -0.0034 0
0.157274 0.703956 -0.0029 0
0.157274 0.703956 -0.0029 0
0.157275 0.703955 -0.003 0
0.157276 0.703955 -0.003 0
0.157276 0.703954 -0.0035 0
0.157269 0.700952 -0.0035 0
0.157275 0.703949 -0.0034 0
0.157275 0.703947 -0.0034 0
0.157275 0.703946 -0.0027 0
0.157275 0.703946 -0.0027 0
0.157276 0.703945 -0.0035 0
0.157276 0.703942 -0.0035 0
0.157276 0.703941 -0.0031 0
0.157276 0.70394 -0.0031 0
0.157276 0.703939 -0.0037 0
0.157276 0.703939 -0.0037 0
0.157276 0.703938 -0.0037 0
0.157276 0.703937 -0.0028 0
0.157276 0.703937 -0.0028 0
0.157275 0.703934 -0.0034 0
0.157275 0.703933 -0.0034 0
0.157275 0.703931 -0.003 0
0.157274 0.70393 -0.003 0
0.157275 0.703928 -0.0031 0
0.157274 0.703926 -0.0031 0
0.157273 0.703924 -0.0034 0
0.157271 0.703923 -0.0034 0
0.15727 0.703922 -0.0033 0
0.15727 0.70392 -0.0033 0
0.157269 0.703919 -0.0034 0
0.157269 0.703918 -0.0034 0
0.157268 0.703917 -0.0031 0
0.157268 0.703917 -0.0031 0
0.157267 0.703917 -0.0031 0
0.157267 0.703917 -0.0035 0
0.157267 0.703916 -0.0035 0
0.157267 0.703914 -0.0029 0
0.157267 0.703914 -0.0029 0
0.157267 0.703913 -0.0035 0
0.157267 0.703913 -0.0035 0
0.157267 0.703913 -0.003 0
0.157266 0.703912 -0.003 0
0.157267 0.703913 -0.0032 0
0.157266 0.703913 -0.0032 0
0.157267 0.703912 -0.0031 0
0.157266 0.703912 -0.0031 0
0.157267 0.703911 -0.0031 0
0.157268 0.70391 -0.0031 0
0.157269 0.703907 -0.0031 0
0.157269 0.703906 -0.0031 0
0.157269 0.703905 -0.0031 0
0.157269 0.703902 -0.0031 0
0.157269 0.7039 -0.003 0
0.157268 0.7039 -0.003 0
0.157268 0.703899 -0.003 0
0.157144 0.703925 -0.0034 0
0.157144 0.703924 -0.0034 0
0.157144 0.703923 -0.0034 0
0.157147 0.705921 -0.003 0
0.157143 0.70392 -0.003 0
0.157143 0.703919 -0.003 0
0.157143 0.703918 -0.003 0
0.157142 0.703918 -0.003 0
0.157142 0.703917 -0.003 0
0.157264 0.703889 -0.0036 0
0.157141 0.703916 -0.0036 0
0.157141 0.703916 -0.0036 0
0.157141 0.703914 -0.0031 0
0.15726 0.703884 -0.0037 0
0.157267 0.703884 -0.0037 0
0.157411 0.703855 -0.0037 0
0.158053 0.703715 0.0103 0
0.158276 0.703655 0.0468 0
0.158617 0.703566 0.0468 0
0.158864 0.70248 -0.003 0
0.158895 0.702456 -0.003 0
0.158926 0.702434 0.0323 0
0.158806 0.702459 0.0323 0
0.158662 0.702522 0.0323 0
0.158182 0.702677 0.0024 0
0.158045 0.702718 0.0075 0
0.158025 0.701727 0.0075 0
0.158012 0.701734 0.0075 0
0.157997 0.701748 -0.0063 0
0.157995 0.701753 -0.0043 0
0.157872 0.701784 -0.0043 0
0.157749 0.701811 -0.0039 0
0.157753 0.700811 -0.0039 0
0.157522 0.701866 0.0023 0
0.157408 0.700889 0.0023 0
0.157159 0.700937 0.0088 0
0.157034 0.701958 0.0088 0
0.157026 0.700952 -0.0018 0
0.156535 0.701047 -0.0018 0
0.15654 0.702035 0.0037 0
0.156424 0.702052 0.0037 0
0.156434 0.702047 -0.0014 0
0.156433 0.701054 -0.0014 0
0.156432 0.701064 -0.0023 0
0.156434 0.701073 -0.0023 0
0.156435 0.701077 0.0022 0
0.156432 0.701081 0.0022 0
0.156432 0.701081 -0.0013 0
0.156433 0.70108 -0.0013 0
0.156434 0.701079 -0.0004 0
0.156437 0.701081 -0.0004 0
0.156439 0.701082 0.0026 0
0.15644 0.701082 0.0026 0
0.156443 0.70108 0.0002 0
0.156443 0.701078 0.0002 0
0.156445 0.702079 -0.0002 0
0.156446 0.70108 -0.0002 0
0.156444 0.701081 0.0022 0
