ply
format ascii 1.0
element vertex 1670
property float x
property float y
property float z
property float intensity
end_header
0.0390007 0.71778 -0.0129 0
0.0391241 0.717755 -0.0129 0
0.0391237 0.717754 -0.0134 0
0.0391233 0.717752 -0.0134 0
0.0391227 0.71775 -0.0134 0
0.0391227 0.717749 -0.0135 0
0.0391227 0.717747 -0.0135 0
0.0391223 0.717746 -0.0129 0
0.0391225 0.717744 -0.0129 0
0.0391227 0.71774 -0.0128 0
0.0391221 0.717738 -0.0128 0
0.0391215 0.717737 -0.0137 0
0.0391211 0.717736 -0.0137 0
0.0391204 0.717735 -0.0137 0
0.0391201 0.717734 -0.0127 0
0.0391198 0.717732 -0.0127 0
0.0391188 0.71773 -0.0134 0
0.0389947 0.717752 -0.0134 0
0.0389937 0.71775 -0.0129 0
0.0391167 0.717726 -0.0129 0
0.0389923 0.717748 -0.0133 0
0.0389917 0.717747 -0.0133 0
0.0389912 0.717746 -0.0133 0
0.0389908 0.717745 -0.0131 0
0.0389904 0.717744 -0.0131 0
0.0389898 0.717742 -0.0128 0
0.0389898 0.717741 -0.0128 0
0.0389894 0.71774 -0.0133 0
0.0389898 0.717739 -0.0133 0
0.0389894 0.717737 -0.0128 0
0.0389894 0.717736 -0.0128 0
0.0389894 0.717734 -0.0129 0
0.0389899 0.717732 -0.0129 0
0.0389898 0.717731 -0.0129 0
0.0389892 0.71773 -0.0132 0
0.0389881 0.717729 -0.0132 0
0.0389873 0.717728 -0.0131 0
0.0391098 0.717702 -0.013 0
0.0390919 0.714726 -0.013 0
0.0389859 0.717723 -0.013 0
0.0389852 0.717722 -0.013 0
0.0389846 0.717721 -0.013 0
0.0389841 0.717719 -0.0128 0
0.0389837 0.717718 -0.0128 0
0.0389837 0.717717 -0.0128 0
0.038984 0.717715 -0.0135 0
0.0389842 0.717714 -0.0133 0
0.0389844 0.717713 -0.0133 0
0.0389836 0.717712 -0.0133 0
0.0389835 0.717711 -0.0124 0
0.0389834 0.717709 -0.0124 0
0.0389836 0.717709 -0.0135 0
0.038984 0.717708 -0.0135 0
0.0389839 0.717708 -0.0132 0
0.0389834 0.717708 -0.0132 0
0.0389836 0.717707 -0.0132 0
0.0389837 0.717707 -0.0123 0
0.0389829 0.717706 -0.0123 0
0.0389823 0.717706 -0.0132 0
0.0389831 0.717705 -0.0132 0
0.0389831 0.717704 -0.0129 0
0.0389833 0.717703 -0.0129 0
0.0389843 0.717703 -0.0128 0
0.0389848 0.717702 -0.0128 0
0.0389847 0.717702 -0.0127 0
0.0389851 0.717702 -0.0127 0
0.0389848 0.717702 -0.0132 0
0.0389844 0.717702 -0.0132 0
0.0389841 0.717702 -0.0129 0
0.0389833 0.717701 -0.0129 0
0.0389825 0.7177 -0.0132 0
0.039017 0.7167 -0.0132 0
0.0389816 0.717698 -0.0132 0
0.0389815 0.717695 -0.0132 0
0.0389811 0.717694 -0.013 0
0.0389807 0.717693 -0.013 0
0.0389803 0.717692 -0.0128 0
0.0389799 0.717692 -0.0128 0
0.0389795 0.71769 -0.0128 0
0.0389794 0.71769 -0.0128 0
0.0389792 0.71769 -0.0128 0
0.0389789 0.717689 -0.0128 0
0.0389786 0.717688 -0.0128 0
0.0389781 0.717687 -0.0129 0
0.0389789 0.717685 -0.0129 0
0.038979 0.717684 -0.013 0
0.0389791 0.717683 -0.013 0
0.0389783 0.717681 -0.013 0
0.0389782 0.71768 -0.0134 0
0.038978 0.717679 -0.0134 0
0.0389776 0.717677 -0.0128 0
0.0389778 0.717676 -0.0128 0
0.0389774 0.717674 -0.0132 0
0.0389776 0.717673 -0.0132 0
0.038978 0.717672 -0.0126 0
0.0389778 0.717672 -0.0126 0
0.0389779 0.717671 -0.0126 0
0.0390131 0.71667 -0.0129 0
0.0389774 0.717668 -0.0129 0
0.0389777 0.717668 -0.0133 0
0.0389779 0.717667 -0.0133 0
0.039102 0.717643 -0.0128 0
0.0391018 0.717642 -0.0128 0
0.0391015 0.717641 -0.0127 0
0.0391012 0.71764 -0.0127 0
0.0391007 0.717639 -0.0127 0
0.0391011 0.717638 -0.0131 0
0.039101 0.717637 -0.0131 0
0.0391014 0.717634 -0.0128 0
0.0391018 0.717634 -0.0128 0
0.0391019 0.717634 -0.0131 0
0.0391021 0.717633 -0.0131 0
0.0391015 0.717632 -0.0131 0
0.039101 0.717631 -0.0132 0
0.0391709 0.715631 -0.0132 0
0.0391 0.717628 -0.0128 0
0.0390999 0.717628 -0.0128 0
0.0390999 0.717627 -0.0133 0
0.0390992 0.717626 -0.0133 0
0.0390986 0.717625 -0.0126 0
0.0390984 0.717624 -0.0126 0
0.0390975 0.717623 -0.0131 0
0.0390959 0.717621 -0.0131 0
0.0390957 0.71762 -0.013 0
0.0390965 0.717619 -0.013 0
0.0390964 0.717618 -0.013 0
0.0390965 0.717617 -0.013 0
0.0390965 0.717616 -0.013 0
0.0390963 0.717616 -0.0133 0
0.0390958 0.717615 -0.0133 0
0.0389722 0.717636 -0.0126 0
0.0389716 0.717636 -0.0126 0
0.0389717 0.717635 -0.0126 0
0.0390073 0.716635 -0.0132 0
0.0389721 0.717633 -0.0132 0
0.0389724 0.717632 -0.0119 0
0.0390079 0.716632 -0.0119 0
0.0389733 0.717631 -0.0119 0
0.0389746 0.71763 -0.0137 0
0.0389753 0.717629 -0.0137 0
0.0389758 0.717627 -0.0132 0
0.038976 0.717626 -0.0132 0
0.0389761 0.717626 -0.0131 0
0.038976 0.717624 -0.0131 0
0.0389755 0.717624 -0.013 0
0.0389756 0.717621 -0.013 0
0.038976 0.717621 -0.0123 0
0.038976 0.71762 -0.0123 0
0.0389754 0.717619 -0.0125 0
0.0389752 0.717619 -0.0125 0
0.0389755 0.717617 -0.0125 0
0.0389756 0.717617 -0.0135 0
0.0389756 0.717616 -0.0135 0
0.0389758 0.717615 -0.0135 0
0.0389755 0.717614 -0.0134 0
0.0389763 0.717612 -0.0132 0
0.0389765 0.717611 -0.0132 0
0.0389764 0.717611 -0.0132 0
0.0389763 0.717609 -0.0128 0
0.038976 0.717608 -0.0128 0
0.0389752 0.717608 -0.0128 0
0.0389742 0.717607 -0.0131 0
0.0389729 0.717607 -0.0131 0
0.0389728 0.717606 -0.0131 0
0.0389726 0.717605 -0.0135 0
0.0389724 0.717605 -0.0135 0
0.0389721 0.717604 -0.013 0
0.0389718 0.717604 -0.013 0
0.0389715 0.717603 -0.013 0
0.0389712 0.717602 -0.0129 0
0.0389711 0.7176 -0.0129 0
0.038971 0.717599 -0.0125 0
0.038971 0.717599 -0.0125 0
0.038971 0.717598 -0.0129 0
0.0389708 0.717597 -0.0129 0
0.0390055 0.716597 -0.0127 0
0.0389704 0.717596 -0.0127 0
0.0389703 0.717595 -0.0127 0
0.0389697 0.717594 -0.0131 0
0.038969 0.717593 -0.0131 0
0.0389683 0.717591 -0.0131 0
0.0389668 0.717591 -0.0127 0
0.0389661 0.71759 -0.0126 0
0.0389653 0.71759 -0.0126 0
0.0389647 0.717589 -0.013 0
0.0390354 0.715591 -0.013 0
0.0389647 0.717589 -0.013 0
0.0389645 0.717588 -0.0131 0
0.0389642 0.717587 -0.0131 0
0.0389634 0.717585 -0.0129 0
0.0389628 0.717585 -0.0129 0
0.0389623 0.717585 -0.0131 0
0.0389615 0.717585 -0.0131 0
0.0389606 0.717584 -0.0126 0
0.0389605 0.717583 -0.0126 0
0.0389606 0.717582 -0.0128 0
0.0389611 0.717582 -0.0128 0
0.0389607 0.717581 -0.0133 0
0.0389596 0.71758 -0.0133 0
0.0390827 0.717556 -0.0129 0
0.0390822 0.717556 -0.0129 0
0.0391869 0.714557 -0.013 0
0.0389582 0.717576 -0.013 0
0.0389579 0.717575 -0.013 0
0.0390819 0.717551 -0.013 0
0.0390818 0.717549 -0.0126 0
0.0390821 0.717549 -0.0126 0
0.0390826 0.717547 -0.0126 0
0.0390825 0.717545 -0.0132 0
0.0390823 0.717544 -0.0128 0
0.0390829 0.717543 -0.0128 0
0.0390834 0.717541 -0.0128 0
0.039084 0.71754 -0.0131 0
0.0390849 0.717539 -0.0131 0
0.0390853 0.717537 -0.0129 0
0.0390856 0.717537 -0.0129 0
0.0390859 0.717534 -0.013 0
0.0390857 0.717533 -0.013 0
0.0390862 0.717532 -0.0128 0
0.0390863 0.717532 -0.0128 0
0.0390878 0.717529 -0.0129 0
0.0390883 0.717528 -0.0129 0
0.0390886 0.717527 -0.0132 0
0.0390892 0.717526 -0.0132 0
0.0390889 0.717524 -0.0135 0
0.0390885 0.717522 -0.0135 0
0.0390884 0.717521 -0.0131 0
0.039089 0.717519 -0.0131 0
0.0390895 0.717518 -0.0129 0
0.0390898 0.717518 -0.0129 0
0.0390904 0.717517 -0.013 0
0.0389669 0.717536 -0.013 0
0.0389669 0.717535 -0.013 0
0.0389668 0.717534 -0.013 0
0.0389668 0.717532 -0.0133 0
0.038967 0.717529 -0.0133 0
0.038967 0.717529 -0.0131 0
0.0389669 0.717528 -0.0131 0
0.0389667 0.717527 -0.0131 0
0.0389664 0.717524 -0.0129 0
0.0389662 0.717523 -0.0126 0
0.0389662 0.717521 -0.0126 0
0.0389668 0.717519 -0.0129 0
0.0389674 0.717518 -0.0129 0
0.0389676 0.717518 -0.0129 0
0.0389674 0.717517 -0.0129 0
0.0389681 0.717516 -0.0129 0
0.0389684 0.717516 -0.0128 0
0.0389687 0.717515 -0.0128 0
0.0389684 0.717514 -0.0128 0
0.0389675 0.717513 -0.0127 0
0.0390906 0.71749 -0.0127 0
0.0389667 0.717511 -0.0132 0
0.0389667 0.717511 -0.0132 0
0.0389672 0.717511 -0.0131 0
0.0389673 0.717511 -0.0131 0
0.0389674 0.717511 -0.0132 0
0.0390913 0.717487 -0.0132 0
0.0390913 0.717487 -0.0132 0
0.0390912 0.717487 -0.0131 0
0.0389672 0.71751 -0.0131 0
0.0389668 0.71751 -0.0131 0
0.0389664 0.717511 -0.0131 0
0.0389663 0.71751 -0.0132 0
0.0390897 0.717487 -0.0132 0
0.0390903 0.717487 -0.0128 0
0.0390903 0.717486 -0.0128 0
0.0390905 0.717486 -0.0128 0
0.0390924 0.717484 -0.0131 0
0.039128 0.716484 -0.0131 0
0.0390927 0.717483 -0.0127 0
0.0390931 0.717482 -0.0127 0
0.039093 0.71748 -0.0128 0
0.0390934 0.717478 -0.0133 0
0.0390936 0.717477 -0.0133 0
0.0389718 0.717499 -0.0124 0
0.0389728 0.717499 -0.0124 0
0.0389726 0.717498 -0.0124 0
0.0389721 0.717496 -0.0129 0
0.0389712 0.717495 -0.0133 0
0.0389707 0.717494 -0.0133 0
0.0389699 0.717493 -0.0131 0
0.0390931 0.717468 -0.0131 0
0.0390915 0.717467 -0.0132 0
0.0391261 0.716467 -0.0132 0
0.0390905 0.717465 -0.0132 0
0.0390902 0.717463 -0.0132 0
0.0390903 0.717461 -0.0131 0
0.0390902 0.717459 -0.0131 0
0.0390898 0.717457 -0.0128 0
0.0390893 0.717455 -0.0128 0
0.039088 0.717451 -0.0129 0
0.0390871 0.717449 -0.0129 0
0.0390862 0.717447 -0.0128 0
0.0390858 0.717444 -0.0128 0
0.0390856 0.717443 -0.0127 0
0.0390855 0.717441 -0.0127 0
0.0390847 0.71744 -0.0126 0
0.0390841 0.717438 -0.0126 0
0.0390836 0.717437 -0.0126 0
0.038959 0.717458 -0.0127 0
0.0389577 0.717455 -0.0127 0
0.0389576 0.717453 -0.0129 0
0.0389575 0.71745 -0.0129 0
0.0389575 0.717448 -0.013 0
0.0389567 0.717447 -0.013 0
0.0390806 0.717421 -0.0131 0
0.0390811 0.71742 -0.0131 0
0.0390814 0.717419 -0.0128 0
0.0390812 0.717417 -0.0128 0
0.0390813 0.717416 -0.0122 0
0.039082 0.717414 -0.0122 0
0.0390824 0.717413 -0.013 0
0.0390824 0.717412 -0.013 0
0.0390823 0.717412 -0.0131 0
0.0390821 0.717412 -0.0131 0
0.0389582 0.717434 -0.0127 0
0.0389588 0.717432 -0.0129 0
0.0389593 0.717431 -0.0129 0
0.0389593 0.717431 -0.0129 0
0.0389595 0.717429 -0.0132 0
0.0390834 0.717405 -0.0129 0
0.039083 0.717404 -0.0129 0
0.0390821 0.717403 -0.0129 0
0.0390817 0.717402 -0.0131 0
0.0390815 0.717401 -0.0131 0
0.0390812 0.7174 -0.0131 0
0.0390809 0.717398 -0.0131 0
0.0390814 0.717398 -0.0131 0
0.0390814 0.717397 -0.0129 0
0.0390815 0.717395 -0.0129 0
0.0390816 0.717394 -0.0129 0
0.0390815 0.717393 -0.0128 0
0.0390818 0.717393 -0.0128 0
0.0390807 0.717392 -0.0128 0
0.0390805 0.717392 -0.0131 0
0.0390803 0.717391 -0.0131 0
0.0390801 0.717389 -0.0131 0
0.0390805 0.717388 -0.0131 0
0.0390806 0.717384 -0.0128 0
0.0390804 0.717383 -0.0128 0
0.0390801 0.717383 -0.0132 0
0.0390798 0.717383 -0.0132 0
0.0390792 0.717382 -0.0124 0
0.0390792 0.717381 -0.0124 0
0.0390785 0.71738 -0.0124 0
0.0390779 0.71738 -0.0127 0
0.0390775 0.71738 -0.0127 0
0.0390777 0.717379 -0.0128 0
0.0390772 0.717378 -0.0128 0
0.039077 0.717376 -0.0132 0
0.0390758 0.717375 -0.0132 0
0.0390754 0.717375 -0.0132 0
0.0390744 0.717375 -0.013 0
0.0390733 0.717374 -0.013 0
0.0390718 0.717372 -0.013 0
0.0390712 0.717371 -0.013 0
0.0390707 0.717371 -0.0128 0
0.0390702 0.71737 -0.0128 0
0.0390692 0.717368 -0.0127 0
0.0390683 0.717368 -0.0127 0
0.0390668 0.717367 -0.0132 0
0.0390656 0.717366 -0.0132 0
0.0390649 0.717365 -0.013 0
0.0390648 0.717364 -0.013 0
0.0390644 0.717363 -0.013 0
0.0390641 0.717362 -0.013 0
0.039064 0.717361 -0.0129 0
0.0389381 0.717382 -0.0126 0
0.0389375 0.717381 -0.0126 0
0.038937 0.717379 -0.0126 0
0.039325 0.706385 -0.0132 0
0.038936 0.717377 -0.0132 0
0.0389358 0.717376 -0.0132 0
0.038935 0.717376 -0.0133 0
0.0389344 0.717375 -0.0133 0
0.0389341 0.717374 -0.0127 0
0.0389339 0.717373 -0.0127 0
0.0389342 0.717371 -0.0132 0
0.0389342 0.717371 -0.0132 0
0.0389341 0.71737 -0.0136 0
0.0389339 0.71737 -0.0136 0
0.0389335 0.717369 -0.0129 0
0.0389338 0.717366 -0.0129 0
0.0389349 0.717364 -0.0129 0
0.0389356 0.717363 -0.013 0
0.0389368 0.717363 -0.013 0
0.0389384 0.717364 -0.0138 0
0.0389395 0.717364 -0.0138 0
0.0389395 0.717363 -0.0127 0
0.0389393 0.717363 -0.0127 0
0.0389395 0.717363 -0.0127 0
0.0389395 0.717362 -0.0127 0
0.0390629 0.717337 -0.0125 0
0.0390626 0.717336 -0.0125 0
0.0390622 0.717335 -0.0134 0
0.0390626 0.717334 -0.0134 0
0.0390628 0.717334 -0.0134 0
0.0390628 0.717333 -0.0131 0
0.0390627 0.717332 -0.0131 0
0.0389387 0.717354 -0.0126 0
0.0389379 0.717354 -0.0126 0
0.0389375 0.717354 -0.013 0
0.0389371 0.717354 -0.013 0
0.0389374 0.717354 -0.013 0
0.0389384 0.717353 -0.0128 0
0.0389389 0.717352 -0.0128 0
0.0389391 0.717351 -0.0134 0
0.039063 0.717326 -0.0129 0
0.0390631 0.717324 -0.0129 0
0.0389391 0.717346 -0.0129 0
0.0389398 0.717345 -0.0127 0
0.0389398 0.717344 -0.0127 0
0.0389403 0.717343 -0.0133 0
0.0389403 0.71734 -0.0133 0
0.0389408 0.717339 -0.0129 0
0.0389419 0.717337 -0.0129 0
0.0389426 0.717335 -0.0129 0
0.0389428 0.717334 -0.0129 0
0.0390664 0.717311 -0.0129 0
0.0389429 0.717334 -0.0135 0
0.0390316 0.71831 -0.0135 0
0.0389428 0.717332 -0.0135 0
0.0390672 0.717309 -0.0134 0
0.0390674 0.717308 -0.0134 0
0.0390676 0.717306 -0.0132 0
0.0390677 0.717305 -0.0128 0
0.039138 0.715305 -0.0128 0
0.0390673 0.717304 -0.0128 0
0.0390677 0.717303 -0.0128 0
0.039067 0.717302 -0.0128 0
0.0389433 0.717324 -0.0128 0
0.0390673 0.7173 -0.013 0
0.0390672 0.717299 -0.0131 0
0.0389436 0.717321 -0.0131 0
0.0389436 0.71732 -0.0131 0
0.0389435 0.717319 -0.0127 0
0.0389434 0.717315 -0.0133 0
0.0390676 0.71729 -0.0133 0
0.0390678 0.71729 -0.0125 0
0.0390685 0.717289 -0.0125 0
0.0390694 0.717288 -0.0125 0
0.0390695 0.717287 -0.0137 0
0.0390695 0.717285 -0.0137 0
0.0390693 0.717284 -0.0131 0
0.0390689 0.717281 -0.0131 0
0.0390686 0.71728 -0.0129 0
0.0390683 0.717279 -0.0129 0
0.0390679 0.717279 -0.0133 0
0.0390674 0.717279 -0.0133 0
0.0389426 0.717301 -0.0133 0
0.0389421 0.7173 -0.0128 0
0.0389408 0.717298 -0.0129 0
0.0389403 0.717297 -0.0129 0
0.0389401 0.717296 -0.0129 0
0.0389397 0.717296 -0.0133 0
0.0389403 0.717295 -0.0133 0
0.0389408 0.717295 -0.0133 0
0.038941 0.717295 -0.0129 0
0.0389409 0.717294 -0.0131 0
0.0389406 0.717294 -0.0131 0
0.0389412 0.717292 -0.0131 0
0.0389416 0.717291 -0.0127 0
0.038941 0.717289 -0.0127 0
0.0389409 0.717288 -0.0131 0
0.0389404 0.717286 -0.0132 0
0.0389403 0.717285 -0.0132 0
0.0389396 0.717283 -0.013 0
0.0389403 0.717282 -0.013 0
0.0389399 0.717281 -0.0129 0
0.0389399 0.717278 -0.0129 0
0.0389402 0.717277 -0.0126 0
0.0389406 0.717276 -0.0126 0
0.0389407 0.717275 -0.013 0
0.0389403 0.717273 -0.013 0
0.0389406 0.717272 -0.013 0
0.0389406 0.717271 -0.013 0
0.0389409 0.71727 -0.0126 0
0.0389411 0.717269 -0.0126 0
0.0389412 0.717268 -0.0127 0
0.0389411 0.717267 -0.0127 0
0.0389412 0.717266 -0.013 0
0.0389409 0.717265 -0.013 0
0.0389411 0.717265 -0.0127 0
0.0389411 0.717265 -0.0127 0
0.0389407 0.717264 -0.0132 0
0.0389404 0.717264 -0.0132 0
0.0389401 0.717263 -0.0126 0
0.0389398 0.717263 -0.0126 0
0.0389395 0.717263 -0.0126 0
0.0389397 0.717263 -0.0126 0
0.0389401 0.717263 -0.0131 0
0.0389406 0.717262 -0.0131 0
0.0389408 0.717261 -0.0131 0
0.0389405 0.71726 -0.013 0
0.0389409 0.717259 -0.013 0
0.0389413 0.717258 -0.0126 0
0.0389412 0.717255 -0.0126 0
0.0389416 0.717253 -0.0128 0
0.038942 0.717252 -0.0128 0
0.0389422 0.717251 -0.0128 0
0.0389426 0.71725 -0.0127 0
0.0389426 0.71725 -0.0127 0
0.0389426 0.717249 -0.0127 0
0.0389427 0.717248 -0.0131 0
0.0390493 0.714248 -0.0131 0
0.0389441 0.717245 -0.0131 0
0.0389443 0.717244 -0.0131 0
0.0389446 0.717243 -0.013 0
0.0389444 0.717242 -0.013 0
0.0389448 0.717242 -0.013 0
0.0389449 0.717241 -0.0133 0
0.0389449 0.71724 -0.0133 0
0.0389451 0.717239 -0.0127 0
0.0389456 0.717238 -0.0133 0
0.0389459 0.717237 -0.0133 0
0.0389459 0.717237 -0.0133 0
0.0389459 0.717237 -0.0134 0
0.0389454 0.717236 -0.0134 0
0.0389454 0.717236 -0.0134 0
0.0389449 0.717235 -0.013 0
0.0389449 0.717233 -0.013 0
0.0389444 0.717232 -0.0128 0
0.0389445 0.717231 -0.0128 0
0.0389443 0.71723 -0.0131 0
0.0389445 0.71723 -0.0131 0
0.0389442 0.717229 -0.0127 0
0.0389441 0.717228 -0.0127 0
0.0389435 0.717228 -0.0134 0
0.0389433 0.717228 -0.0134 0
0.0389435 0.717227 -0.0134 0
0.0389442 0.717226 -0.0128 0
0.0389443 0.717226 -0.0128 0
0.0389443 0.717225 -0.013 0
0.0389441 0.717225 -0.013 0
0.0389436 0.717224 -0.013 0
0.0389436 0.717224 -0.0131 0
0.0389441 0.717223 -0.0131 0
0.038945 0.717223 -0.0129 0
0.0389457 0.717222 -0.0129 0
0.0389461 0.717221 -0.0129 0
0.0389466 0.71722 -0.0125 0
0.038947 0.71722 -0.0129 0
0.0389476 0.717219 -0.0129 0
0.0389479 0.717219 -0.0129 0
0.0390545 0.71422 -0.0128 0
0.0389492 0.717217 -0.0128 0
0.0389494 0.717216 -0.0128 0
0.0389503 0.717216 -0.0128 0
0.0389506 0.717216 -0.0128 0
0.0389504 0.717215 -0.0129 0
0.0389508 0.717214 -0.0129 0
0.0389511 0.717212 -0.0126 0
0.0389512 0.717211 -0.0126 0
0.0389512 0.71721 -0.0124 0
0.038951 0.717209 -0.0124 0
0.0389508 0.71721 -0.0127 0
0.0389509 0.71721 -0.0127 0
0.0389508 0.717209 -0.0127 0
0.0389514 0.717207 -0.013 0
0.0389513 0.717206 -0.0127 0
0.0389518 0.717204 -0.0127 0
0.0389517 0.717203 -0.0127 0
0.0389877 0.716202 -0.013 0
0.0389526 0.717201 -0.013 0
0.0389535 0.7172 -0.0128 0
0.0389539 0.7172 -0.0128 0
0.0389541 0.7172 -0.013 0
0.0389545 0.717199 -0.013 0
0.0389545 0.717199 -0.0129 0
0.0389543 0.717198 -0.0129 0
0.0389539 0.717197 -0.0129 0
0.0389533 0.717197 -0.0127 0
0.0389521 0.717196 -0.0134 0
0.0389512 0.717195 -0.0134 0
0.0389507 0.717193 -0.0134 0
0.0389505 0.717192 -0.0128 0
0.0389507 0.717192 -0.0128 0
0.0389506 0.717192 -0.0133 0
0.0390564 0.714194 -0.0133 0
0.038951 0.717191 -0.0133 0
0.0389514 0.71719 -0.013 0
0.0389515 0.717189 -0.013 0
0.0389513 0.717187 -0.013 0
0.0389504 0.717185 -0.0131 0
0.03895 0.717184 -0.0128 0
0.038949 0.717182 -0.0128 0
0.0389481 0.717181 -0.0132 0
0.038947 0.717179 -0.0132 0
0.0389467 0.717179 -0.0129 0
0.0389463 0.717178 -0.0129 0
0.0389455 0.717176 -0.013 0
0.0389451 0.717175 -0.013 0
0.0389449 0.717174 -0.0133 0
0.0389442 0.717173 -0.0133 0
0.0389435 0.717172 -0.0129 0
0.038943 0.717172 -0.0129 0
0.0389416 0.71717 -0.0129 0
0.0390117 0.715171 -0.0135 0
0.0389406 0.717169 -0.0135 0
0.0390116 0.71517 -0.0132 0
0.0389414 0.717168 -0.0132 0
0.0389414 0.717167 -0.0129 0
0.0389418 0.717165 -0.0129 0
0.0389416 0.717163 -0.0134 0
0.0389414 0.717162 -0.0134 0
0.0389411 0.71716 -0.0134 0
0.0390641 0.717136 -0.0125 0
0.0390641 0.717135 -0.0129 0
0.0390641 0.717135 -0.0129 0
0.0390639 0.717135 -0.0129 0
0.0389402 0.717158 -0.013 0
0.03894 0.717156 -0.0129 0
0.0390638 0.717132 -0.0129 0
0.0390643 0.717131 -0.0129 0
0.0389424 0.717151 -0.0128 0
0.0389438 0.71715 -0.0129 0
0.0389443 0.71715 -0.0129 0
0.0374968 0.758123 -0.0129 0
0.0389455 0.717149 -0.0131 0
0.0389811 0.71615 -0.0131 0
0.0389449 0.717148 -0.0131 0
0.0389444 0.717148 -0.0131 0
0.0390678 0.717125 -0.0128 0
0.0390674 0.717124 -0.0128 0
0.0390665 0.717123 -0.013 0
0.0390667 0.717122 -0.013 0
0.0390671 0.717121 -0.0128 0
0.0390677 0.717121 -0.0128 0
0.0390684 0.71712 -0.0131 0
0.0390687 0.71712 -0.0131 0
0.0390683 0.717118 -0.0126 0
0.0390679 0.717117 -0.0126 0
0.0390678 0.717117 -0.0126 0
0.0390674 0.717114 -0.0131 0
0.0390674 0.717112 -0.013 0
0.0390664 0.717111 -0.013 0
0.0390665 0.717111 -0.013 0
0.0390656 0.71711 -0.0126 0
0.0390655 0.717109 -0.0126 0
0.0390656 0.717108 -0.0132 0
0.0390654 0.717106 -0.0131 0
0.0390663 0.717106 -0.0131 0
0.039067 0.717106 -0.0131 0
0.0390672 0.717105 -0.0132 0
0.0390677 0.717104 -0.0132 0
0.0390674 0.717103 -0.0128 0
0.0390676 0.717102 -0.0128 0
0.0390677 0.717101 -0.0128 0
0.0390676 0.7171 -0.0127 0
0.0390674 0.7171 -0.0127 0
0.0390671 0.717099 -0.0129 0
0.0390668 0.717098 -0.0129 0
0.0390659 0.717096 -0.0128 0
0.0390661 0.717096 -0.0128 0
0.0390661 0.717095 -0.0126 0
0.0390669 0.717094 -0.0126 0
0.039067 0.717094 -0.0126 0
0.0390667 0.717094 -0.0132 0
0.0390669 0.717094 -0.0132 0
0.0390669 0.717091 -0.0129 0
0.0390667 0.71709 -0.0129 0
0.0390665 0.717088 -0.0134 0
0.0390666 0.717087 -0.0134 0
0.0389428 0.717108 -0.0134 0
0.0389424 0.717105 -0.013 0
0.0390134 0.715105 -0.013 0
0.038943 0.717102 -0.013 0
0.0389432 0.7171 -0.0132 0
0.0389424 0.717099 -0.0132 0
0.0389424 0.717098 -0.0132 0
0.038942 0.717097 -0.0129 0
0.0389418 0.717096 -0.0129 0
0.0389416 0.717094 -0.0131 0
0.0390651 0.71707 -0.0131 0
0.0389413 0.717091 -0.0131 0
0.0390118 0.715091 -0.0131 0
0.0390647 0.717066 -0.0128 0
0.0389407 0.717088 -0.0128 0
0.0389404 0.717086 -0.0128 0
0.0389398 0.717084 -0.0126 0
0.0389399 0.717084 -0.0126 0
0.0389394 0.717081 -0.0131 0
0.0389398 0.717081 -0.0131 0
0.0389391 0.717081 -0.0127 0
0.0389388 0.717079 -0.0127 0
0.039062 0.717056 -0.0127 0
0.0390088 0.715079 -0.0127 0
0.0389385 0.717076 -0.0127 0
0.0389386 0.717075 -0.0131 0
0.0390625 0.717049 -0.0131 0
0.0390627 0.717047 -0.0129 0
0.0390639 0.717046 -0.0129 0
0.039064 0.717045 -0.013 0
0.0390643 0.717043 -0.013 0
0.0390641 0.717042 -0.013 0
0.0390645 0.717041 -0.0125 0
0.039065 0.71704 -0.0125 0
0.0390652 0.717039 -0.013 0
0.0390655 0.717039 -0.013 0
0.0390655 0.717039 -0.0133 0
0.0390653 0.717038 -0.0133 0
0.039065 0.717037 -0.0126 0
0.0390642 0.717036 -0.0126 0
0.0390636 0.717036 -0.0134 0
0.039063 0.717037 -0.0134 0
0.0390625 0.717037 -0.013 0
0.0390617 0.717038 -0.013 0
0.0390609 0.717037 -0.0134 0
0.0390606 0.717037 -0.0134 0
0.03906 0.717036 -0.0128 0
0.0390602 0.717034 -0.0132 0
0.0390602 0.717033 -0.0132 0
0.0390605 0.717032 -0.0132 0
0.0390603 0.71703 -0.0132 0
0.0390599 0.717027 -0.0132 0
0.03906 0.717025 -0.0125 0
0.0390602 0.717023 -0.0125 0
0.0390605 0.717022 -0.0129 0
0.03906 0.717019 -0.013 0
0.0390595 0.717018 -0.013 0
0.0390598 0.717017 -0.013 0
0.0390607 0.717015 -0.0131 0
0.0390601 0.717013 -0.0127 0
0.0390595 0.717012 -0.0127 0
0.039059 0.717011 -0.0127 0
0.0390573 0.717009 -0.0132 0
0.0390572 0.717009 -0.0132 0
0.039057 0.717007 -0.0132 0
0.0390568 0.717005 -0.0132 0
0.0390564 0.717004 -0.0126 0
0.0390557 0.717002 -0.0126 0
0.0390548 0.717001 -0.0132 0
0.0390548 0.717 -0.0132 0
0.0390549 0.716999 -0.0126 0
0.0390548 0.716996 -0.0131 0
0.0390547 0.716994 -0.0131 0
0.039055 0.716993 -0.0131 0
0.0390541 0.71699 -0.013 0
0.0390536 0.716989 -0.013 0
0.0390529 0.716988 -0.013 0
0.0390522 0.716987 -0.013 0
0.0390517 0.716987 -0.0132 0
0.0390512 0.716986 -0.0132 0
0.0390505 0.716985 -0.0132 0
0.0390506 0.716984 -0.0135 0
0.0390504 0.716983 -0.0135 0
0.0390502 0.716983 -0.013 0
0.0390496 0.716982 -0.013 0
0.0390489 0.716982 -0.0129 0
0.0390483 0.716981 -0.0129 0
0.0390479 0.716979 -0.0134 0
0.0390472 0.716977 -0.0134 0
0.0390472 0.716975 -0.0131 0
0.0390468 0.716971 -0.0131 0
0.0390473 0.716971 -0.0134 0
0.0390479 0.71697 -0.0134 0
0.0390479 0.71697 -0.0129 0
0.0390482 0.716969 -0.0129 0
0.0390488 0.716968 -0.0129 0
0.0390497 0.716967 -0.0129 0
0.0390498 0.716967 -0.0128 0
0.0390497 0.716965 -0.0128 0
0.0390495 0.716964 -0.0128 0
0.0390494 0.716962 -0.0131 0
0.0390497 0.71696 -0.0131 0
0.039049 0.716958 -0.0135 0
0.0390489 0.716958 -0.0135 0
0.0390494 0.716958 -0.0129 0
0.03905 0.716957 -0.0129 0
0.0390506 0.716957 -0.013 0
0.0390512 0.716956 -0.013 0
0.0390514 0.716955 -0.013 0
0.0390515 0.716954 -0.0129 0
0.0390514 0.716954 -0.0129 0
0.0390512 0.716954 -0.0129 0
0.039051 0.716953 -0.0122 0
0.0390509 0.71695 -0.0126 0
0.0390513 0.716949 -0.0126 0
0.039052 0.716947 -0.0127 0
0.0390521 0.716947 -0.0127 0
0.0390527 0.716946 -0.0127 0
0.0390534 0.716944 -0.0129 0
0.0390538 0.716943 -0.0129 0
0.0390549 0.716942 -0.0128 0
0.0390554 0.716941 -0.0128 0
0.0390557 0.716941 -0.0128 0
0.0390555 0.71694 -0.0133 0
0.0390559 0.716939 -0.0133 0
0.039056 0.716937 -0.0131 0
0.0390552 0.716934 -0.0131 0
0.0390548 0.716933 -0.0131 0
0.0390545 0.716932 -0.0131 0
0.0390543 0.716931 -0.013 0
0.0390537 0.71693 -0.013 0
0.0390524 0.71693 -0.013 0
0.0390524 0.716928 -0.0131 0
0.0390526 0.716927 -0.0131 0
0.0390532 0.716926 -0.0131 0
0.0390528 0.716924 -0.0126 0
0.0390528 0.716923 -0.013 0
0.0390528 0.716922 -0.013 0
0.0390526 0.716921 -0.0131 0
0.0390521 0.71692 -0.0131 0
0.0390517 0.716919 -0.0131 0
0.0390511 0.716916 -0.0134 0
0.0390495 0.716913 -0.0134 0
0.0390486 0.716911 -0.0129 0
0.0390478 0.71691 -0.0129 0
0.039047 0.716908 -0.0129 0
0.0390462 0.716908 -0.0129 0
0.0390454 0.716907 -0.0129 0
0.0390439 0.716905 -0.0129 0
0.0390434 0.716903 -0.0131 0
0.0390423 0.716901 -0.0131 0
0.0390413 0.7169 -0.0131 0
0.0390404 0.716898 -0.0131 0
0.0390396 0.716897 -0.0131 0
0.0390391 0.716896 -0.0124 0
0.0390386 0.716896 -0.0124 0
0.0390383 0.716895 -0.0128 0
0.0390383 0.716894 -0.0128 0
0.0390735 0.715894 -0.0128 0
0.0390375 0.716891 -0.013 0
0.0390381 0.71689 -0.013 0
0.0390379 0.716889 -0.013 0
0.0390376 0.716889 -0.013 0
0.0390372 0.716887 -0.0132 0
0.0390373 0.716886 -0.0132 0
0.0390371 0.716884 -0.013 0
0.0390362 0.716883 -0.013 0
0.0390357 0.71688 -0.013 0
0.0390357 0.71688 -0.013 0
0.0390355 0.71688 -0.0124 0
0.0390351 0.716879 -0.0124 0
0.0390346 0.716878 -0.0124 0
0.0391044 0.714878 -0.013 0
0.0390333 0.716876 -0.013 0
0.0390334 0.716875 -0.0129 0
0.0390335 0.716874 -0.0129 0
0.0390329 0.716873 -0.0129 0
0.0390332 0.716872 -0.0131 0
0.0390334 0.716871 -0.0131 0
0.0390334 0.716871 -0.0125 0
0.039033 0.716869 -0.0125 0
0.0390334 0.716868 -0.0127 0
0.0390334 0.716868 -0.0127 0
0.0390331 0.716867 -0.0126 0
0.0390327 0.716866 -0.0126 0
0.0390323 0.716866 -0.0126 0
0.039032 0.716866 -0.0131 0
0.039032 0.716865 -0.0131 0
0.0390674 0.715864 -0.0127 0
0.0390672 0.715863 -0.0127 0
0.0390323 0.716861 -0.0127 0
0.0390318 0.716861 -0.0128 0
0.0394529 0.704868 -0.0132 0
0.03903 0.716859 -0.0132 0
0.0390295 0.716858 -0.0132 0
0.0390294 0.716857 -0.0127 0
0.0390292 0.716857 -0.0127 0
0.0390292 0.716856 -0.0131 0
0.0390287 0.716855 -0.0131 0
0.0390278 0.716854 -0.0129 0
0.0389034 0.716877 -0.0129 0
0.0389032 0.716877 -0.0125 0
0.038903 0.716876 -0.0125 0
0.0389028 0.716875 -0.0131 0
0.0389031 0.716875 -0.0131 0
0.0389028 0.716874 -0.0131 0
0.0389032 0.716874 -0.0125 0
0.0389034 0.716873 -0.0125 0
0.0389036 0.716873 -0.0126 0
0.0389031 0.716872 -0.0126 0
0.0389027 0.716871 -0.0128 0
0.0389029 0.71687 -0.0128 0
0.0390271 0.716846 -0.0128 0
0.0390274 0.716845 -0.0131 0
0.0390266 0.716845 -0.0131 0
0.0390256 0.716844 -0.0133 0
0.0389009 0.716864 -0.0133 0
0.0389009 0.716863 -0.013 0
0.0390249 0.716839 -0.013 0
0.0390249 0.716837 -0.0131 0
0.0391305 0.713838 -0.0131 0
0.0390243 0.716836 -0.0131 0
0.0390229 0.716835 -0.0131 0
0.0390219 0.716834 -0.0137 0
0.039021 0.716832 -0.0137 0
0.039021 0.716831 -0.0135 0
0.0390203 0.71683 -0.0125 0
0.0390205 0.716829 -0.0125 0
0.0390205 0.716828 -0.0125 0
0.0390207 0.716827 -0.0131 0
0.0390213 0.716826 -0.0133 0
0.0390219 0.716825 -0.0133 0
0.0390222 0.716824 -0.0133 0
0.0390223 0.716823 -0.0131 0
0.0390225 0.71682 -0.013 0
0.0390222 0.71682 -0.013 0
0.0390232 0.716818 -0.0133 0
0.0390237 0.716818 -0.0133 0
0.0390244 0.716817 -0.0127 0
0.0390256 0.716816 -0.0127 0
0.0390262 0.716815 -0.0127 0
0.0390268 0.716813 -0.0134 0
0.0390274 0.716812 -0.0129 0
0.0390277 0.716811 -0.0129 0
0.0390275 0.716811 -0.0129 0
0.0389041 0.716832 -0.0127 0
0.0389035 0.716831 -0.0128 0
0.0389037 0.71683 -0.0128 0
0.0389045 0.716829 -0.0131 0
0.0389048 0.716829 -0.0131 0
0.0389049 0.716829 -0.0127 0
0.0389051 0.716829 -0.0127 0
0.0389054 0.71683 -0.013 0
0.0389055 0.716829 -0.0129 0
0.038906 0.716829 -0.0129 0
0.0389059 0.716828 -0.0129 0
0.0389058 0.716826 -0.0129 0
0.0389052 0.716824 -0.0129 0
0.0389053 0.716823 -0.0129 0
0.0403183 0.676847 -0.0129 0
0.0389058 0.716822 -0.0128 0
0.038906 0.716821 -0.0128 0
0.0389064 0.716821 -0.0132 0
0.0389065 0.71682 -0.0132 0
0.0389064 0.716818 -0.0132 0
0.0389063 0.716817 -0.0129 0
0.0389064 0.716817 -0.0129 0
0.0389061 0.716816 -0.0133 0
0.0389066 0.716815 -0.0133 0
0.0389065 0.716813 -0.0128 0
0.0389063 0.716812 -0.0128 0
0.0389062 0.716811 -0.013 0
0.038904 0.716809 -0.013 0
0.0389034 0.716808 -0.013 0
0.0389029 0.716806 -0.013 0
0.0389017 0.716805 -0.0129 0
0.0389011 0.716803 -0.0129 0
0.0389009 0.716802 -0.0129 0
0.0389013 0.7168 -0.0129 0
0.0389013 0.716799 -0.0129 0
0.038902 0.716798 -0.013 0
0.0389022 0.716796 -0.013 0
0.0389033 0.716794 -0.013 0
0.0389043 0.716793 -0.013 0
0.0389049 0.716792 -0.0131 0
0.0389052 0.716791 -0.0131 0
0.0389045 0.71679 -0.0131 0
0.0389039 0.716788 -0.0124 0
0.0389037 0.716788 -0.0124 0
0.0389035 0.716787 -0.0132 0
0.0389036 0.716786 -0.0132 0
0.0389035 0.716786 -0.0132 0
0.0389031 0.716785 -0.0127 0
0.0389031 0.716785 -0.0127 0
0.0389037 0.716784 -0.0128 0
0.0389057 0.71678 -0.0128 0
0.0389064 0.716778 -0.0128 0
0.0389066 0.716776 -0.0128 0
0.0389075 0.716774 -0.0132 0
0.0389083 0.716772 -0.0132 0
0.0389083 0.716771 -0.0132 0
0.0389083 0.716769 -0.013 0
0.0389081 0.716768 -0.0125 0
0.0389085 0.716766 -0.0125 0
0.0389091 0.716765 -0.0129 0
0.0389095 0.716764 -0.0129 0
0.0389099 0.716764 -0.0129 0
0.0389104 0.716763 -0.0129 0
0.0389108 0.716763 -0.0128 0
0.0390173 0.713764 -0.0128 0
0.0389114 0.716762 -0.0133 0
0.0389109 0.716759 -0.0133 0
0.0389106 0.716758 -0.0128 0
0.0389107 0.716758 -0.0128 0
0.0389812 0.714758 -0.0132 0
0.03891 0.716755 -0.0132 0
0.0389102 0.716755 -0.0131 0
0.0389106 0.716754 -0.0131 0
0.0389107 0.716753 -0.0123 0
0.038911 0.716752 -0.0123 0
0.0389105 0.716751 -0.0129 0
0.0389103 0.71675 -0.0129 0
0.0390337 0.716725 -0.013 0
0.0390326 0.716722 -0.013 0
0.0390318 0.716721 -0.0132 0
0.0390319 0.71672 -0.0132 0
0.0390317 0.716718 -0.0132 0
0.0389077 0.71674 -0.0132 0
0.0389069 0.716736 -0.0128 0
0.0389059 0.716736 -0.0128 0
0.0389052 0.716735 -0.0131 0
0.0389041 0.716732 -0.0131 0
0.0390104 0.713732 -0.013 0
0.0389043 0.71673 -0.013 0
0.038905 0.716729 -0.0129 0
0.0389051 0.716728 -0.0129 0
0.0389059 0.716728 -0.0129 0
0.0393303 0.704736 -0.013 0
0.0389065 0.716727 -0.013 0
0.0390303 0.716704 -0.0131 0
0.0390301 0.716703 -0.0131 0
0.0389061 0.716725 -0.0131 0
0.0389059 0.716724 -0.0128 0
0.0389059 0.716722 -0.0128 0
0.0389058 0.716722 -0.0128 0
0.0389054 0.716721 -0.0128 0
0.0389054 0.71672 -0.0131 0
0.038905 0.716719 -0.0131 0
0.0389042 0.716717 -0.0126 0
0.0389038 0.716716 -0.0126 0
0.0389036 0.716715 -0.0127 0
0.0389028 0.716715 -0.0127 0
0.038902 0.716713 -0.0129 0
0.0389021 0.716712 -0.0129 0
0.038902 0.716711 -0.0124 0
0.0389019 0.71671 -0.0124 0
0.0390254 0.716684 -0.013 0
0.0390249 0.716683 -0.013 0
0.0390257 0.716681 -0.013 0
0.0390261 0.716681 -0.013 0
0.0389026 0.716702 -0.0126 0
0.0390269 0.716678 -0.0126 0
0.0390271 0.716677 -0.0131 0
0.0390269 0.716675 -0.0131 0
0.0390273 0.716673 -0.0131 0
0.0389034 0.716695 -0.0131 0
0.0389033 0.716694 -0.0128 0
0.0389033 0.716692 -0.0131 0
0.038903 0.71669 -0.0131 0
0.0389032 0.716689 -0.0131 0
0.038903 0.716687 -0.0126 0
0.0389036 0.716686 -0.0129 0
0.0389039 0.716685 -0.0129 0
0.0389039 0.716684 -0.0129 0
0.0389033 0.716682 -0.0132 0
0.038903 0.716682 -0.0129 0
0.0389033 0.716681 -0.0129 0
0.0389054 0.71668 -0.0129 0
0.0390289 0.716656 -0.0129 0
0.0390284 0.716653 -0.013 0
0.0390287 0.716652 -0.013 0
0.0390288 0.716651 -0.0133 0
0.0390286 0.71665 -0.0127 0
0.0390284 0.716648 -0.0127 0
0.0390279 0.716648 -0.0127 0
0.0390284 0.716647 -0.0132 0
0.0390289 0.716646 -0.0132 0
0.0390289 0.716645 -0.0129 0
0.0390304 0.716642 -0.0129 0
0.0390301 0.71664 -0.0134 0
0.0390298 0.716638 -0.0134 0
0.0390296 0.716636 -0.013 0
0.0389055 0.716657 -0.013 0
0.0389052 0.716656 -0.013 0
0.0389051 0.716654 -0.0128 0
0.0389048 0.716653 -0.0127 0
0.0389045 0.716653 -0.0127 0
0.0389043 0.716652 -0.0127 0
0.0389036 0.716649 -0.0128 0
0.0389033 0.716647 -0.0135 0
0.038903 0.716645 -0.0135 0
0.0389026 0.716644 -0.0135 0
0.0389022 0.716644 -0.0133 0
0.0389015 0.716643 -0.0131 0
0.0389018 0.716642 -0.0131 0
0.0389017 0.716642 -0.0131 0
0.0389023 0.716642 -0.0126 0
0.0389036 0.71664 -0.0125 0
0.0389038 0.716639 -0.0125 0
0.0389043 0.716639 -0.0125 0
0.038904 0.716639 -0.0127 0
0.038904 0.716638 -0.013 0
0.0389041 0.716638 -0.013 0
0.0389041 0.716637 -0.013 0
0.0389025 0.716636 -0.0135 0
0.0389018 0.716635 -0.013 0
0.038901 0.716633 -0.013 0
0.0390225 0.71661 -0.0128 0
0.0390219 0.716609 -0.0128 0
0.0390221 0.716608 -0.0126 0
0.039022 0.716606 -0.0126 0
0.0390213 0.716605 -0.0131 0
0.0390209 0.716605 -0.0131 0
0.0390203 0.716604 -0.0125 0
0.0390203 0.716604 -0.0125 0
0.0390206 0.716602 -0.0132 0
0.0390912 0.714601 -0.0132 0
0.0390207 0.716599 -0.0132 0
0.0390211 0.716598 -0.0132 0
0.0390213 0.716594 -0.0124 0
0.0390218 0.716595 -0.0124 0
0.039022 0.716595 -0.0126 0
0.039022 0.716593 -0.0126 0
0.0388977 0.716615 -0.0132 0
0.0388982 0.716614 -0.0132 0
0.0388981 0.716613 -0.0134 0
0.0388982 0.716613 -0.0134 0
0.0388982 0.716612 -0.0134 0
0.0388983 0.716612 -0.013 0
0.0388983 0.716611 -0.013 0
0.0388982 0.716611 -0.0133 0
0.0388983 0.716609 -0.0133 0
0.0388983 0.716608 -0.0135 0
0.0388988 0.716607 -0.0135 0
0.0388987 0.716606 -0.013 0
0.0388992 0.716605 -0.013 0
0.0390235 0.716581 -0.013 0
0.0389006 0.716601 -0.0129 0
0.0389006 0.7166 -0.0134 0
0.0389003 0.7166 -0.0134 0
0.0389005 0.716599 -0.0134 0
0.0389009 0.716599 -0.013 0
0.038901 0.716598 -0.013 0
0.038901 0.716597 -0.0133 0
0.0389006 0.716596 -0.0133 0
0.0389008 0.716595 -0.0133 0
0.0390238 0.71657 -0.0132 0
0.0390238 0.716569 -0.0129 0
0.0390237 0.716569 -0.0129 0
0.0390233 0.716567 -0.0129 0
0.0390228 0.716565 -0.0132 0
0.0390216 0.716563 -0.0127 0
0.0390208 0.716562 -0.0127 0
0.0390209 0.716561 -0.0127 0
0.0390219 0.71656 -0.0128 0
0.0390219 0.71656 -0.0128 0
0.0390217 0.716559 -0.0132 0
0.0390215 0.716558 -0.0132 0
0.0390213 0.716557 -0.0132 0
0.0390213 0.716556 -0.013 0
0.0390212 0.716555 -0.013 0
0.0390211 0.716553 -0.013 0
0.039126 0.713555 -0.013 0
0.0390207 0.716553 -0.013 0
0.0390206 0.716552 -0.0128 0
0.0390201 0.716552 -0.0128 0
0.0390199 0.71655 -0.0132 0
0.0390183 0.716547 -0.0132 0
0.0390877 0.714546 -0.0128 0
0.0390168 0.716544 -0.0128 0
0.0390163 0.716541 -0.013 0
0.0390156 0.71654 -0.013 0
0.0390151 0.716539 -0.0128 0
0.0390145 0.716538 -0.0128 0
0.0390143 0.716537 -0.013 0
0.0390133 0.716536 -0.013 0
0.0393133 0.704566 -0.013 0
0.0388893 0.716557 -0.013 0
0.0388892 0.716556 -0.0134 0
0.0388893 0.716555 -0.0134 0
0.0388887 0.716554 -0.0131 0
0.0388882 0.716554 -0.0131 0
0.0390116 0.716529 -0.0127 0
0.0390114 0.716529 -0.0127 0
0.0388873 0.716551 -0.0136 0
0.038887 0.716549 -0.0136 0
0.0388864 0.716547 -0.0123 0
0.0388861 0.716545 -0.0123 0
0.0388858 0.716544 -0.0128 0
0.038886 0.716543 -0.013 0
0.038886 0.716542 -0.013 0
0.0388863 0.716541 -0.013 0
0.0388873 0.716539 -0.0129 0
0.0388874 0.716538 -0.0127 0
0.0388868 0.716537 -0.0127 0
0.0388869 0.716536 -0.0127 0
0.0388874 0.716534 -0.0129 0
0.0388872 0.716533 -0.0125 0
0.0388866 0.716531 -0.0125 0
0.0390099 0.716507 -0.0125 0
0.0390095 0.716506 -0.0133 0
0.0388855 0.716528 -0.0133 0
0.0388847 0.716527 -0.0127 0
0.0388483 0.717525 -0.0127 0
0.0390065 0.716501 -0.0127 0
0.0390066 0.716499 -0.013 0
0.0390065 0.716497 -0.0132 0
0.0390065 0.716496 -0.0132 0
0.0390066 0.716495 -0.0132 0
0.0390069 0.716494 -0.0129 0
0.039007 0.716493 -0.0129 0
0.039008 0.716489 -0.0132 0
0.0390083 0.716488 -0.0132 0
0.0390091 0.716487 -0.0129 0
0.0390094 0.716487 -0.0129 0
0.0390095 0.716487 -0.0134 0
0.0390096 0.716488 -0.0134 0
0.0390096 0.716487 -0.0134 0
0.0390105 0.716485 -0.0126 0
0.0390108 0.716485 -0.0126 0
0.0390104 0.716485 -0.0126 0
0.0390109 0.716484 -0.0131 0
0.0390111 0.716483 -0.0131 0
0.039012 0.71648 -0.0128 0
0.0390129 0.716479 -0.0128 0
0.0390134 0.716478 -0.013 0
0.0390486 0.715477 -0.0129 0
0.0390129 0.716475 -0.0129 0
0.0390125 0.716474 -0.0129 0
0.0390121 0.716474 -0.0133 0
0.0390117 0.716473 -0.0133 0
0.0390111 0.716471 -0.0129 0
0.0390112 0.716471 -0.0129 0
0.0390108 0.71647 -0.0129 0
0.0390111 0.716469 -0.0128 0
0.0390117 0.716465 -0.0128 0
0.0390115 0.716464 -0.0128 0
0.0390122 0.716462 -0.0128 0
0.0390123 0.71646 -0.0126 0
0.0390132 0.716459 -0.0126 0
0.0390139 0.716459 -0.0131 0
0.0390145 0.716459 -0.0131 0
0.0390138 0.716458 -0.0125 0
0.0390133 0.716457 -0.0125 0
0.0390132 0.716457 -0.0126 0
0.0390138 0.716457 -0.0126 0
0.0390139 0.716457 -0.0126 0
0.0390147 0.716455 -0.0136 0
0.0390151 0.716453 -0.0125 0
0.0390503 0.715453 -0.0125 0
0.0390152 0.716451 -0.0125 0
0.039015 0.71645 -0.0131 0
0.0390148 0.716449 -0.0131 0
0.0390147 0.716446 -0.0126 0
0.0390146 0.716445 -0.0126 0
0.0390848 0.714444 -0.0126 0
0.0390142 0.716441 -0.0126 0
0.0390138 0.71644 -0.0126 0
0.0390498 0.715439 -0.0126 0
0.0390148 0.716437 -0.0126 0
0.0390146 0.716435 -0.013 0
0.0390146 0.716434 -0.0133 0
0.0375728 0.757408 -0.0133 0
0.0390137 0.716434 -0.0133 0
0.0390133 0.716434 -0.0127 0
0.0390128 0.716434 -0.0127 0
0.0390129 0.716433 -0.0128 0
0.0390132 0.716432 -0.0128 0
0.039013 0.716432 -0.0128 0
0.0390137 0.71643 -0.0129 0
0.0390133 0.716429 -0.0132 0
0.0390132 0.716428 -0.0132 0
0.039013 0.716427 -0.0132 0
0.0390125 0.716426 -0.0128 0
0.0390126 0.716426 -0.0128 0
0.0390122 0.716425 -0.0129 0
0.0388876 0.716446 -0.0129 0
0.038888 0.716444 -0.0132 0
0.0388881 0.716444 -0.0132 0
0.0374401 0.757416 -0.0134 0
0.0388875 0.71644 -0.0134 0
0.0388877 0.716439 -0.0128 0
0.0388876 0.716438 -0.0128 0
0.0388873 0.716436 -0.0129 0
0.038887 0.716435 -0.0129 0
0.0388868 0.716434 -0.0134 0
0.0389579 0.714435 -0.0134 0
0.0388855 0.716432 -0.0127 0
0.0388846 0.716431 -0.0127 0
0.0388845 0.716431 -0.0128 0
0.0390083 0.716407 -0.0128 0
0.039009 0.716406 -0.0137 0
0.0390094 0.716404 -0.0137 0
0.0390095 0.716403 -0.0137 0
0.0390094 0.716402 -0.0134 0
0.0390089 0.716401 -0.0134 0
0.0390081 0.716401 -0.0128 0
0.0390074 0.7164 -0.0128 0
0.0390065 0.716398 -0.0127 0
0.0390054 0.716398 -0.0127 0
0.0390051 0.716397 -0.0131 0
0.0390048 0.716396 -0.0131 0
0.0390047 0.716396 -0.0131 0
0.0390041 0.716395 -0.0124 0
0.0390027 0.716393 -0.0124 0
0.0390363 0.715393 -0.0128 0
0.0390006 0.71639 -0.0128 0
0.0390001 0.71639 -0.0137 0
0.0389991 0.716389 -0.0137 0
0.0389983 0.716389 -0.0122 0
0.0389977 0.716388 -0.0122 0
0.0389971 0.716386 -0.0128 0
0.0389972 0.716386 -0.0128 0
0.0389972 0.716384 -0.0133 0
0.038997 0.716384 -0.0133 0
0.0389964 0.71638 -0.0128 0
0.0389965 0.716379 -0.0128 0
0.0389961 0.716379 -0.0123 0
0.0389957 0.716378 -0.0123 0
0.038871 0.716399 -0.0127 0
0.0389949 0.716375 -0.0127 0
0.0389952 0.716374 -0.0136 0
0.038871 0.716395 -0.0136 0
0.0388726 0.716394 -0.0126 0
0.0388729 0.716393 -0.0126 0
0.038873 0.716394 -0.0128 0
0.0388731 0.716393 -0.0128 0
0.0389788 0.713394 -0.0129 0
0.038873 0.716391 -0.0129 0
0.0388735 0.71639 -0.0128 0
0.0389092 0.71539 -0.0128 0
0.0388748 0.716388 -0.0128 0
0.0388747 0.716387 -0.0131 0
0.0388762 0.716387 -0.0131 0
0.0388771 0.716388 -0.0127 0
0.0388775 0.716387 -0.0127 0
0.0388777 0.716386 -0.0127 0
0.0388777 0.716385 -0.0127 0
0.0388782 0.716385 -0.0131 0
0.0388788 0.716383 -0.0131 0
0.0388789 0.716381 -0.0131 0
0.0390031 0.716357 -0.0126 0
0.039003 0.716356 -0.0126 0
0.0390035 0.716354 -0.0128 0
0.0390041 0.716353 -0.0128 0
0.0390047 0.716352 -0.0132 0
0.0390402 0.715352 -0.0132 0
0.0390051 0.71635 -0.0133 0
0.039005 0.716349 -0.0133 0
0.0390048 0.716348 -0.0133 0
0.0390048 0.716347 -0.0131 0
0.0390044 0.716347 -0.0131 0
0.0390036 0.716345 -0.0131 0
0.0390032 0.716345 -0.0131 0
0.0390029 0.716344 -0.0131 0
0.0390024 0.716344 -0.0131 0
0.0390023 0.716344 -0.0129 0
0.0390014 0.716343 -0.0129 0
0.0390008 0.716342 -0.0129 0
0.039 0.716341 -0.0133 0
0.0389998 0.716341 -0.0126 0
0.0389997 0.716341 -0.0126 0
0.0389987 0.716341 -0.0126 0
0.0388738 0.716363 -0.0133 0
0.0388735 0.716363 -0.0126 0
0.0388739 0.716363 -0.0126 0
0.0388742 0.716363 -0.0126 0
0.0388738 0.716362 -0.0131 0
0.0388735 0.716361 -0.0128 0
0.038997 0.716337 -0.0128 0
0.0389969 0.716337 -0.0128 0
0.0388718 0.71636 -0.013 0
0.0388715 0.71636 -0.0131 0
0.038871 0.716358 -0.0131 0
0.0388713 0.716358 -0.0129 0
0.0388714 0.716357 -0.0129 0
0.0389952 0.716333 -0.0131 0
0.0389945 0.716332 -0.0131 0
0.0389941 0.716331 -0.0128 0
0.0389931 0.716331 -0.0128 0
0.0388683 0.716353 -0.0125 0
0.0389905 0.71633 -0.0125 0
0.0389895 0.71633 -0.0131 0
0.0389888 0.716329 -0.0131 0
0.0389886 0.716328 -0.0131 0
0.0389883 0.716327 -0.0131 0
0.0389878 0.716326 -0.0131 0
0.0390932 0.713326 -0.0131 0
0.0389879 0.716324 -0.0131 0
0.0389886 0.716323 -0.0127 0
0.0389906 0.716322 -0.0127 0
0.0389909 0.71632 -0.0134 0
0.0389913 0.716319 -0.0134 0
0.0389911 0.716319 -0.0123 0
0.0389909 0.716318 -0.0123 0
0.0389903 0.716316 -0.0129 0
0.03899 0.716315 -0.0129 0
0.0389896 0.716315 -0.0135 0
0.0389896 0.716314 -0.0135 0
0.0389893 0.716313 -0.0135 0
0.0389899 0.716312 -0.0125 0
0.03899 0.716311 -0.0133 0
0.03899 0.716311 -0.0133 0
0.0389901 0.71631 -0.0133 0
0.0389894 0.71631 -0.0132 0
0.038865 0.716331 -0.0132 0
0.0388643 0.71633 -0.0128 0
0.0388644 0.716328 -0.0128 0
0.038864 0.716326 -0.0128 0
0.0388643 0.716325 -0.0131 0
0.0388642 0.716323 -0.0127 0
0.038864 0.716322 -0.0127 0
0.0388637 0.716321 -0.0127 0
0.0388635 0.71632 -0.0129 0
0.0388638 0.716318 -0.0129 0
0.0388634 0.716317 -0.0128 0
0.0388636 0.716315 -0.0128 0
0.0388635 0.716314 -0.0129 0
0.0388633 0.716313 -0.0129 0
0.0388631 0.716312 -0.0132 0
0.0388629 0.716311 -0.0132 0
0.0388635 0.71631 -0.0132 0
0.0389691 0.713311 -0.0126 0
0.0388626 0.716308 -0.0126 0
0.038863 0.716307 -0.013 0
0.0388627 0.716306 -0.013 0
0.0388627 0.716305 -0.0132 0
0.0388624 0.716304 -0.0132 0
0.0388627 0.716303 -0.013 0
0.0388631 0.716301 -0.013 0
0.0388636 0.7163 -0.013 0
0.0389876 0.716277 -0.0133 0
0.0390234 0.715276 -0.0125 0
0.0389885 0.716275 -0.0125 0
0.0389886 0.716272 -0.0125 0
0.0389885 0.716271 -0.0133 0
0.0389883 0.71627 -0.0133 0
0.0389874 0.716268 -0.0129 0
0.038987 0.716267 -0.0129 0
0.0388627 0.716289 -0.0129 0
0.038863 0.716288 -0.0132 0
0.0389872 0.716265 -0.0131 0
0.038988 0.716263 -0.0131 0
0.0389881 0.716262 -0.0131 0
0.0389881 0.716262 -0.0128 0
0.0389882 0.716261 -0.0128 0
0.0390938 0.713262 -0.013 0
0.0389888 0.716257 -0.013 0
0.0389887 0.716255 -0.0131 0
0.0389884 0.716254 -0.0131 0
0.0389881 0.716253 -0.0128 0
0.0389875 0.716253 -0.0128 0
0.0389868 0.716252 -0.0134 0
0.0389873 0.716251 -0.0134 0
0.0389875 0.716249 -0.0128 0
0.0389876 0.716248 -0.0128 0
0.038988 0.716246 -0.0128 0
0.0389872 0.716245 -0.0127 0
0.0389865 0.716243 -0.0131 0
0.0389859 0.716242 -0.0131 0
0.0389847 0.716241 -0.0131 0
0.0389843 0.71624 -0.0128 0
0.0389844 0.71624 -0.0128 0
0.0389843 0.716239 -0.0133 0
0.038984 0.716238 -0.0133 0
0.0389842 0.716238 -0.0129 0
0.038984 0.716237 -0.0129 0
0.0389834 0.716237 -0.0129 0
0.038983 0.716236 -0.0129 0
0.0389825 0.716235 -0.0129 0
0.0389823 0.716235 -0.0129 0
0.0389815 0.716234 -0.0129 0
0.0389804 0.716233 -0.0131 0
0.0389794 0.716232 -0.0131 0
0.0389792 0.716231 -0.013 0
0.0389791 0.716231 -0.013 0
0.0389789 0.71623 -0.013 0
0.0389784 0.71623 -0.013 0
0.0389779 0.716228 -0.013 0
0.0389771 0.716227 -0.0131 0
0.0389769 0.716226 -0.0131 0
0.0389761 0.716224 -0.0128 0
0.0389764 0.716224 -0.0128 0
0.0389757 0.716223 -0.0127 0
0.0389756 0.716222 -0.0127 0
0.0389755 0.71622 -0.0137 0
0.0389748 0.716219 -0.0137 0
0.0389745 0.716218 -0.0131 0
0.0389743 0.716216 -0.0131 0
0.0389741 0.716214 -0.0128 0
0.0389738 0.716213 -0.0128 0
0.0389744 0.716212 -0.0131 0
0.0389746 0.716211 -0.0131 0
0.038957 0.713236 -0.0125 0
0.0388511 0.716234 -0.0125 0
0.0389746 0.71621 -0.013 0
0.0389753 0.71621 -0.013 0
0.0389752 0.716209 -0.0129 0
0.0389749 0.716208 -0.0129 0
0.0389747 0.716207 -0.0129 0
0.0389745 0.716206 -0.0132 0
0.0389749 0.716205 -0.0132 0
0.0389755 0.716204 -0.013 0
0.0389754 0.716203 -0.013 0
0.0389753 0.716202 -0.0128 0
0.0389744 0.716202 -0.0128 0
0.0389743 0.716199 -0.0131 0
0.0389738 0.716199 -0.0131 0
0.0389737 0.716198 -0.0128 0
0.0389741 0.716198 -0.0128 0
0.0389736 0.716196 -0.0132 0
0.0389733 0.716196 -0.0132 0
0.038973 0.716195 -0.0129 0
0.0389725 0.716194 -0.0131 0
0.0389728 0.716194 -0.0131 0
0.0389729 0.716193 -0.0131 0
0.0389728 0.716192 -0.0126 0
0.0389724 0.716192 -0.0126 0
0.0389738 0.716191 -0.0127 0
0.0389746 0.716191 -0.0127 0
0.0389743 0.71619 -0.0132 0
0.0390793 0.71319 -0.0132 0
0.0389739 0.716185 -0.0131 0
0.0389742 0.716183 -0.0131 0
0.0389743 0.716182 -0.0124 0
0.0389745 0.716182 -0.0124 0
0.0389746 0.716181 -0.0132 0
0.0389752 0.716178 -0.0132 0
0.0389754 0.716177 -0.0128 0
0.0389752 0.716176 -0.0128 0
0.0389755 0.716175 -0.0134 0
0.0389756 0.716175 -0.0134 0
0.0389755 0.716174 -0.0134 0
0.0389751 0.716173 -0.0125 0
0.0389755 0.716173 -0.0125 0
0.0389747 0.71617 -0.0131 0
0.0389746 0.716169 -0.0131 0
0.0389742 0.716167 -0.0127 0
0.0389739 0.716166 -0.0127 0
0.0389744 0.716164 -0.0128 0
0.038974 0.716163 -0.0128 0
0.0389724 0.71616 -0.0131 0
0.0389713 0.716159 -0.0131 0
0.0389702 0.716158 -0.013 0
0.0389696 0.716156 -0.013 0
0.0389693 0.716155 -0.0131 0
0.0389689 0.716154 -0.0131 0
0.0389686 0.716153 -0.0128 0
0.0389679 0.716153 -0.0128 0
0.0389674 0.716153 -0.0128 0
0.0389675 0.716153 -0.0132 0
0.0389674 0.716152 -0.0132 0
0.0389673 0.71615 -0.0126 0
0.0389672 0.71615 -0.0126 0
0.0389671 0.716149 -0.0132 0
0.0389672 0.716149 -0.0132 0
0.0389671 0.716149 -0.0127 0
0.0389667 0.716148 -0.0127 0
0.0389669 0.716148 -0.0129 0
0.0389668 0.716148 -0.0129 0
0.0389669 0.716148 -0.0128 0
0.0389667 0.716147 -0.0128 0
0.0389674 0.716146 -0.0128 0
0.038968 0.716145 -0.0128 0
0.038969 0.716143 -0.0128 0
0.0389695 0.716142 -0.0128 0
0.0389696 0.716141 -0.0128 0
0.0389695 0.716138 -0.0128 0
0.0389696 0.716136 -0.0127 0
0.0389686 0.716136 -0.0127 0
0.0389685 0.716135 -0.0127 0
0.0388442 0.716156 -0.0131 0
0.0388439 0.716155 -0.0131 0
0.0388439 0.716154 -0.0131 0
0.0387728 0.718151 -0.0127 0
0.0388433 0.716151 -0.0127 0
0.0388434 0.71615 -0.0127 0
0.038843 0.716149 -0.0127 0
0.0388426 0.716149 -0.0127 0
0.0388419 0.716148 -0.0127 0
0.0389651 0.716124 -0.0133 0
0.0388414 0.716147 -0.0133 0
0.0388416 0.716147 -0.0133 0
0.0388409 0.716145 -0.0128 0
0.0389611 0.71612 -0.0134 0
0.0389683 0.716119 -0.0134 0
0.0391131 0.716096 -0.0134 0
0.0397604 0.71598 0.000600003 0
0.0399856 0.715928 0.0371 0
0.0403295 0.715852 0.0371 0
0.0406166 0.714777 -0.0127 0
0.0406481 0.714753 -0.0127 0
0.04068 0.714732 0.0226 0
0.0405597 0.714753 0.0226 0
0.0404126 0.714811 0.0226 0
0.0399274 0.714947 -0.0073 0
0.0397896 0.714983 -0.0022 0
0.0398063 0.713993 -0.0022 0
0.0397923 0.713999 -0.0022 0
0.0397774 0.714013 -0.016 0
0.0397747 0.714017 -0.014 0
0.0396508 0.714044 -0.014 0
0.0395272 0.714066 -0.0136 0
0.0395684 0.713067 -0.0136 0
0.0392981 0.714113 -0.0074 0
0.0392204 0.713132 -0.0074 0
0.0389699 0.713171 -0.000899998 0
0.0388071 0.714186 -0.000899998 0
0.0388363 0.71318 -0.0115 0
0.0383425 0.713258 -0.0115 0
0.0383107 0.714245 -0.006 0
0.0381941 0.714257 -0.006 0
0.0382038 0.714253 -0.0111 0
0.0382398 0.713261 -0.0111 0
0.0382389 0.713271 -0.012 0
0.0382403 0.71328 -0.012 0
0.038241 0.713284 -0.0075 0
0.0382385 0.713288 -0.0075 0
0.0382377 0.713288 -0.011 0
0.038239 0.713287 -0.011 0
0.0382401 0.713286 -0.0101 0
0.0382434 0.713288 -0.0101 0
0.0382446 0.713289 -0.0071 0
0.0382464 0.713289 -0.0071 0
0.0382495 0.713287 -0.0095 0
0.0382496 0.713285 -0.0095 0
0.038214 0.714286 -0.0099 0
0.0382517 0.713287 -0.0099 0
0.0382506 0.713288 -0.0075 0
0.0382497 0.713289 -0.0075 0
0.0382475 0.713289 -0.0075 0
0.0382078 0.714289 -0.0098 0
0.0382419 0.71329 -0.0098 0
0.0382438 0.713293 -0.0125 0
0.0382455 0.713296 -0.0125 0
0.0382444 0.713296 -0.0078 0
0.0382465 0.713295 -0.0078 0
0.0382488 0.713293 -0.0095 0
0.0382503 0.71329 -0.0095 0
0.0382518 0.713289 -0.0095 0
0.0382511 0.713285 -0.0094 0
0.038251 0.713284 -0.0073 0
0.0382496 0.713283 -0.0073 0
0.0382487 0.713282 -0.0073 0
0.0382487 0.713279 -0.0132 0
0.0382489 0.713281 -0.0103 0
0.0382489 0.713281 -0.0103 0
0.03825 0.713282 -0.0103 0
0.0382497 0.713281 -0.0115 0
0.0382494 0.713279 -0.012 0
0.0382507 0.713276 -0.012 0
0.0382515 0.713276 -0.012 0
0.0382522 0.713276 -0.0076 0
0.0382549 0.713276 -0.0105 0
0.0382555 0.713277 -0.0105 0
0.038255 0.713275 -0.0105 0
0.0382196 0.714274 -0.0108 0
0.038257 0.713274 -0.0108 0
0.0382574 0.713272 -0.0094 0
0.0382575 0.713271 -0.0094 0
0.0382583 0.713271 -0.0119 0
0.0382582 0.71327 -0.0119 0
0.0382579 0.71327 -0.0093 0
0.0382593 0.71327 -0.0093 0
0.0382587 0.713269 -0.009 0
0.0382584 0.713268 -0.009 0
0.0382588 0.713267 -0.0104 0
0.0382595 0.713265 -0.0104 0
0.0382593 0.713264 -0.0111 0
0.0382583 0.713263 -0.0111 0
0.0382564 0.713262 -0.0106 0
0.0382573 0.713265 -0.0106 0
0.0382585 0.713267 -0.0119 0
0.0382567 0.713264 -0.009 0
0.0382543 0.713262 -0.009 0
0.0382132 0.714257 -0.009 0
0.0382494 0.713254 -0.0079 0
0.0382501 0.713253 -0.0079 0
0.0382569 0.713255 -0.0095 0
0.0382209 0.714255 -0.0095 0
0.038258 0.713256 -0.0115 0
0.0382209 0.71425 -0.0074 0
0.0382586 0.71325 -0.0074 0
0.0382574 0.713248 -0.0074 0
0.0382556 0.713247 -0.0086 0
0.0382173 0.714245 -0.0086 0
0.0382185 0.714242 -0.0122 0
0.0382548 0.713242 -0.0122 0
0.0382549 0.713242 -0.0088 0
0.0382181 0.714241 -0.0088 0
0.0382168 0.71424 -0.0094 0
0.0383273 0.711241 -0.0094 0
0.0382538 0.713238 -0.01 0
0.0382526 0.713238 -0.01 0
0.0382146 0.714236 -0.0121 0
0.0382499 0.713236 -0.0121 0
