ply
format ascii 1.0
element vertex 1725
property float x
property float y
property float z
property float intensity
end_header
0.203054 0.70377 -0.0056 0
0.203053 0.703768 -0.0053 0
0.203053 0.703766 -0.0053 0
0.203053 0.703765 -0.0053 0
0.203053 0.703764 -0.0055 0
0.203052 0.703763 -0.0055 0
0.203174 0.703734 -0.0055 0
0.203174 0.703734 -0.0054 0
0.203051 0.703761 -0.005 0
0.203051 0.703759 -0.005 0
0.203051 0.703758 -0.0045 0
0.203051 0.703757 -0.0045 0
0.203051 0.703756 -0.0045 0
0.203052 0.703755 -0.0058 0
0.203052 0.703754 -0.0058 0
0.203053 0.703754 -0.0057 0
0.203053 0.703754 -0.0057 0
0.203053 0.703753 -0.0044 0
0.203053 0.703753 -0.0044 0
0.203053 0.703753 -0.0056 0
0.203053 0.703752 -0.0056 0
0.203053 0.70375 -0.0056 0
0.203053 0.703749 -0.0052 0
0.203052 0.703747 -0.0052 0
0.203052 0.703745 -0.0054 0
0.203051 0.703743 -0.0054 0
0.20305 0.703742 -0.0054 0
0.203049 0.703739 -0.0055 0
0.203048 0.703738 -0.0055 0
0.203047 0.703737 -0.0056 0
0.203047 0.703736 -0.0056 0
0.203047 0.703735 -0.0056 0
0.203047 0.703732 -0.0052 0
0.203046 0.703732 -0.0063 0
0.203046 0.703731 -0.0063 0
0.203045 0.70373 -0.0063 0
0.203045 0.703728 -0.0049 0
0.203044 0.703727 -0.0049 0
0.203166 0.703697 -0.0053 0
0.203167 0.703697 -0.0053 0
0.203167 0.703696 -0.0053 0
0.203167 0.703695 -0.0055 0
0.203168 0.703694 -0.0055 0
0.203168 0.703692 -0.0052 0
0.203168 0.703691 -0.0052 0
0.203168 0.70369 -0.0052 0
0.203167 0.70369 -0.0057 0
0.203166 0.703689 -0.0057 0
0.203166 0.703689 -0.0056 0
0.203165 0.703687 -0.0056 0
0.203165 0.703686 -0.0053 0
0.203166 0.703685 -0.0053 0
0.203043 0.703714 -0.0057 0
0.203043 0.703714 -0.0057 0
0.203043 0.703713 -0.0057 0
0.203041 0.703711 -0.0051 0
0.203041 0.703711 -0.0051 0
0.20304 0.70371 -0.0051 0
0.203039 0.703708 -0.0051 0
0.203039 0.703707 -0.0051 0
0.203038 0.703706 -0.0055 0
0.203039 0.703705 -0.0055 0
0.203039 0.703704 -0.0056 0
0.203039 0.703703 -0.0056 0
0.203162 0.703674 -0.0055 0
0.203163 0.703674 -0.0055 0
0.203163 0.703673 -0.0055 0
0.203163 0.703671 -0.0054 0
0.203164 0.703671 -0.0054 0
0.203042 0.703696 -0.0049 0
0.203041 0.703694 -0.0049 0
0.20304 0.703693 -0.0053 0
0.203162 0.703663 -0.0053 0
0.203162 0.703661 -0.0058 0
0.203161 0.703659 -0.0058 0
0.203161 0.703658 -0.0058 0
0.203161 0.703656 -0.0059 0
0.20316 0.703655 -0.0059 0
0.20316 0.703653 -0.0053 0
0.20316 0.703651 -0.0053 0
0.20316 0.703647 -0.0052 0
0.203159 0.703646 -0.0052 0
0.203159 0.703645 -0.0061 0
0.203158 0.703643 -0.0061 0
0.203158 0.703642 -0.0061 0
0.203157 0.703642 -0.0051 0
0.203157 0.70364 -0.0051 0
0.203156 0.703638 -0.0058 0
0.203033 0.703665 -0.0058 0
0.203032 0.703664 -0.0053 0
0.203153 0.703634 -0.0053 0
0.20303 0.703662 -0.0057 0
0.20303 0.70366 -0.0057 0
0.203029 0.703659 -0.0057 0
0.203029 0.703659 -0.0055 0
0.203028 0.703658 -0.0055 0
0.203027 0.703656 -0.0052 0
0.203027 0.703655 -0.0052 0
0.203027 0.703653 -0.0057 0
0.203027 0.703652 -0.0057 0
0.203027 0.703651 -0.0052 0
0.203027 0.70365 -0.0052 0
0.203027 0.703647 -0.0053 0
0.203027 0.703646 -0.0053 0
0.203027 0.703644 -0.0053 0
0.203026 0.703643 -0.0056 0
0.203025 0.703643 -0.0056 0
0.203024 0.703642 -0.0055 0
0.203145 0.70361 -0.0054 0
0.202986 0.700638 -0.0054 0
0.203023 0.703637 -0.0054 0
0.203022 0.703636 -0.0054 0
0.203021 0.703635 -0.0054 0
0.203021 0.703633 -0.0052 0
0.20302 0.703632 -0.0052 0
0.20302 0.703631 -0.0052 0
0.20302 0.703629 -0.0059 0
0.20302 0.703628 -0.0057 0
0.203021 0.703627 -0.0057 0
0.20302 0.703626 -0.0057 0
0.20302 0.703625 -0.0048 0
0.20302 0.703624 -0.0048 0
0.20302 0.703623 -0.0059 0
0.20302 0.703622 -0.0059 0
0.20302 0.703622 -0.0056 0
0.203019 0.703622 -0.0056 0
0.20302 0.703621 -0.0056 0
0.20302 0.703621 -0.0047 0
0.203019 0.70362 -0.0047 0
0.203018 0.70362 -0.0056 0
0.203019 0.703619 -0.0056 0
0.203019 0.703618 -0.0053 0
0.203019 0.703618 -0.0053 0
0.20302 0.703617 -0.0052 0
0.20302 0.703616 -0.0052 0
0.20302 0.703616 -0.0051 0
0.203021 0.703616 -0.0051 0
0.203021 0.703616 -0.0056 0
0.20302 0.703616 -0.0056 0
0.20302 0.703616 -0.0053 0
0.203019 0.703615 -0.0053 0
0.203018 0.703614 -0.0056 0
0.203005 0.702613 -0.0056 0
0.203017 0.703612 -0.0056 0
0.203017 0.70361 -0.0056 0
0.203016 0.703608 -0.0054 0
0.203016 0.703607 -0.0054 0
0.203016 0.703606 -0.0052 0
0.203015 0.703606 -0.0052 0
0.203015 0.703605 -0.0052 0
0.203015 0.703604 -0.0052 0
0.203014 0.703604 -0.0052 0
0.203014 0.703603 -0.0052 0
0.203014 0.703602 -0.0052 0
0.203013 0.703601 -0.0053 0
0.203014 0.703599 -0.0053 0
0.203014 0.703598 -0.0054 0
0.203014 0.703597 -0.0054 0
0.203013 0.703595 -0.0054 0
0.203013 0.703594 -0.0058 0
0.203013 0.703593 -0.0058 0
0.203012 0.703592 -0.0052 0
0.203012 0.703591 -0.0052 0
0.203012 0.703588 -0.0056 0
0.203012 0.703587 -0.0056 0
0.203012 0.703586 -0.005 0
0.203012 0.703586 -0.005 0
0.203012 0.703585 -0.005 0
0.203 0.702584 -0.0053 0
0.203012 0.703583 -0.0053 0
0.203012 0.703582 -0.0057 0
0.203012 0.703582 -0.0057 0
0.203135 0.703552 -0.0052 0
0.203135 0.703551 -0.0052 0
0.203134 0.703549 -0.0051 0
0.203134 0.703548 -0.0051 0
0.203133 0.703547 -0.0051 0
0.203134 0.703546 -0.0055 0
0.203134 0.703545 -0.0055 0
0.203134 0.703543 -0.0052 0
0.203134 0.703543 -0.0052 0
0.203134 0.703542 -0.0055 0
0.203134 0.703541 -0.0055 0
0.203134 0.703541 -0.0055 0
0.203133 0.70354 -0.0056 0
0.203108 0.701539 -0.0056 0
0.203132 0.703537 -0.0052 0
0.203132 0.703536 -0.0052 0
0.203132 0.703535 -0.0057 0
0.203131 0.703535 -0.0057 0
0.203131 0.703534 -0.005 0
0.20313 0.703532 -0.005 0
0.203129 0.703531 -0.0055 0
0.203128 0.703529 -0.0055 0
0.203127 0.703528 -0.0054 0
0.203128 0.703528 -0.0054 0
0.203128 0.703527 -0.0054 0
0.203128 0.703526 -0.0054 0
0.203128 0.703525 -0.0054 0
0.203128 0.703525 -0.0057 0
0.203127 0.703524 -0.0057 0
0.203005 0.703551 -0.005 0
0.203004 0.703551 -0.005 0
0.203004 0.703549 -0.005 0
0.202992 0.702549 -0.0056 0
0.203005 0.703548 -0.0056 0
0.203005 0.703547 -0.0043 0
0.202993 0.702547 -0.0043 0
0.203006 0.703545 -0.0043 0
0.203007 0.703545 -0.0061 0
0.203008 0.703543 -0.0061 0
0.203008 0.703541 -0.0056 0
0.203008 0.703541 -0.0056 0
0.203008 0.70354 -0.0055 0
0.203008 0.703539 -0.0055 0
0.203008 0.703538 -0.0054 0
0.203008 0.703536 -0.0054 0
0.203008 0.703535 -0.0047 0
0.203008 0.703535 -0.0047 0
0.203007 0.703534 -0.0049 0
0.203007 0.703533 -0.0049 0
0.203007 0.703532 -0.0049 0
0.203007 0.703531 -0.0059 0
0.203007 0.70353 -0.0059 0
0.203007 0.70353 -0.0059 0
0.203007 0.703529 -0.0058 0
0.203008 0.703526 -0.0056 0
0.203008 0.703526 -0.0056 0
0.203008 0.703525 -0.0056 0
0.203008 0.703524 -0.0052 0
0.203007 0.703523 -0.0052 0
0.203006 0.703522 -0.0052 0
0.203005 0.703522 -0.0055 0
0.203004 0.703521 -0.0055 0
0.203004 0.703521 -0.0055 0
0.203004 0.70352 -0.0059 0
0.203004 0.703519 -0.0059 0
0.203003 0.703519 -0.0054 0
0.203003 0.703519 -0.0054 0
0.203003 0.703518 -0.0054 0
0.203002 0.703517 -0.0053 0
0.203002 0.703515 -0.0053 0
0.203002 0.703514 -0.0049 0
0.203002 0.703514 -0.0049 0
0.203002 0.703513 -0.0053 0
0.203002 0.703512 -0.0053 0
0.202989 0.702512 -0.0051 0
0.203001 0.70351 -0.0051 0
0.203001 0.703509 -0.0051 0
0.203 0.703509 -0.0055 0
0.203 0.703507 -0.0055 0
0.202999 0.703506 -0.0055 0
0.202997 0.703506 -0.0051 0
0.202997 0.703506 -0.005 0
0.202996 0.703505 -0.005 0
0.202995 0.703505 -0.0054 0
0.202971 0.701505 -0.0054 0
0.202995 0.703504 -0.0054 0
0.202995 0.703503 -0.0055 0
0.202994 0.703502 -0.0055 0
0.202994 0.7035 -0.0053 0
0.202993 0.7035 -0.0053 0
0.202992 0.7035 -0.0055 0
0.202992 0.7035 -0.0055 0
0.202991 0.7035 -0.005 0
0.202991 0.703498 -0.005 0
0.202991 0.703497 -0.0052 0
0.202991 0.703497 -0.0052 0
0.202991 0.703496 -0.0057 0
0.20299 0.703495 -0.0057 0
0.203111 0.703466 -0.0053 0
0.203111 0.703466 -0.0053 0
0.203073 0.700465 -0.0054 0
0.202988 0.703492 -0.0054 0
0.202988 0.70349 -0.0054 0
0.20311 0.703461 -0.0054 0
0.20311 0.703459 -0.005 0
0.20311 0.703458 -0.005 0
0.203111 0.703457 -0.005 0
0.203111 0.703455 -0.0056 0
0.20311 0.703454 -0.0052 0
0.203111 0.703452 -0.0052 0
0.203111 0.70345 -0.0052 0
0.203112 0.703449 -0.0055 0
0.203113 0.703448 -0.0055 0
0.203113 0.703447 -0.0053 0
0.203113 0.703446 -0.0053 0
0.203114 0.703444 -0.0054 0
0.203113 0.703442 -0.0054 0
0.203114 0.703442 -0.0052 0
0.203114 0.703441 -0.0052 0
0.203115 0.703438 -0.0053 0
0.203116 0.703437 -0.0053 0
0.203116 0.703437 -0.0056 0
0.203116 0.703435 -0.0056 0
0.203116 0.703433 -0.0059 0
0.203116 0.703432 -0.0059 0
0.203115 0.703431 -0.0055 0
0.203116 0.703428 -0.0055 0
0.203116 0.703427 -0.0053 0
0.203117 0.703427 -0.0053 0
0.203117 0.703426 -0.0054 0
0.202995 0.703452 -0.0054 0
0.202995 0.70345 -0.0054 0
0.202995 0.703449 -0.0054 0
0.202995 0.703447 -0.0057 0
0.202995 0.703444 -0.0057 0
0.202995 0.703444 -0.0055 0
0.202994 0.703443 -0.0055 0
0.202994 0.703442 -0.0055 0
0.202994 0.703439 -0.0053 0
0.202993 0.703438 -0.005 0
0.202993 0.703436 -0.005 0
0.202994 0.703435 -0.0053 0
0.202994 0.703433 -0.0053 0
0.202995 0.703433 -0.0053 0
0.202994 0.703432 -0.0053 0
0.202995 0.703431 -0.0053 0
0.202995 0.703431 -0.0052 0
0.202996 0.70343 -0.0052 0
0.202995 0.703429 -0.0052 0
0.202994 0.703428 -0.0051 0
0.203116 0.703399 -0.0051 0
0.202993 0.703426 -0.0056 0
0.202993 0.703426 -0.0056 0
0.202994 0.703426 -0.0055 0
0.202994 0.703426 -0.0055 0
0.202994 0.703426 -0.0056 0
0.203117 0.703397 -0.0056 0
0.203117 0.703396 -0.0056 0
0.203117 0.703396 -0.0055 0
0.202994 0.703425 -0.0055 0
0.202993 0.703425 -0.0055 0
0.202993 0.703426 -0.0055 0
0.202993 0.703425 -0.0056 0
0.203115 0.703396 -0.0056 0
0.203116 0.703396 -0.0052 0
0.203116 0.703395 -0.0052 0
0.203116 0.703395 -0.0052 0
0.203118 0.703393 -0.0055 0
0.203106 0.702392 -0.0055 0
0.203118 0.703392 -0.0051 0
0.203118 0.703391 -0.0051 0
0.203118 0.703389 -0.0052 0
0.203118 0.703388 -0.0057 0
0.203119 0.703386 -0.0057 0
0.202998 0.703414 -0.0048 0
0.202999 0.703413 -0.0048 0
0.202999 0.703413 -0.0048 0
0.202998 0.703411 -0.0053 0
0.202997 0.70341 -0.0057 0
0.202997 0.703409 -0.0057 0
0.202996 0.703408 -0.0055 0
0.203118 0.703378 -0.0055 0
0.203116 0.703376 -0.0056 0
0.203103 0.702375 -0.0056 0
0.203115 0.703374 -0.0056 0
0.203114 0.703372 -0.0056 0
0.203114 0.70337 -0.0055 0
0.203114 0.703368 -0.0055 0
0.203114 0.703366 -0.0052 0
0.203113 0.703364 -0.0052 0
0.203112 0.70336 -0.0053 0
0.203111 0.703359 -0.0053 0
0.20311 0.703357 -0.0052 0
0.203109 0.703354 -0.0052 0
0.203109 0.703352 -0.0051 0
0.203109 0.70335 -0.0051 0
0.203108 0.703349 -0.005 0
0.203107 0.703348 -0.005 0
0.203107 0.703347 -0.005 0
0.202983 0.703374 -0.0051 0
0.202982 0.703371 -0.0051 0
0.202982 0.703369 -0.0053 0
0.202981 0.703366 -0.0053 0
0.202981 0.703364 -0.0054 0
0.20298 0.703363 -0.0054 0
0.203103 0.703331 -0.0055 0
0.203103 0.70333 -0.0055 0
0.203104 0.703328 -0.0052 0
0.203103 0.703327 -0.0052 0
0.203103 0.703325 -0.0046 0
0.203104 0.703324 -0.0046 0
0.203104 0.703323 -0.0054 0
0.203104 0.703322 -0.0054 0
0.203104 0.703321 -0.0055 0
0.203104 0.703321 -0.0055 0
0.202981 0.703349 -0.0051 0
0.202982 0.703348 -0.0053 0
0.202982 0.703347 -0.0053 0
0.202982 0.703346 -0.0053 0
0.202982 0.703344 -0.0056 0
0.203105 0.703314 -0.0053 0
0.203104 0.703314 -0.0053 0
0.203103 0.703313 -0.0053 0
0.203103 0.703312 -0.0055 0
0.203103 0.703311 -0.0055 0
0.203102 0.703309 -0.0055 0
0.203102 0.703308 -0.0055 0
0.203103 0.703307 -0.0055 0
0.203102 0.703306 -0.0053 0
0.203103 0.703305 -0.0053 0
0.203103 0.703304 -0.0053 0
0.203102 0.703303 -0.0052 0
0.203103 0.703303 -0.0052 0
0.203102 0.703302 -0.0052 0
0.203101 0.703301 -0.0055 0
0.203101 0.7033 -0.0055 0
0.203101 0.703299 -0.0055 0
0.203101 0.703297 -0.0055 0
0.203101 0.703294 -0.0052 0
0.203101 0.703293 -0.0052 0
0.203101 0.703293 -0.0056 0
0.2031 0.703293 -0.0056 0
0.2031 0.703292 -0.0048 0
0.2031 0.703291 -0.0048 0
0.203099 0.70329 -0.0048 0
0.203098 0.70329 -0.0051 0
0.203098 0.70329 -0.0051 0
0.203098 0.703289 -0.0052 0
0.203097 0.703288 -0.0052 0
0.203097 0.703286 -0.0056 0
0.203096 0.703286 -0.0056 0
0.203095 0.703285 -0.0056 0
0.203094 0.703285 -0.0054 0
0.203093 0.703284 -0.0054 0
0.203092 0.703283 -0.0054 0
0.203091 0.703281 -0.0054 0
0.203091 0.703281 -0.0052 0
0.20309 0.70328 -0.0052 0
0.203089 0.703279 -0.0051 0
0.203088 0.703278 -0.0051 0
0.203086 0.703277 -0.0056 0
0.203085 0.703276 -0.0056 0
0.203084 0.703275 -0.0054 0
0.203084 0.703275 -0.0054 0
0.203084 0.703273 -0.0054 0
0.203084 0.703272 -0.0054 0
0.203083 0.703272 -0.0053 0
0.202959 0.703299 -0.005 0
0.202958 0.703297 -0.005 0
0.202957 0.703295 -0.005 0
0.202821 0.692296 -0.0056 0
0.202956 0.703294 -0.0056 0
0.202956 0.703293 -0.0056 0
0.202955 0.703292 -0.0057 0
0.202955 0.703292 -0.0057 0
0.202954 0.70329 -0.0051 0
0.202954 0.703289 -0.0051 0
0.202954 0.703288 -0.0056 0
0.202954 0.703287 -0.0056 0
0.202954 0.703287 -0.006 0
0.202954 0.703286 -0.006 0
0.202953 0.703286 -0.0053 0
0.202954 0.703283 -0.0053 0
0.202955 0.703281 -0.0053 0
0.202955 0.70328 -0.0054 0
0.202956 0.70328 -0.0054 0
0.202958 0.703281 -0.0062 0
0.202959 0.70328 -0.0062 0
0.202959 0.70328 -0.0051 0
0.202959 0.70328 -0.0051 0
0.202959 0.70328 -0.0051 0
0.202959 0.703279 -0.0051 0
0.203081 0.703248 -0.0049 0
0.203081 0.703247 -0.0049 0
0.20308 0.703246 -0.0058 0
0.203081 0.703245 -0.0058 0
0.203081 0.703244 -0.0058 0
0.203081 0.703244 -0.0055 0
0.203081 0.703243 -0.0055 0
0.202958 0.703271 -0.005 0
0.202957 0.70327 -0.005 0
0.202957 0.703271 -0.0054 0
0.202956 0.70327 -0.0054 0
0.202957 0.70327 -0.0054 0
0.202958 0.70327 -0.0052 0
0.202958 0.703268 -0.0052 0
0.202958 0.703267 -0.0058 0
0.203081 0.703236 -0.0053 0
0.203081 0.703235 -0.0053 0
0.202958 0.703262 -0.0053 0
0.202959 0.703261 -0.0051 0
0.202959 0.703261 -0.0051 0
0.202959 0.70326 -0.0057 0
0.202959 0.703257 -0.0057 0
0.202959 0.703255 -0.0053 0
0.20296 0.703254 -0.0053 0
0.202961 0.703252 -0.0053 0
0.202961 0.703251 -0.0053 0
0.203083 0.703221 -0.0053 0
0.202961 0.70325 -0.0059 0
0.203096 0.704221 -0.0059 0
0.202961 0.703249 -0.0059 0
0.203084 0.703219 -0.0058 0
0.203084 0.703218 -0.0058 0
0.203084 0.703216 -0.0056 0
0.203084 0.703215 -0.0052 0
0.203059 0.701215 -0.0052 0
0.203084 0.703214 -0.0052 0
0.203084 0.703213 -0.0052 0
0.203084 0.703212 -0.0052 0
0.202961 0.70324 -0.0052 0
0.203084 0.703211 -0.0054 0
0.203084 0.70321 -0.0055 0
0.202961 0.703238 -0.0055 0
0.202961 0.703237 -0.0055 0
0.202961 0.703235 -0.0051 0
0.202961 0.703232 -0.0057 0
0.203084 0.703201 -0.0057 0
0.203084 0.7032 -0.0049 0
0.203084 0.703199 -0.0049 0
0.203085 0.703198 -0.0049 0
0.203085 0.703197 -0.0061 0
0.203085 0.703196 -0.0061 0
0.203085 0.703195 -0.0055 0
0.203084 0.703191 -0.0055 0
0.203084 0.70319 -0.0053 0
0.203084 0.70319 -0.0053 0
0.203083 0.70319 -0.0057 0
0.203083 0.70319 -0.0057 0
0.202959 0.703217 -0.0057 0
0.202959 0.703217 -0.0052 0
0.202957 0.703215 -0.0053 0
0.202957 0.703214 -0.0053 0
0.202957 0.703213 -0.0053 0
0.202956 0.703212 -0.0057 0
0.202957 0.703212 -0.0057 0
0.202957 0.703212 -0.0057 0
0.202957 0.703212 -0.0053 0
0.202957 0.703211 -0.0055 0
0.202957 0.70321 -0.0055 0
0.202957 0.703208 -0.0055 0
0.202958 0.703207 -0.0051 0
0.202957 0.703206 -0.0051 0
0.202957 0.703204 -0.0055 0
0.202956 0.703203 -0.0056 0
0.202956 0.703201 -0.0056 0
0.202955 0.7032 -0.0054 0
0.202956 0.703199 -0.0054 0
0.202956 0.703198 -0.0053 0
0.202955 0.703195 -0.0053 0
0.202956 0.703194 -0.005 0
0.202956 0.703193 -0.005 0
0.202956 0.703192 -0.0054 0
0.202956 0.70319 -0.0054 0
0.202956 0.703189 -0.0054 0
0.202956 0.703187 -0.0054 0
0.202956 0.703186 -0.005 0
0.202956 0.703186 -0.005 0
0.202956 0.703185 -0.0051 0
0.202956 0.703184 -0.0051 0
0.202956 0.703182 -0.0054 0
0.202956 0.703182 -0.0054 0
0.202956 0.703182 -0.0051 0
0.202956 0.703181 -0.0051 0
0.202956 0.703181 -0.0056 0
0.202955 0.703181 -0.0056 0
0.202955 0.70318 -0.005 0
0.202955 0.70318 -0.005 0
0.202954 0.70318 -0.005 0
0.202955 0.70318 -0.005 0
0.202955 0.703179 -0.0055 0
0.202955 0.703178 -0.0055 0
0.202956 0.703177 -0.0055 0
0.202955 0.703177 -0.0054 0
0.202956 0.703176 -0.0054 0
0.202956 0.703174 -0.005 0
0.202956 0.703172 -0.005 0
0.202956 0.70317 -0.0052 0
0.202956 0.703169 -0.0052 0
0.202957 0.703168 -0.0052 0
0.202957 0.703167 -0.0051 0
0.202957 0.703166 -0.0051 0
0.202957 0.703165 -0.0051 0
0.202957 0.703165 -0.0055 0
0.20292 0.700162 -0.0055 0
0.202958 0.703161 -0.0055 0
0.202958 0.703161 -0.0055 0
0.202959 0.70316 -0.0054 0
0.202958 0.703159 -0.0054 0
0.202959 0.703158 -0.0054 0
0.202959 0.703158 -0.0057 0
0.202959 0.703156 -0.0057 0
0.202959 0.703156 -0.0051 0
0.202959 0.703154 -0.0057 0
0.20296 0.703153 -0.0057 0
0.20296 0.703153 -0.0057 0
0.202959 0.703153 -0.0058 0
0.202959 0.703153 -0.0058 0
0.202959 0.703152 -0.0058 0
0.202958 0.703151 -0.0054 0
0.202958 0.70315 -0.0054 0
0.202958 0.703148 -0.0052 0
0.202958 0.703147 -0.0052 0
0.202958 0.703147 -0.0055 0
0.202958 0.703147 -0.0055 0
0.202957 0.703145 -0.0051 0
0.202957 0.703145 -0.0051 0
0.202957 0.703145 -0.0058 0
0.202957 0.703144 -0.0058 0
0.202957 0.703144 -0.0058 0
0.202957 0.703143 -0.0052 0
0.202957 0.703143 -0.0052 0
0.202957 0.703142 -0.0054 0
0.202957 0.703142 -0.0054 0
0.202957 0.703141 -0.0054 0
0.202957 0.70314 -0.0055 0
0.202957 0.70314 -0.0055 0
0.202958 0.703139 -0.0053 0
0.202959 0.703138 -0.0053 0
0.202959 0.703138 -0.0053 0
0.202959 0.703137 -0.0049 0
0.20296 0.703136 -0.0053 0
0.20296 0.703136 -0.0053 0
0.202961 0.703135 -0.0053 0
0.202924 0.700134 -0.0052 0
0.202962 0.703134 -0.0052 0
0.202962 0.703133 -0.0052 0
0.202963 0.703132 -0.0052 0
0.202963 0.703132 -0.0052 0
0.202963 0.703131 -0.0053 0
0.202963 0.70313 -0.0053 0
0.202964 0.703128 -0.005 0
0.202964 0.703127 -0.005 0
0.202964 0.703126 -0.0048 0
0.202963 0.703125 -0.0048 0
0.202963 0.703126 -0.0051 0
0.202963 0.703126 -0.0051 0
0.202963 0.703126 -0.0051 0
0.202964 0.703123 -0.0054 0
0.202963 0.703122 -0.0051 0
0.202964 0.70312 -0.0051 0
0.202964 0.703119 -0.0051 0
0.202952 0.702118 -0.0054 0
0.202965 0.703117 -0.0054 0
0.202965 0.703116 -0.0052 0
0.202966 0.703116 -0.0052 0
0.202966 0.703116 -0.0054 0
0.202966 0.703115 -0.0054 0
0.202966 0.703115 -0.0053 0
0.202966 0.703114 -0.0053 0
0.202966 0.703113 -0.0053 0
0.202965 0.703113 -0.0051 0
0.202964 0.703112 -0.0058 0
0.202963 0.703111 -0.0058 0
0.202962 0.70311 -0.0058 0
0.202962 0.703109 -0.0052 0
0.202962 0.703108 -0.0052 0
0.202962 0.703108 -0.0057 0
0.202925 0.700108 -0.0057 0
0.202962 0.703107 -0.0057 0
0.202963 0.703106 -0.0054 0
0.202963 0.703105 -0.0054 0
0.202963 0.703103 -0.0054 0
0.202962 0.703101 -0.0055 0
0.202961 0.7031 -0.0052 0
0.20296 0.703098 -0.0052 0
0.202959 0.703097 -0.0056 0
0.202958 0.703096 -0.0056 0
0.202958 0.703095 -0.0053 0
0.202957 0.703094 -0.0053 0
0.202956 0.703092 -0.0054 0
0.202956 0.703092 -0.0054 0
0.202956 0.703091 -0.0057 0
0.202955 0.70309 -0.0057 0
0.202954 0.703089 -0.0053 0
0.202954 0.703088 -0.0053 0
0.202952 0.703087 -0.0053 0
0.202927 0.701086 -0.0059 0
0.202951 0.703086 -0.0059 0
0.202927 0.701085 -0.0056 0
0.202952 0.703084 -0.0056 0
0.202952 0.703083 -0.0053 0
0.202952 0.703082 -0.0053 0
0.202952 0.703079 -0.0058 0
0.202951 0.703078 -0.0058 0
0.202951 0.703077 -0.0058 0
0.203073 0.703047 -0.0049 0
0.203073 0.703046 -0.0053 0
0.203073 0.703046 -0.0053 0
0.203073 0.703046 -0.0053 0
0.20295 0.703075 -0.0054 0
0.20295 0.703073 -0.0053 0
0.203072 0.703043 -0.0053 0
0.203073 0.703042 -0.0053 0
0.202952 0.703067 -0.0052 0
0.202953 0.703066 -0.0053 0
0.202954 0.703066 -0.0053 0
0.203459 0.744062 -0.0053 0
0.202955 0.703066 -0.0055 0
0.202943 0.702066 -0.0055 0
0.202954 0.703065 -0.0055 0
0.202954 0.703065 -0.0055 0
0.203076 0.703035 -0.0052 0
0.203076 0.703035 -0.0052 0
0.203075 0.703033 -0.0054 0
0.203075 0.703032 -0.0054 0
0.203075 0.703032 -0.0052 0
0.203076 0.703031 -0.0052 0
0.203076 0.703031 -0.0055 0
0.203077 0.70303 -0.0055 0
0.203076 0.703029 -0.005 0
0.203076 0.703028 -0.005 0
0.203076 0.703027 -0.005 0
0.203075 0.703025 -0.0055 0
0.203075 0.703023 -0.0054 0
0.203074 0.703022 -0.0054 0
0.203074 0.703021 -0.0054 0
0.203073 0.703021 -0.005 0
0.203073 0.70302 -0.005 0
0.203073 0.703019 -0.0056 0
0.203073 0.703017 -0.0055 0
0.203074 0.703017 -0.0055 0
0.203074 0.703017 -0.0055 0
0.203074 0.703016 -0.0056 0
0.203075 0.703014 -0.0056 0
0.203075 0.703013 -0.0052 0
0.203075 0.703013 -0.0052 0
0.203075 0.703012 -0.0052 0
0.203075 0.703011 -0.0051 0
0.203074 0.70301 -0.0051 0
0.203074 0.70301 -0.0053 0
0.203074 0.703009 -0.0053 0
0.203073 0.703007 -0.0052 0
0.203073 0.703007 -0.0052 0
0.203073 0.703006 -0.005 0
0.203074 0.703005 -0.005 0
0.203074 0.703005 -0.005 0
0.203073 0.703005 -0.0056 0
0.203074 0.703004 -0.0056 0
0.203073 0.703002 -0.0053 0
0.203073 0.703 -0.0053 0
0.203073 0.702999 -0.0058 0
0.203073 0.702998 -0.0058 0
0.20295 0.703025 -0.0058 0
0.20295 0.703022 -0.0054 0
0.202925 0.701021 -0.0054 0
0.20295 0.703019 -0.0054 0
0.20295 0.703017 -0.0056 0
0.20295 0.703016 -0.0056 0
0.202949 0.703015 -0.0056 0
0.202949 0.703014 -0.0053 0
0.202949 0.703012 -0.0053 0
0.202948 0.703011 -0.0055 0
0.203071 0.70298 -0.0055 0
0.202948 0.703008 -0.0055 0
0.202923 0.701007 -0.0055 0
0.20307 0.702977 -0.0052 0
0.202947 0.703004 -0.0052 0
0.202947 0.703003 -0.0052 0
0.202946 0.703001 -0.005 0
0.202946 0.703001 -0.005 0
0.202946 0.702998 -0.0055 0
0.202946 0.702998 -0.0055 0
0.202945 0.702998 -0.0051 0
0.202945 0.702996 -0.0051 0
0.203067 0.702967 -0.0051 0
0.20292 0.700995 -0.0051 0
0.202944 0.702993 -0.0051 0
0.202945 0.702992 -0.0055 0
0.203067 0.70296 -0.0055 0
0.203067 0.702958 -0.0053 0
0.203068 0.702957 -0.0053 0
0.203068 0.702956 -0.0054 0
0.203069 0.702954 -0.0054 0
0.203068 0.702953 -0.0054 0
0.203069 0.702952 -0.0049 0
0.203069 0.702951 -0.0049 0
0.203069 0.70295 -0.0054 0
0.20307 0.70295 -0.0054 0
0.20307 0.70295 -0.0057 0
0.203069 0.702949 -0.0057 0
0.203069 0.702948 -0.005 0
0.203068 0.702947 -0.005 0
0.203068 0.702947 -0.0058 0
0.203067 0.702948 -0.0058 0
0.203066 0.702949 -0.0054 0
0.203066 0.702949 -0.0054 0
0.203065 0.702949 -0.0058 0
0.203065 0.702948 -0.0058 0
0.203064 0.702947 -0.0052 0
0.203064 0.702946 -0.0056 0
0.203064 0.702944 -0.0056 0
0.203064 0.702943 -0.0056 0
0.203064 0.702941 -0.0056 0
0.203063 0.702938 -0.0056 0
0.203063 0.702936 -0.0049 0
0.203064 0.702935 -0.0049 0
0.203064 0.702933 -0.0053 0
0.203063 0.702931 -0.0054 0
0.203063 0.702929 -0.0054 0
0.203063 0.702928 -0.0054 0
0.203064 0.702927 -0.0055 0
0.203063 0.702925 -0.0051 0
0.203062 0.702923 -0.0051 0
0.203062 0.702922 -0.0051 0
0.20306 0.70292 -0.0056 0
0.20306 0.70292 -0.0056 0
0.20306 0.702919 -0.0056 0
0.203059 0.702917 -0.0056 0
0.203059 0.702915 -0.005 0
0.203058 0.702914 -0.005 0
0.203057 0.702913 -0.0056 0
0.203057 0.702912 -0.0056 0
0.203057 0.70291 -0.005 0
0.203057 0.702908 -0.0055 0
0.203057 0.702906 -0.0055 0
0.203057 0.702904 -0.0055 0
0.203056 0.702902 -0.0054 0
0.203055 0.702901 -0.0054 0
0.203055 0.7029 -0.0054 0
0.203054 0.702899 -0.0054 0
0.203053 0.702898 -0.0056 0
0.203053 0.702897 -0.0056 0
0.203052 0.702896 -0.0056 0
0.203052 0.702896 -0.0059 0
0.203052 0.702895 -0.0059 0
0.203052 0.702895 -0.0054 0
0.203051 0.702894 -0.0054 0
0.20305 0.702894 -0.0053 0
0.20305 0.702893 -0.0053 0
0.203049 0.702891 -0.0058 0
0.203048 0.702889 -0.0058 0
0.203048 0.702887 -0.0055 0
0.203048 0.702883 -0.0055 0
0.203048 0.702883 -0.0058 0
0.203049 0.702882 -0.0058 0
0.203049 0.702882 -0.0053 0
0.203049 0.702881 -0.0053 0
0.20305 0.70288 -0.0053 0
0.20305 0.702879 -0.0053 0
0.20305 0.702878 -0.0052 0
0.20305 0.702877 -0.0052 0
0.20305 0.702876 -0.0052 0
0.20305 0.702874 -0.0055 0
0.20305 0.702872 -0.0055 0
0.203049 0.70287 -0.0059 0
0.203049 0.70287 -0.0059 0
0.20305 0.702869 -0.0053 0
0.20305 0.702869 -0.0053 0
0.203051 0.702868 -0.0054 0
0.203051 0.702868 -0.0054 0
0.203051 0.702866 -0.0054 0
0.203052 0.702866 -0.0053 0
0.203051 0.702866 -0.0053 0
0.203051 0.702865 -0.0053 0
0.203051 0.702865 -0.0046 0
0.203051 0.702862 -0.005 0
0.203051 0.702861 -0.005 0
0.203052 0.702859 -0.0051 0
0.203052 0.702858 -0.0051 0
0.203052 0.702857 -0.0051 0
0.203053 0.702856 -0.0053 0
0.203053 0.702855 -0.0053 0
0.203054 0.702854 -0.0052 0
0.203055 0.702853 -0.0052 0
0.203055 0.702852 -0.0052 0
0.203055 0.702852 -0.0057 0
0.203055 0.702851 -0.0057 0
0.203055 0.702849 -0.0055 0
0.203054 0.702846 -0.0055 0
0.203054 0.702844 -0.0055 0
0.203053 0.702844 -0.0055 0
0.203053 0.702843 -0.0054 0
0.203053 0.702842 -0.0054 0
0.203051 0.702841 -0.0054 0
0.203051 0.70284 -0.0055 0
0.203051 0.702839 -0.0055 0
0.203052 0.702838 -0.0055 0
0.203051 0.702836 -0.005 0
0.203051 0.702835 -0.0054 0
0.203051 0.702834 -0.0054 0
0.203051 0.702833 -0.0055 0
0.203051 0.702832 -0.0055 0
0.20305 0.70283 -0.0055 0
0.203049 0.702828 -0.0058 0
0.203048 0.702825 -0.0058 0
0.203047 0.702823 -0.0053 0
0.203046 0.702822 -0.0053 0
0.203045 0.70282 -0.0053 0
0.203044 0.70282 -0.0053 0
0.203043 0.702819 -0.0053 0
0.203042 0.702817 -0.0053 0
0.203041 0.702815 -0.0055 0
0.20304 0.702813 -0.0055 0
0.203039 0.702812 -0.0055 0
0.203038 0.70281 -0.0055 0
0.203037 0.702809 -0.0055 0
0.203036 0.702808 -0.0048 0
0.203036 0.702808 -0.0048 0
0.203036 0.702808 -0.0052 0
0.203035 0.702807 -0.0052 0
0.203023 0.701806 -0.0052 0
0.203035 0.702803 -0.0054 0
0.203035 0.702803 -0.0054 0
0.203035 0.702802 -0.0054 0
0.203034 0.702801 -0.0054 0
0.203034 0.702799 -0.0056 0
0.203034 0.702798 -0.0056 0
0.203034 0.702797 -0.0054 0
0.203033 0.702796 -0.0054 0
0.203032 0.702793 -0.0054 0
0.203032 0.702793 -0.0054 0
0.203032 0.702792 -0.0048 0
0.203032 0.702792 -0.0048 0
0.203031 0.702791 -0.0048 0
0.203005 0.70079 -0.0054 0
0.20303 0.702789 -0.0054 0
0.20303 0.702788 -0.0053 0
0.20303 0.702787 -0.0053 0
0.203029 0.702786 -0.0053 0
0.203029 0.702785 -0.0055 0
0.20303 0.702784 -0.0055 0
0.203029 0.702783 -0.0049 0
0.203029 0.702781 -0.0049 0
0.203029 0.702781 -0.0051 0
0.203029 0.70278 -0.0051 0
0.203029 0.70278 -0.005 0
0.203029 0.702779 -0.005 0
0.203028 0.702779 -0.005 0
0.203028 0.702778 -0.0055 0
0.203028 0.702777 -0.0055 0
0.203015 0.701776 -0.0051 0
0.203015 0.701775 -0.0051 0
0.203028 0.702774 -0.0051 0
0.203027 0.702773 -0.0052 0
0.202877 0.690774 -0.0056 0
0.203026 0.702772 -0.0056 0
0.203025 0.702771 -0.0056 0
0.203025 0.70277 -0.0051 0
0.203025 0.70277 -0.0051 0
0.203025 0.702769 -0.0055 0
0.203024 0.702767 -0.0055 0
0.203023 0.702767 -0.0053 0
0.2029 0.702796 -0.0053 0
0.2029 0.702796 -0.0049 0
0.202899 0.702795 -0.0049 0
0.202899 0.702794 -0.0055 0
0.2029 0.702793 -0.0055 0
0.202899 0.702793 -0.0055 0
0.2029 0.702793 -0.0049 0
0.2029 0.702792 -0.0049 0
0.2029 0.702791 -0.005 0
0.202899 0.702791 -0.005 0
0.202899 0.70279 -0.0052 0
0.202899 0.702789 -0.0052 0
0.203022 0.70276 -0.0052 0
0.203022 0.702758 -0.0055 0
0.203021 0.702758 -0.0055 0
0.20302 0.702757 -0.0057 0
0.202897 0.702783 -0.0057 0
0.202897 0.702782 -0.0054 0
0.203019 0.702752 -0.0054 0
0.203019 0.702751 -0.0055 0
0.202982 0.699749 -0.0055 0
0.203019 0.702749 -0.0055 0
0.203017 0.702748 -0.0055 0
0.203016 0.702747 -0.0061 0
0.203015 0.702745 -0.0061 0
0.203015 0.702745 -0.0059 0
0.203014 0.702743 -0.0049 0
0.203015 0.702742 -0.0049 0
0.203015 0.702741 -0.0049 0
0.203015 0.70274 -0.0055 0
0.203015 0.702739 -0.0057 0
0.203016 0.702738 -0.0057 0
0.203016 0.702737 -0.0057 0
0.203016 0.702736 -0.0055 0
0.203016 0.702733 -0.0054 0
0.203016 0.702733 -0.0054 0
0.203017 0.702731 -0.0057 0
0.203017 0.702731 -0.0057 0
0.203018 0.70273 -0.0051 0
0.203019 0.702729 -0.0051 0
0.20302 0.702728 -0.0051 0
0.20302 0.702726 -0.0058 0
0.203021 0.702725 -0.0053 0
0.203021 0.702724 -0.0053 0
0.203021 0.702724 -0.0053 0
0.202898 0.702751 -0.0051 0
0.202898 0.70275 -0.0052 0
0.202898 0.702749 -0.0052 0
0.202899 0.702748 -0.0055 0
0.202899 0.702748 -0.0055 0
0.202899 0.702748 -0.0051 0
0.202899 0.702748 -0.0051 0
0.2029 0.702749 -0.0054 0
0.2029 0.702748 -0.0053 0
0.2029 0.702748 -0.0053 0
0.2029 0.702747 -0.0053 0
0.2029 0.702744 -0.0053 0
0.202899 0.702743 -0.0053 0
0.202899 0.702742 -0.0053 0
0.202407 0.662744 -0.0053 0
0.2029 0.702741 -0.0052 0
0.2029 0.70274 -0.0052 0
0.2029 0.702739 -0.0056 0
0.2029 0.702738 -0.0056 0
0.2029 0.702737 -0.0056 0
0.2029 0.702736 -0.0053 0
0.2029 0.702736 -0.0053 0
0.2029 0.702734 -0.0057 0
0.2029 0.702733 -0.0057 0
0.2029 0.702732 -0.0052 0
0.2029 0.702731 -0.0052 0
0.2029 0.70273 -0.0054 0
0.202897 0.702728 -0.0054 0
0.202897 0.702727 -0.0054 0
0.202896 0.702725 -0.0054 0
0.202895 0.702724 -0.0053 0
0.202894 0.702722 -0.0053 0
0.202894 0.702721 -0.0053 0
0.202894 0.70272 -0.0053 0
0.202894 0.702718 -0.0053 0
0.202895 0.702717 -0.0054 0
0.202895 0.702715 -0.0054 0
0.202896 0.702713 -0.0054 0
0.202897 0.702712 -0.0054 0
0.202897 0.702711 -0.0055 0
0.202898 0.70271 -0.0055 0
0.202897 0.702709 -0.0055 0
0.202896 0.702707 -0.0048 0
0.202896 0.702707 -0.0048 0
0.202896 0.702706 -0.0056 0
0.202896 0.702705 -0.0056 0
0.202896 0.702705 -0.0056 0
0.202895 0.702704 -0.0051 0
0.202895 0.702704 -0.0051 0
0.202896 0.702703 -0.0052 0
0.202898 0.702699 -0.0052 0
0.202898 0.702697 -0.0052 0
0.202898 0.702695 -0.0052 0
0.202899 0.702693 -0.0056 0
0.2029 0.702691 -0.0056 0
0.2029 0.702689 -0.0056 0
0.2029 0.702687 -0.0054 0
0.202899 0.702686 -0.0049 0
0.2029 0.702685 -0.0049 0
0.2029 0.702684 -0.0053 0
0.202901 0.702683 -0.0053 0
0.202901 0.702682 -0.0053 0
0.202902 0.702682 -0.0053 0
0.202902 0.702681 -0.0052 0
0.202865 0.699681 -0.0052 0
0.202902 0.702681 -0.0057 0
0.202902 0.702678 -0.0057 0
0.202901 0.702677 -0.0052 0
0.202902 0.702676 -0.0052 0
0.202877 0.700676 -0.0056 0
0.202901 0.702674 -0.0056 0
0.202901 0.702673 -0.0055 0
0.202901 0.702672 -0.0055 0
0.202901 0.702672 -0.0047 0
0.202902 0.702671 -0.0047 0
0.202901 0.70267 -0.0053 0
0.202901 0.702669 -0.0053 0
0.203023 0.702638 -0.0054 0
0.203022 0.702634 -0.0054 0
0.203021 0.702634 -0.0056 0
0.203021 0.702633 -0.0056 0
0.203021 0.702631 -0.0056 0
0.202898 0.702658 -0.0056 0
0.202897 0.702655 -0.0052 0
0.202896 0.702655 -0.0052 0
0.202895 0.702654 -0.0055 0
0.202894 0.702651 -0.0055 0
0.202857 0.69965 -0.0054 0
0.202894 0.702649 -0.0054 0
0.202894 0.702648 -0.0053 0
0.202895 0.702647 -0.0053 0
0.202895 0.702647 -0.0053 0
0.202748 0.690648 -0.0054 0
0.202896 0.702646 -0.0054 0
0.203018 0.702617 -0.0055 0
0.203018 0.702616 -0.0055 0
0.202895 0.702644 -0.0055 0
0.202895 0.702642 -0.0052 0
0.202895 0.702641 -0.0052 0
0.202895 0.702641 -0.0052 0
0.202895 0.70264 -0.0052 0
0.202894 0.702639 -0.0055 0
0.202894 0.702638 -0.0055 0
0.202893 0.702636 -0.005 0
0.202893 0.702635 -0.005 0
0.202892 0.702634 -0.0051 0
0.202892 0.702634 -0.0051 0
0.202891 0.702632 -0.0053 0
0.202891 0.702631 -0.0053 0
0.202891 0.70263 -0.0048 0
0.20289 0.702629 -0.0048 0
0.203013 0.702598 -0.0054 0
0.203012 0.702596 -0.0054 0
0.203013 0.702595 -0.0054 0
0.203013 0.702594 -0.0054 0
0.202891 0.702621 -0.005 0
0.203014 0.702591 -0.005 0
0.203014 0.70259 -0.0055 0
0.203014 0.702589 -0.0055 0
0.203014 0.702586 -0.0055 0
0.202891 0.702614 -0.0055 0
0.202891 0.702613 -0.0052 0
0.202891 0.702611 -0.0055 0
0.202891 0.702609 -0.0055 0
0.202891 0.702608 -0.0055 0
0.202891 0.702607 -0.005 0
0.202891 0.702605 -0.0053 0
0.202891 0.702604 -0.0053 0
0.202891 0.702603 -0.0053 0
0.202891 0.702601 -0.0056 0
0.20289 0.702601 -0.0053 0
0.202891 0.7026 -0.0053 0
0.202893 0.702599 -0.0053 0
0.203015 0.70257 -0.0053 0
0.203014 0.702567 -0.0054 0
0.203014 0.702566 -0.0054 0
0.203014 0.702564 -0.0057 0
0.203014 0.702563 -0.0051 0
0.203014 0.702562 -0.0051 0
0.203013 0.702561 -0.0051 0
0.203014 0.70256 -0.0056 0
0.203014 0.702559 -0.0056 0
0.203014 0.702558 -0.0053 0
0.203016 0.702555 -0.0053 0
0.203015 0.702553 -0.0058 0
0.203015 0.702551 -0.0058 0
0.203014 0.702549 -0.0054 0
0.202892 0.702576 -0.0054 0
0.202891 0.702575 -0.0054 0
0.202891 0.702573 -0.0052 0
0.202891 0.702572 -0.0051 0
0.20289 0.702572 -0.0051 0
0.20289 0.702571 -0.0051 0
0.202889 0.702568 -0.0052 0
0.202889 0.702566 -0.0059 0
0.202888 0.702564 -0.0059 0
0.202888 0.702563 -0.0059 0
0.202888 0.702563 -0.0057 0
0.202887 0.702562 -0.0055 0
0.202887 0.702562 -0.0055 0
0.202887 0.702561 -0.0055 0
0.202888 0.702561 -0.005 0
0.202889 0.702559 -0.0049 0
0.202889 0.702558 -0.0049 0
0.202889 0.702558 -0.0049 0
0.202889 0.702558 -0.0051 0
0.202889 0.702557 -0.0054 0
0.202889 0.702557 -0.0054 0
0.202889 0.702556 -0.0054 0
0.202888 0.702555 -0.0059 0
0.202887 0.702554 -0.0054 0
0.202886 0.702553 -0.0054 0
0.203006 0.702523 -0.0052 0
0.203005 0.702522 -0.0052 0
0.203006 0.702521 -0.005 0
0.203006 0.70252 -0.005 0
0.203005 0.702519 -0.0055 0
0.203004 0.702518 -0.0055 0
0.203004 0.702518 -0.0049 0
0.203004 0.702517 -0.0049 0
0.203004 0.702515 -0.0056 0
0.202979 0.700514 -0.0056 0
0.203004 0.702512 -0.0056 0
0.203004 0.702511 -0.0056 0
0.203004 0.702508 -0.0048 0
0.203005 0.702508 -0.0048 0
0.203005 0.702508 -0.005 0
0.203005 0.702507 -0.005 0
0.202882 0.702534 -0.0056 0
0.202882 0.702533 -0.0056 0
0.202882 0.702532 -0.0058 0
0.202882 0.702532 -0.0058 0
0.202882 0.702532 -0.0058 0
0.202882 0.702531 -0.0054 0
0.202882 0.702531 -0.0054 0
0.202882 0.70253 -0.0057 0
0.202882 0.702529 -0.0057 0
0.202882 0.702528 -0.0059 0
0.202882 0.702527 -0.0059 0
0.202882 0.702526 -0.0054 0
0.202883 0.702525 -0.0054 0
0.203006 0.702494 -0.0054 0
0.202884 0.70252 -0.0053 0
0.202884 0.702519 -0.0058 0
0.202884 0.702519 -0.0058 0
0.202884 0.702519 -0.0058 0
0.202884 0.702518 -0.0054 0
0.202884 0.702517 -0.0054 0
0.202884 0.702516 -0.0057 0
0.202884 0.702515 -0.0057 0
0.202884 0.702514 -0.0057 0
0.203006 0.702484 -0.0056 0
0.203006 0.702483 -0.0053 0
0.203005 0.702482 -0.0053 0
0.203005 0.702481 -0.0053 0
0.203004 0.702479 -0.0056 0
0.203003 0.702476 -0.0051 0
0.203002 0.702475 -0.0051 0
0.203002 0.702475 -0.0051 0
0.203003 0.702474 -0.0052 0
0.203003 0.702473 -0.0052 0
0.203003 0.702472 -0.0056 0
0.203003 0.702471 -0.0056 0
0.203002 0.70247 -0.0056 0
0.203002 0.702469 -0.0054 0
0.203002 0.702468 -0.0054 0
0.203002 0.702467 -0.0054 0
0.202964 0.699467 -0.0054 0
0.203002 0.702466 -0.0054 0
0.203002 0.702466 -0.0052 0
0.203001 0.702465 -0.0052 0
0.203001 0.702464 -0.0056 0
0.202999 0.70246 -0.0056 0
0.202973 0.700459 -0.0052 0
0.202997 0.702458 -0.0052 0
0.202997 0.702455 -0.0054 0
0.202996 0.702454 -0.0054 0
0.202995 0.702453 -0.0052 0
0.202995 0.702452 -0.0052 0
0.202995 0.702451 -0.0054 0
0.202993 0.70245 -0.0054 0
0.202723 0.690479 -0.0054 0
0.202871 0.702477 -0.0054 0
0.20287 0.702476 -0.0058 0
0.202871 0.702475 -0.0058 0
0.20287 0.702474 -0.0055 0
0.202869 0.702473 -0.0055 0
0.202991 0.702443 -0.0051 0
0.202991 0.702443 -0.0051 0
0.202868 0.702471 -0.006 0
0.202868 0.702469 -0.006 0
0.202867 0.702467 -0.0047 0
0.202867 0.702465 -0.0047 0
0.202866 0.702464 -0.0052 0
0.202867 0.702463 -0.0054 0
0.202867 0.702462 -0.0054 0
0.202867 0.702461 -0.0054 0
0.202868 0.702459 -0.0053 0
0.202868 0.702458 -0.0051 0
0.202867 0.702457 -0.0051 0
0.202867 0.702456 -0.0051 0
0.202868 0.702454 -0.0053 0
0.202867 0.702453 -0.0049 0
0.202867 0.702451 -0.0049 0
0.202989 0.702422 -0.0049 0
0.202988 0.702421 -0.0057 0
0.202865 0.702448 -0.0057 0
0.202865 0.702447 -0.0051 0
0.202876 0.703445 -0.0051 0
0.202985 0.702415 -0.0051 0
0.202985 0.702414 -0.0054 0
0.202985 0.702412 -0.0056 0
0.202985 0.702411 -0.0056 0
0.202985 0.702409 -0.0056 0
0.202985 0.702408 -0.0053 0
0.202985 0.702407 -0.0053 0
0.202986 0.702403 -0.0056 0
0.202986 0.702402 -0.0056 0
0.202987 0.702401 -0.0053 0
0.202987 0.702402 -0.0053 0
0.202987 0.702402 -0.0058 0
0.202987 0.702402 -0.0058 0
0.202987 0.702401 -0.0058 0
0.202988 0.702399 -0.005 0
0.202989 0.702399 -0.005 0
0.202988 0.702399 -0.005 0
0.202989 0.702399 -0.0055 0
0.202989 0.702398 -0.0055 0
0.20299 0.702394 -0.0052 0
0.20299 0.702393 -0.0052 0
0.202991 0.702392 -0.0054 0
0.202978 0.70139 -0.0053 0
0.20299 0.702389 -0.0053 0
0.20299 0.702389 -0.0053 0
0.202989 0.702388 -0.0057 0
0.202989 0.702387 -0.0057 0
0.202988 0.702386 -0.0053 0
0.202988 0.702385 -0.0053 0
0.202988 0.702384 -0.0053 0
0.202988 0.702383 -0.0052 0
0.202988 0.70238 -0.0052 0
0.202988 0.702378 -0.0052 0
0.202989 0.702376 -0.0052 0
0.202989 0.702374 -0.005 0
0.20299 0.702373 -0.005 0
0.20299 0.702374 -0.0055 0
0.202991 0.702373 -0.0055 0
0.20299 0.702372 -0.0049 0
0.20299 0.702371 -0.0049 0
0.20299 0.702371 -0.005 0
0.20299 0.702371 -0.005 0
0.20299 0.702371 -0.005 0
0.202991 0.702369 -0.006 0
0.202991 0.702367 -0.0049 0
0.202979 0.701366 -0.0049 0
0.202991 0.702365 -0.0049 0
0.202991 0.702364 -0.0055 0
0.202991 0.702363 -0.0055 0
0.202991 0.70236 -0.005 0
0.20299 0.702359 -0.005 0
0.202965 0.700357 -0.005 0
0.20299 0.702355 -0.005 0
0.202989 0.702354 -0.005 0
0.202978 0.701352 -0.005 0
0.20299 0.702351 -0.005 0
0.20299 0.702349 -0.0054 0
0.20299 0.702348 -0.0057 0
0.203501 0.743344 -0.0057 0
0.202989 0.702348 -0.0057 0
0.202989 0.702348 -0.0051 0
0.202988 0.702348 -0.0051 0
0.202988 0.702347 -0.0052 0
0.202988 0.702347 -0.0052 0
0.202988 0.702346 -0.0052 0
0.202989 0.702344 -0.0053 0
0.202988 0.702343 -0.0056 0
0.202988 0.702342 -0.0056 0
0.202988 0.702341 -0.0056 0
0.202987 0.70234 -0.0052 0
0.202988 0.70234 -0.0052 0
0.202987 0.702339 -0.0053 0
0.202864 0.702366 -0.0053 0
0.202864 0.702365 -0.0056 0
0.202864 0.702364 -0.0056 0
0.203369 0.743359 -0.0058 0
0.202863 0.70236 -0.0058 0
0.202863 0.702359 -0.0052 0
0.202863 0.702358 -0.0052 0
0.202863 0.702356 -0.0053 0
0.202863 0.702355 -0.0053 0
0.202862 0.702354 -0.0058 0
0.202838 0.700354 -0.0058 0
0.202861 0.702352 -0.0051 0
0.20286 0.702351 -0.0051 0
0.20286 0.702351 -0.0052 0
0.202982 0.702321 -0.0052 0
0.202983 0.70232 -0.0061 0
0.202983 0.702319 -0.0061 0
0.202983 0.702318 -0.0061 0
0.202983 0.702317 -0.0058 0
0.202983 0.702316 -0.0058 0
0.202982 0.702315 -0.0052 0
0.202981 0.702314 -0.0052 0
0.20298 0.702313 -0.0051 0
0.202979 0.702312 -0.0051 0
0.202979 0.702312 -0.0055 0
0.202978 0.702311 -0.0055 0
0.202978 0.70231 -0.0055 0
0.202978 0.702309 -0.0048 0
0.202976 0.702308 -0.0048 0
0.202962 0.701307 -0.0052 0
0.202974 0.702305 -0.0052 0
0.202973 0.702304 -0.0061 0
0.202972 0.702304 -0.0061 0
0.202972 0.702304 -0.0046 0
0.202971 0.702303 -0.0046 0
0.20297 0.702301 -0.0052 0
0.20297 0.702301 -0.0052 0
0.20297 0.702299 -0.0057 0
0.20297 0.702299 -0.0057 0
0.202969 0.702295 -0.0052 0
0.202969 0.702294 -0.0052 0
0.202969 0.702294 -0.0047 0
0.202968 0.702293 -0.0047 0
0.202845 0.70232 -0.0051 0
0.202967 0.70229 -0.0051 0
0.202968 0.702289 -0.006 0
0.202845 0.702316 -0.006 0
0.202846 0.702314 -0.005 0
0.202846 0.702314 -0.005 0
0.202847 0.702315 -0.0052 0
0.202847 0.702314 -0.0052 0
0.202809 0.699313 -0.0053 0
0.202846 0.702312 -0.0053 0
0.202847 0.702311 -0.0052 0
0.202835 0.70131 -0.0052 0
0.202848 0.702309 -0.0052 0
0.202848 0.702308 -0.0055 0
0.202849 0.702308 -0.0055 0
0.20285 0.702308 -0.0051 0
0.202851 0.702308 -0.0051 0
0.202851 0.702307 -0.0051 0
0.202851 0.702306 -0.0051 0
0.202851 0.702305 -0.0055 0
0.202852 0.702304 -0.0055 0
0.202852 0.702302 -0.0055 0
0.202975 0.702272 -0.005 0
0.202975 0.702271 -0.005 0
0.202975 0.702269 -0.0052 0
0.202976 0.702267 -0.0052 0
0.202976 0.702267 -0.0056 0
0.202964 0.701266 -0.0056 0
0.202976 0.702265 -0.0057 0
0.202976 0.702264 -0.0057 0
0.202976 0.702263 -0.0057 0
0.202976 0.702262 -0.0055 0
0.202976 0.702261 -0.0055 0
0.202975 0.70226 -0.0055 0
0.202974 0.70226 -0.0055 0
0.202974 0.702259 -0.0055 0
0.202973 0.702259 -0.0055 0
0.202973 0.702259 -0.0053 0
0.202972 0.702258 -0.0053 0
0.202972 0.702257 -0.0053 0
0.202971 0.702256 -0.0057 0
0.202971 0.702256 -0.005 0
0.202971 0.702256 -0.005 0
0.20297 0.702256 -0.005 0
0.202846 0.702284 -0.0057 0
0.202846 0.702284 -0.005 0
0.202846 0.702284 -0.005 0
0.202846 0.702284 -0.005 0
0.202846 0.702283 -0.0055 0
0.202845 0.702282 -0.0052 0
0.202968 0.702252 -0.0052 0
0.202968 0.702252 -0.0052 0
0.202844 0.702281 -0.0054 0
0.202843 0.702281 -0.0055 0
0.202843 0.702279 -0.0055 0
0.202843 0.702279 -0.0053 0
0.202843 0.702278 -0.0053 0
0.202966 0.702248 -0.0055 0
0.202965 0.702247 -0.0055 0
0.202965 0.702246 -0.0052 0
0.202964 0.702246 -0.0052 0
0.20284 0.702274 -0.0049 0
0.202961 0.702245 -0.0049 0
0.20296 0.702245 -0.0055 0
0.202959 0.702245 -0.0055 0
0.202959 0.702244 -0.0055 0
0.202959 0.702243 -0.0055 0
0.202958 0.702241 -0.0055 0
0.20292 0.69924 -0.0055 0
0.202958 0.702239 -0.0055 0
0.202959 0.702239 -0.0051 0
0.202961 0.702237 -0.0051 0
0.202961 0.702236 -0.0058 0
0.202961 0.702234 -0.0058 0
0.202961 0.702234 -0.0047 0
0.202961 0.702233 -0.0047 0
0.20296 0.702231 -0.0053 0
0.20296 0.702231 -0.0053 0
0.202959 0.70223 -0.0059 0
0.202959 0.70223 -0.0059 0
0.202959 0.702229 -0.0059 0
0.202959 0.702227 -0.0049 0
0.202959 0.702226 -0.0057 0
0.202959 0.702226 -0.0057 0
0.202959 0.702225 -0.0057 0
0.202959 0.702225 -0.0056 0
0.202836 0.702253 -0.0056 0
0.202835 0.702251 -0.0052 0
0.202835 0.702249 -0.0052 0
0.202834 0.702248 -0.0052 0
0.202835 0.702246 -0.0055 0
0.202834 0.702245 -0.0051 0
0.202834 0.702244 -0.0051 0
0.202834 0.702242 -0.0051 0
0.202834 0.702241 -0.0053 0
0.202834 0.70224 -0.0053 0
0.202833 0.702238 -0.0052 0
0.202833 0.702237 -0.0052 0
0.202833 0.702236 -0.0053 0
0.202833 0.702235 -0.0053 0
0.202833 0.702233 -0.0056 0
0.202833 0.702232 -0.0056 0
0.202833 0.702231 -0.0056 0
0.202796 0.699231 -0.005 0
0.202832 0.702229 -0.005 0
0.202832 0.702228 -0.0054 0
0.202832 0.702227 -0.0054 0
0.202832 0.702226 -0.0056 0
0.202832 0.702225 -0.0056 0
0.202832 0.702224 -0.0054 0
0.202832 0.702223 -0.0054 0
0.202833 0.702222 -0.0054 0
0.202955 0.702193 -0.0057 0
0.202944 0.701191 -0.0049 0
0.202956 0.70219 -0.0049 0
0.202956 0.702188 -0.0049 0
0.202956 0.702187 -0.0057 0
0.202956 0.702185 -0.0057 0
0.202955 0.702184 -0.0053 0
0.202954 0.702182 -0.0053 0
0.202831 0.70221 -0.0053 0
0.202831 0.702209 -0.0056 0
0.202954 0.70218 -0.0055 0
0.202955 0.702179 -0.0055 0
0.202955 0.702178 -0.0055 0
0.202955 0.702177 -0.0052 0
0.202955 0.702177 -0.0052 0
0.202918 0.699176 -0.0054 0
0.202956 0.702173 -0.0054 0
0.202955 0.702171 -0.0055 0
0.202955 0.70217 -0.0055 0
0.202955 0.702169 -0.0052 0
0.202954 0.702168 -0.0052 0
0.202953 0.702168 -0.0058 0
0.202954 0.702166 -0.0058 0
0.202954 0.702165 -0.0052 0
0.202954 0.702163 -0.0052 0
0.202954 0.702161 -0.0052 0
0.202954 0.70216 -0.0051 0
0.202953 0.702159 -0.0055 0
0.202952 0.702158 -0.0055 0
0.202951 0.702157 -0.0055 0
0.20295 0.702156 -0.0052 0
0.20295 0.702155 -0.0052 0
0.20295 0.702155 -0.0057 0
0.20295 0.702154 -0.0057 0
0.20295 0.702153 -0.0053 0
0.20295 0.702153 -0.0053 0
0.202949 0.702152 -0.0053 0
0.202949 0.702152 -0.0053 0
0.202948 0.702151 -0.0053 0
0.202948 0.702151 -0.0053 0
0.202947 0.70215 -0.0053 0
0.202946 0.702149 -0.0055 0
0.202945 0.702148 -0.0055 0
0.202945 0.702147 -0.0054 0
0.202945 0.702147 -0.0054 0
0.202945 0.702146 -0.0054 0
0.202944 0.702146 -0.0054 0
0.202943 0.702144 -0.0054 0
0.202943 0.702143 -0.0055 0
0.202942 0.702142 -0.0055 0
0.202942 0.702141 -0.0052 0
0.202942 0.70214 -0.0052 0
0.202941 0.702139 -0.0051 0
0.202941 0.702138 -0.0051 0
0.202941 0.702137 -0.0061 0
0.20294 0.702135 -0.0061 0
0.20294 0.702134 -0.0055 0
0.202939 0.702133 -0.0055 0
0.202939 0.70213 -0.0052 0
0.202939 0.702129 -0.0052 0
0.202939 0.702128 -0.0055 0
0.202939 0.702128 -0.0055 0
0.20278 0.699156 -0.0049 0
0.202817 0.702156 -0.0049 0
0.202939 0.702127 -0.0054 0
0.20294 0.702126 -0.0054 0
0.20294 0.702125 -0.0053 0
0.20294 0.702124 -0.0053 0
0.202939 0.702123 -0.0053 0
0.202939 0.702122 -0.0056 0
0.202939 0.702122 -0.0056 0
0.20294 0.70212 -0.0054 0
0.20294 0.702119 -0.0054 0
0.20294 0.702118 -0.0052 0
0.202939 0.702118 -0.0052 0
0.202938 0.702115 -0.0055 0
0.202938 0.702115 -0.0055 0
0.202938 0.702114 -0.0052 0
0.202938 0.702114 -0.0052 0
0.202938 0.702113 -0.0056 0
0.202937 0.702112 -0.0056 0
0.202937 0.702111 -0.0053 0
0.202936 0.702111 -0.0055 0
0.202937 0.70211 -0.0055 0
0.202937 0.702109 -0.0055 0
0.202937 0.702109 -0.005 0
0.202936 0.702108 -0.005 0
0.202938 0.702108 -0.0051 0
0.202938 0.702107 -0.0051 0
0.202938 0.702106 -0.0056 0
0.2029 0.699105 -0.0056 0
0.202937 0.702101 -0.0055 0
0.202938 0.7021 -0.0055 0
0.202938 0.702099 -0.0048 0
0.202938 0.702098 -0.0048 0
0.202938 0.702097 -0.0056 0
0.202938 0.702095 -0.0056 0
0.202939 0.702093 -0.0052 0
0.202938 0.702092 -0.0052 0
0.202939 0.702092 -0.0058 0
0.202939 0.702091 -0.0058 0
0.202938 0.702091 -0.0058 0
0.202938 0.70209 -0.0049 0
0.202938 0.702089 -0.0049 0
0.202937 0.702086 -0.0055 0
0.202937 0.702085 -0.0055 0
0.202937 0.702083 -0.0051 0
0.202937 0.702082 -0.0051 0
0.202937 0.70208 -0.0052 0
0.202936 0.702079 -0.0052 0
0.202935 0.702076 -0.0055 0
0.202934 0.702075 -0.0055 0
0.202932 0.702075 -0.0054 0
0.202932 0.702073 -0.0054 0
0.202931 0.702072 -0.0055 0
0.202931 0.702071 -0.0055 0
0.202931 0.70207 -0.0052 0
0.20293 0.702069 -0.0052 0
0.202929 0.702069 -0.0052 0
0.202929 0.702069 -0.0056 0
0.202929 0.702069 -0.0056 0
0.202929 0.702066 -0.005 0
0.202929 0.702066 -0.005 0
0.202929 0.702066 -0.0056 0
0.202929 0.702065 -0.0056 0
0.202929 0.702065 -0.0051 0
0.202928 0.702065 -0.0051 0
0.202929 0.702065 -0.0053 0
0.202929 0.702065 -0.0053 0
0.202929 0.702065 -0.0052 0
0.202928 0.702064 -0.0052 0
0.202929 0.702063 -0.0052 0
0.20293 0.702062 -0.0052 0
0.202931 0.70206 -0.0052 0
0.202931 0.702058 -0.0052 0
0.202931 0.702057 -0.0052 0
0.202931 0.702055 -0.0052 0
0.202931 0.702053 -0.0051 0
0.20293 0.702052 -0.0051 0
0.20293 0.702051 -0.0051 0
0.202806 0.702078 -0.0055 0
0.202806 0.702077 -0.0055 0
0.202806 0.702076 -0.0055 0
0.20283 0.704074 -0.0051 0
0.202805 0.702073 -0.0051 0
0.202805 0.702073 -0.0051 0
0.202805 0.702072 -0.0051 0
0.202805 0.702072 -0.0051 0
0.202804 0.702071 -0.0051 0
0.202926 0.702041 -0.0057 0
0.202803 0.70207 -0.0057 0
0.202803 0.702069 -0.0057 0
0.202803 0.702068 -0.0052 0
0.202922 0.702037 -0.0058 0
0.202929 0.702036 -0.0058 0
0.203072 0.702006 -0.0058 0
0.203713 0.701859 0.0082 0
0.203936 0.701797 0.0447 0
0.204276 0.701705 0.0447 0
0.204511 0.700616 -0.0051 0
0.204542 0.700591 -0.0051 0
0.204572 0.700569 0.0302 0
0.204453 0.700596 0.0302 0
0.204309 0.70066 0.0302 0
0.203831 0.700819 0.0003 0
0.203695 0.700862 0.0054 0
0.203664 0.699872 0.0054 0
0.203651 0.699879 0.0054 0
0.203637 0.699893 -0.0084 0
0.203634 0.699898 -0.0064 0
0.203512 0.69993 -0.0064 0
0.203389 0.699959 -0.006 0
0.203383 0.698959 -0.006 0
0.203162 0.700016 0.000200001 0
0.203038 0.69904 0.000200001 0
0.20279 0.699091 0.0067 0
0.202676 0.700113 0.0067 0
0.202657 0.699107 -0.0039 0
0.202167 0.699207 -0.0039 0
0.202183 0.700196 0.0016 0
0.202067 0.700213 0.0016 0
0.202076 0.700208 -0.0035 0
0.202065 0.699215 -0.0035 0
0.202064 0.699225 -0.0044 0
0.202066 0.699234 -0.0044 0
0.202067 0.699239 0.000100001 0
0.202065 0.699243 0.000100001 0
0.202064 0.699243 -0.0034 0
0.202065 0.699241 -0.0034 0
0.202066 0.69924 -0.0025 0
0.20207 0.699243 -0.0025 0
0.202071 0.699243 0.000500001 0
0.202073 0.699243 0.000500001 0
0.202076 0.699241 -0.0019 0
0.202076 0.699239 -0.0019 0
0.202088 0.70024 -0.0023 0
0.202078 0.699241 -0.0023 0
0.202077 0.699242 0.000100001 0
0.202076 0.699243 0.000100001 0
0.202074 0.699244 0.000100001 0
0.202082 0.700244 -0.0022 0
0.202068 0.699245 -0.0022 0
0.20207 0.699248 -0.0049 0
0.202072 0.69925 -0.0049 0
0.202071 0.69925 -0.000199999 0
0.202073 0.699249 -0.000199999 0
0.202075 0.699248 -0.0019 0
0.202077 0.699244 -0.0019 0
0.202078 0.699243 -0.0019 0
0.202077 0.699239 -0.0018 0
0.202077 0.699238 0.000300001 0
0.202076 0.699237 0.000300001 0
0.202075 0.699236 0.000300001 0
0.202075 0.699233 -0.0056 0
0.202075 0.699235 -0.0027 0
0.202075 0.699235 -0.0027 0
0.202076 0.699236 -0.0027 0
0.202076 0.699235 -0.0039 0
0.202075 0.699233 -0.0044 0
0.202076 0.69923 -0.0044 0
0.202077 0.69923 -0.0044 0
0.202078 0.69923 4.65661e-10 0
0.202081 0.699229 -0.0029 0
0.202081 0.69923 -0.0029 0
0.202081 0.699229 -0.0029 0
0.202093 0.700229 -0.0032 0
0.202083 0.699228 -0.0032 0
0.202083 0.699225 -0.0018 0
0.202083 0.699225 -0.0018 0
0.202084 0.699224 -0.0043 0
0.202084 0.699224 -0.0043 0
0.202083 0.699224 -0.0017 0
0.202085 0.699223 -0.0017 0
0.202084 0.699222 -0.0014 0
0.202084 0.699221 -0.0014 0
0.202084 0.699221 -0.0028 0
0.202085 0.699218 -0.0028 0
0.202084 0.699218 -0.0035 0
0.202083 0.699217 -0.0035 0
0.202082 0.699216 -0.003 0
0.202083 0.699219 -0.003 0
0.202084 0.69922 -0.0043 0
0.202082 0.699218 -0.0014 0
0.202079 0.699216 -0.0014 0
0.202086 0.700211 -0.0014 0
0.202074 0.699208 -0.000299999 0
0.202075 0.699207 -0.000299999 0
0.202082 0.699209 -0.0019 0
0.202093 0.700209 -0.0019 0
