ply
format ascii 1.0
element vertex 1735
property float x
property float y
property float z
property float intensity
end_header
0.310311 0.716359 -0.0085 0
0.310311 0.716357 -0.0079 0
0.310311 0.716356 -0.0079 0
0.310311 0.716354 -0.0083 0
0.310311 0.716353 -0.0083 0
0.310311 0.716352 -0.0077 0
0.310311 0.716352 -0.0077 0
0.310311 0.716351 -0.0077 0
0.310341 0.71535 -0.008 0
0.310311 0.716348 -0.008 0
0.310311 0.716348 -0.0084 0
0.310311 0.716347 -0.0084 0
0.310435 0.716323 -0.0079 0
0.310435 0.716321 -0.0079 0
0.310435 0.71632 -0.0078 0
0.310434 0.716319 -0.0078 0
0.310434 0.716318 -0.0078 0
0.310434 0.716317 -0.0082 0
0.310434 0.716316 -0.0082 0
0.310435 0.716314 -0.0079 0
0.310435 0.716313 -0.0079 0
0.310435 0.716313 -0.0082 0
0.310435 0.716312 -0.0082 0
0.310435 0.716312 -0.0082 0
0.310434 0.716311 -0.0083 0
0.310494 0.71431 -0.0083 0
0.310433 0.716308 -0.0079 0
0.310433 0.716307 -0.0084 0
0.310433 0.716306 -0.0084 0
0.310432 0.716305 -0.0084 0
0.310432 0.716304 -0.0077 0
0.310431 0.716303 -0.0077 0
0.310431 0.716302 -0.0082 0
0.310429 0.7163 -0.0082 0
0.310429 0.716299 -0.0081 0
0.31043 0.716299 -0.0081 0
0.31043 0.716298 -0.0081 0
0.31043 0.716296 -0.0081 0
0.31043 0.716296 -0.0081 0
0.310429 0.716295 -0.0084 0
0.310429 0.716294 -0.0084 0
0.310305 0.716316 -0.0077 0
0.310305 0.716316 -0.0077 0
0.310305 0.716315 -0.0077 0
0.310335 0.715315 -0.0083 0
0.310305 0.716313 -0.0083 0
0.310306 0.716312 -0.007 0
0.310336 0.715312 -0.007 0
0.310306 0.716311 -0.007 0
0.310308 0.71631 -0.0088 0
0.310308 0.716309 -0.0088 0
0.310309 0.716307 -0.0083 0
0.310309 0.716306 -0.0083 0
0.310309 0.716306 -0.0082 0
0.310309 0.716304 -0.0082 0
0.310309 0.716304 -0.0081 0
0.310309 0.716301 -0.0081 0
0.310309 0.716301 -0.0074 0
0.310309 0.7163 -0.0074 0
0.310308 0.716299 -0.0076 0
0.310308 0.716299 -0.0076 0
0.310309 0.716297 -0.0076 0
0.310309 0.716297 -0.0086 0
0.310309 0.716296 -0.0086 0
0.310309 0.716295 -0.0086 0
0.310309 0.716294 -0.0085 0
0.310309 0.716292 -0.0083 0
0.31031 0.716291 -0.0083 0
0.310309 0.716291 -0.0079 0
0.310309 0.716289 -0.0079 0
0.310309 0.716288 -0.0079 0
0.310308 0.716288 -0.0079 0
0.310307 0.716287 -0.0082 0
0.310306 0.716287 -0.0082 0
0.310306 0.716286 -0.0082 0
0.310306 0.716285 -0.0086 0
0.310305 0.716285 -0.0086 0
0.310305 0.716284 -0.0081 0
0.310305 0.716284 -0.0081 0
0.310305 0.716283 -0.0081 0
0.310304 0.716282 -0.008 0
0.310304 0.71628 -0.008 0
0.310304 0.716279 -0.0076 0
0.310304 0.716279 -0.0076 0
0.310304 0.716278 -0.008 0
0.310304 0.716277 -0.008 0
0.310333 0.715277 -0.0078 0
0.310303 0.716276 -0.0078 0
0.310303 0.716275 -0.0078 0
0.310303 0.716274 -0.0082 0
0.310302 0.716273 -0.0082 0
0.310301 0.716272 -0.0078 0
0.3103 0.716271 -0.0078 0
0.310299 0.716271 -0.0077 0
0.310298 0.71627 -0.0077 0
0.310298 0.71627 -0.0081 0
0.310358 0.71427 -0.0081 0
0.310298 0.716269 -0.0081 0
0.310297 0.716268 -0.0082 0
0.310297 0.716267 -0.0082 0
0.310296 0.716265 -0.008 0
0.310296 0.716265 -0.008 0
0.310295 0.716265 -0.0082 0
0.310294 0.716265 -0.0082 0
0.310294 0.716264 -0.0077 0
0.310293 0.716263 -0.0077 0
0.310294 0.716262 -0.0079 0
0.310294 0.716262 -0.0079 0
0.310294 0.716261 -0.0084 0
0.310293 0.71626 -0.0084 0
0.310416 0.716236 -0.008 0
0.310415 0.716235 -0.008 0
0.310505 0.713236 -0.0081 0
0.310291 0.716256 -0.0081 0
0.310291 0.716255 -0.0081 0
0.310415 0.71623 -0.0081 0
0.310415 0.716229 -0.0077 0
0.310415 0.716228 -0.0077 0
0.310415 0.716227 -0.0077 0
0.310415 0.716225 -0.0083 0
0.310415 0.716224 -0.0079 0
0.310416 0.716222 -0.0079 0
0.310416 0.71622 -0.0079 0
0.310417 0.716219 -0.0082 0
0.310418 0.716218 -0.0082 0
0.310418 0.716217 -0.008 0
0.310418 0.716216 -0.008 0
0.310419 0.716214 -0.0081 0
0.310418 0.716212 -0.0081 0
0.310419 0.716212 -0.0079 0
0.310419 0.716211 -0.0079 0
0.31042 0.716208 -0.008 0
0.310421 0.716207 -0.008 0
0.310421 0.716207 -0.0083 0
0.310422 0.716205 -0.0083 0
0.310422 0.716203 -0.0086 0
0.310421 0.716202 -0.0086 0
0.310421 0.716201 -0.0082 0
0.310422 0.716198 -0.0082 0
0.310422 0.716197 -0.008 0
0.310422 0.716197 -0.008 0
0.310423 0.716196 -0.0081 0
0.3103 0.716216 -0.0081 0
0.3103 0.716215 -0.0081 0
0.310299 0.716214 -0.0081 0
0.3103 0.716212 -0.0084 0
0.3103 0.716209 -0.0084 0
0.3103 0.716209 -0.0082 0
0.3103 0.716208 -0.0082 0
0.310299 0.716207 -0.0082 0
0.310299 0.716204 -0.008 0
0.310299 0.716203 -0.0077 0
0.310299 0.716201 -0.0077 0
0.310299 0.716199 -0.008 0
0.3103 0.716198 -0.008 0
0.3103 0.716198 -0.008 0
0.3103 0.716197 -0.008 0
0.310301 0.716196 -0.008 0
0.310301 0.716196 -0.0079 0
0.310301 0.716195 -0.0079 0
0.310301 0.716194 -0.0079 0
0.3103 0.716193 -0.0078 0
0.310423 0.716169 -0.0078 0
0.310299 0.716191 -0.0083 0
0.310299 0.716191 -0.0083 0
0.3103 0.716191 -0.0082 0
0.3103 0.716191 -0.0082 0
0.3103 0.716191 -0.0083 0
0.310424 0.716167 -0.0083 0
0.310424 0.716167 -0.0083 0
0.310424 0.716166 -0.0082 0
0.3103 0.71619 -0.0082 0
0.310299 0.71619 -0.0082 0
0.310299 0.716191 -0.0082 0
0.310299 0.71619 -0.0083 0
0.310422 0.716166 -0.0083 0
0.310423 0.716166 -0.0079 0
0.310423 0.716166 -0.0079 0
0.310423 0.716165 -0.0079 0
0.310425 0.716163 -0.0082 0
0.310455 0.715163 -0.0082 0
0.310425 0.716162 -0.0078 0
0.310426 0.716162 -0.0078 0
0.310425 0.716159 -0.0079 0
0.310426 0.716158 -0.0084 0
0.310426 0.716157 -0.0084 0
0.310304 0.716179 -0.0075 0
0.310305 0.716179 -0.0075 0
0.310305 0.716178 -0.0075 0
0.310305 0.716176 -0.008 0
0.310304 0.716175 -0.0084 0
0.310303 0.716174 -0.0084 0
0.310302 0.716173 -0.0082 0
0.310425 0.716148 -0.0082 0
0.310424 0.716146 -0.0083 0
0.310453 0.715146 -0.0083 0
0.310423 0.716145 -0.0083 0
0.310423 0.716142 -0.0083 0
0.310423 0.71614 -0.0082 0
0.310423 0.716138 -0.0082 0
0.310422 0.716136 -0.0079 0
0.310422 0.716134 -0.0079 0
0.31042 0.716131 -0.008 0
0.310419 0.716129 -0.008 0
0.310418 0.716127 -0.0079 0
0.310418 0.716124 -0.0079 0
0.310418 0.716122 -0.0078 0
0.310418 0.71612 -0.0078 0
0.310417 0.716119 -0.0077 0
0.310416 0.716118 -0.0077 0
0.310416 0.716116 -0.0077 0
0.310291 0.716138 -0.0078 0
0.31029 0.716135 -0.0078 0
0.31029 0.716133 -0.008 0
0.31029 0.716131 -0.008 0
0.31029 0.716128 -0.0081 0
0.310289 0.716127 -0.0081 0
0.310413 0.7161 -0.0082 0
0.310413 0.716099 -0.0082 0
0.310414 0.716098 -0.0079 0
0.310413 0.716096 -0.0079 0
0.310413 0.716095 -0.0073 0
0.310414 0.716094 -0.0073 0
0.310415 0.716093 -0.0081 0
0.310414 0.716092 -0.0081 0
0.310414 0.716091 -0.0082 0
0.310414 0.716091 -0.0082 0
0.31029 0.716114 -0.0078 0
0.310291 0.716112 -0.008 0
0.310291 0.716111 -0.008 0
0.310291 0.716111 -0.008 0
0.310292 0.716109 -0.0083 0
0.310415 0.716084 -0.008 0
0.310415 0.716084 -0.008 0
0.310414 0.716083 -0.008 0
0.310414 0.716082 -0.0082 0
0.310413 0.71608 -0.0082 0
0.310413 0.716079 -0.0082 0
0.310413 0.716078 -0.0082 0
0.310413 0.716077 -0.0082 0
0.310413 0.716076 -0.008 0
0.310414 0.716075 -0.008 0
0.310414 0.716073 -0.008 0
0.310413 0.716072 -0.0079 0
0.310414 0.716072 -0.0079 0
0.310413 0.716071 -0.0079 0
0.310412 0.716071 -0.0082 0
0.310412 0.71607 -0.0082 0
0.310412 0.716069 -0.0082 0
0.310412 0.716067 -0.0082 0
0.310412 0.716064 -0.0079 0
0.310412 0.716063 -0.0079 0
0.310412 0.716063 -0.0083 0
0.310412 0.716062 -0.0083 0
0.310411 0.716062 -0.0075 0
0.310411 0.716061 -0.0075 0
0.31041 0.71606 -0.0075 0
0.31041 0.71606 -0.0078 0
0.310409 0.716059 -0.0078 0
0.31041 0.716058 -0.0079 0
0.310409 0.716057 -0.0079 0
0.310409 0.716056 -0.0083 0
0.310408 0.716055 -0.0083 0
0.310407 0.716054 -0.0083 0
0.310406 0.716054 -0.0081 0
0.310405 0.716053 -0.0081 0
0.310404 0.716052 -0.0081 0
0.310403 0.716051 -0.0081 0
0.310403 0.71605 -0.0079 0
0.310402 0.716049 -0.0079 0
0.310401 0.716048 -0.0078 0
0.3104 0.716047 -0.0078 0
0.310399 0.716046 -0.0083 0
0.310397 0.716045 -0.0083 0
0.310397 0.716044 -0.0081 0
0.310397 0.716044 -0.0081 0
0.310396 0.716042 -0.0081 0
0.310396 0.716041 -0.0081 0
0.310396 0.71604 -0.008 0
0.31027 0.716062 -0.0077 0
0.310269 0.716061 -0.0077 0
0.310269 0.716059 -0.0077 0
0.310601 0.705063 -0.0083 0
0.310268 0.716057 -0.0083 0
0.310268 0.716057 -0.0083 0
0.310267 0.716056 -0.0084 0
0.310266 0.716055 -0.0084 0
0.310266 0.716054 -0.0078 0
0.310266 0.716053 -0.0078 0
0.310266 0.716051 -0.0083 0
0.310266 0.716051 -0.0083 0
0.310266 0.716051 -0.0087 0
0.310266 0.71605 -0.0087 0
0.310265 0.716049 -0.008 0
0.310266 0.716046 -0.008 0
0.310267 0.716045 -0.008 0
0.310267 0.716043 -0.0081 0
0.310269 0.716043 -0.0081 0
0.31027 0.716044 -0.0089 0
0.310271 0.716044 -0.0089 0
0.310271 0.716044 -0.0078 0
0.310271 0.716044 -0.0078 0
0.310271 0.716043 -0.0078 0
0.310271 0.716043 -0.0078 0
0.310395 0.716016 -0.0076 0
0.310394 0.716016 -0.0076 0
0.310394 0.716015 -0.0076 0
0.310394 0.716014 -0.0085 0
0.310394 0.716013 -0.0085 0
0.310394 0.716012 -0.0082 0
0.310394 0.716011 -0.0082 0
0.31027 0.716035 -0.0077 0
0.31027 0.716034 -0.0077 0
0.310269 0.716034 -0.0081 0
0.310269 0.716034 -0.0081 0
0.310269 0.716034 -0.0081 0
0.31027 0.716033 -0.0079 0
0.310271 0.716032 -0.0079 0
0.310271 0.716031 -0.0085 0
0.310395 0.716005 -0.008 0
0.310395 0.716004 -0.008 0
0.310271 0.716026 -0.008 0
0.310271 0.716025 -0.0078 0
0.310272 0.716024 -0.0078 0
0.310272 0.716023 -0.0084 0
0.310272 0.71602 -0.0084 0
0.310273 0.716019 -0.008 0
0.310274 0.716017 -0.008 0
0.310274 0.716016 -0.008 0
0.310275 0.716014 -0.008 0
0.310398 0.71599 -0.008 0
0.310275 0.716014 -0.0086 0
0.310368 0.716989 -0.0086 0
0.310274 0.716013 -0.0086 0
0.310399 0.715988 -0.0085 0
0.310399 0.715987 -0.0085 0
0.310399 0.715985 -0.0083 0
0.310399 0.715984 -0.0079 0
0.310459 0.713984 -0.0079 0
0.310399 0.715983 -0.0079 0
0.310399 0.715982 -0.0079 0
0.310399 0.715981 -0.0079 0
0.310275 0.716004 -0.0079 0
0.310399 0.71598 -0.0081 0
0.310399 0.715979 -0.0082 0
0.310275 0.716001 -0.0082 0
0.310275 0.716 -0.0082 0
0.310275 0.715999 -0.0078 0
0.310275 0.715995 -0.0084 0
0.310399 0.71597 -0.0084 0
0.310399 0.715969 -0.0076 0
0.3104 0.715968 -0.0076 0
0.310401 0.715967 -0.0076 0
0.310401 0.715966 -0.0088 0
0.310401 0.715965 -0.0088 0
0.310401 0.715964 -0.0082 0
0.3104 0.71596 -0.0082 0
0.3104 0.715959 -0.008 0
0.3104 0.715959 -0.008 0
0.310399 0.715959 -0.0084 0
0.310399 0.715959 -0.0084 0
0.310274 0.715981 -0.0084 0
0.310274 0.715981 -0.0079 0
0.310272 0.715979 -0.0079 0
0.310272 0.715977 -0.008 0
0.310272 0.715976 -0.008 0
0.310271 0.715976 -0.0084 0
0.310272 0.715976 -0.0084 0
0.310272 0.715975 -0.0084 0
0.310273 0.715975 -0.008 0
0.310272 0.715975 -0.0082 0
0.310272 0.715974 -0.0082 0
0.310273 0.715972 -0.0082 0
0.310273 0.715971 -0.0078 0
0.310272 0.71597 -0.0078 0
0.310272 0.715968 -0.0082 0
0.310272 0.715967 -0.0083 0
0.310272 0.715965 -0.0083 0
0.310271 0.715964 -0.0081 0
0.310272 0.715962 -0.0081 0
0.310271 0.715961 -0.008 0
0.310271 0.715958 -0.008 0
0.310272 0.715957 -0.0077 0
0.310272 0.715956 -0.0077 0
0.310272 0.715955 -0.0081 0
0.310272 0.715953 -0.0081 0
0.310272 0.715952 -0.0081 0
0.310272 0.715951 -0.0081 0
0.310272 0.71595 -0.0077 0
0.310272 0.715949 -0.0077 0
0.310273 0.715948 -0.0078 0
0.310272 0.715948 -0.0078 0
0.310273 0.715946 -0.0081 0
0.310272 0.715945 -0.0081 0
0.310272 0.715945 -0.0078 0
0.310272 0.715945 -0.0078 0
0.310272 0.715944 -0.0083 0
0.310272 0.715944 -0.0083 0
0.310271 0.715944 -0.0077 0
0.310271 0.715943 -0.0077 0
0.310271 0.715943 -0.0077 0
0.310271 0.715943 -0.0077 0
0.310271 0.715943 -0.0082 0
0.310272 0.715942 -0.0082 0
0.310272 0.715941 -0.0082 0
0.310272 0.71594 -0.0081 0
0.310272 0.715939 -0.0081 0
0.310273 0.715938 -0.0077 0
0.310273 0.715935 -0.0077 0
0.310273 0.715933 -0.0079 0
0.310273 0.715932 -0.0079 0
0.310273 0.715932 -0.0079 0
0.310274 0.71593 -0.0078 0
0.310274 0.71593 -0.0078 0
0.310274 0.715929 -0.0078 0
0.310274 0.715928 -0.0082 0
0.310365 0.712927 -0.0082 0
0.310275 0.715925 -0.0082 0
0.310275 0.715924 -0.0082 0
0.310276 0.715924 -0.0081 0
0.310276 0.715922 -0.0081 0
0.310276 0.715922 -0.0081 0
0.310276 0.715921 -0.0084 0
0.310276 0.71592 -0.0084 0
0.310276 0.71592 -0.0078 0
0.310277 0.715918 -0.0084 0
0.310277 0.715917 -0.0084 0
0.310277 0.715917 -0.0084 0
0.310277 0.715917 -0.0085 0
0.310277 0.715916 -0.0085 0
0.310277 0.715916 -0.0085 0
0.310276 0.715915 -0.0081 0
0.310276 0.715913 -0.0081 0
0.310276 0.715912 -0.0079 0
0.310276 0.715911 -0.0079 0
0.310275 0.71591 -0.0082 0
0.310276 0.71591 -0.0082 0
0.310275 0.715909 -0.0078 0
0.310275 0.715909 -0.0078 0
0.310275 0.715908 -0.0085 0
0.310274 0.715908 -0.0085 0
0.310275 0.715907 -0.0085 0
0.310275 0.715907 -0.0079 0
0.310275 0.715906 -0.0079 0
0.310275 0.715906 -0.0081 0
0.310275 0.715905 -0.0081 0
0.310275 0.715905 -0.0081 0
0.310275 0.715904 -0.0082 0
0.310275 0.715904 -0.0082 0
0.310276 0.715903 -0.008 0
0.310277 0.715902 -0.008 0
0.310277 0.715901 -0.008 0
0.310278 0.7159 -0.0076 0
0.310278 0.7159 -0.008 0
0.310279 0.715899 -0.008 0
0.310279 0.715899 -0.008 0
0.31037 0.712899 -0.0079 0
0.31028 0.715898 -0.0079 0
0.31028 0.715897 -0.0079 0
0.310281 0.715896 -0.0079 0
0.310282 0.715896 -0.0079 0
0.310281 0.715895 -0.008 0
0.310282 0.715894 -0.008 0
0.310282 0.715892 -0.0077 0
0.310282 0.715891 -0.0077 0
0.310282 0.71589 -0.0075 0
0.310282 0.715889 -0.0075 0
0.310282 0.71589 -0.0078 0
0.310282 0.71589 -0.0078 0
0.310282 0.715889 -0.0078 0
0.310282 0.715887 -0.0081 0
0.310282 0.715886 -0.0078 0
0.310283 0.715884 -0.0078 0
0.310283 0.715883 -0.0078 0
0.310314 0.714882 -0.0081 0
0.310284 0.715881 -0.0081 0
0.310285 0.71588 -0.0079 0
0.310285 0.71588 -0.0079 0
0.310285 0.71588 -0.0081 0
0.310285 0.715879 -0.0081 0
0.310285 0.715879 -0.008 0
0.310285 0.715878 -0.008 0
0.310285 0.715877 -0.008 0
0.310284 0.715877 -0.0078 0
0.310283 0.715876 -0.0085 0
0.310282 0.715875 -0.0085 0
0.310282 0.715874 -0.0085 0
0.310281 0.715872 -0.0079 0
0.310282 0.715872 -0.0079 0
0.310282 0.715872 -0.0084 0
0.310372 0.712873 -0.0084 0
0.310282 0.715871 -0.0084 0
0.310282 0.71587 -0.0081 0
0.310282 0.715869 -0.0081 0
0.310282 0.715867 -0.0081 0
0.310281 0.715865 -0.0082 0
0.310281 0.715864 -0.0079 0
0.31028 0.715862 -0.0079 0
0.310279 0.715861 -0.0083 0
0.310278 0.71586 -0.0083 0
0.310278 0.715859 -0.008 0
0.310277 0.715858 -0.008 0
0.310276 0.715856 -0.0081 0
0.310276 0.715855 -0.0081 0
0.310276 0.715854 -0.0084 0
0.310275 0.715853 -0.0084 0
0.310274 0.715853 -0.008 0
0.310274 0.715852 -0.008 0
0.310272 0.715851 -0.008 0
0.310332 0.713851 -0.0086 0
0.310271 0.715849 -0.0086 0
0.310332 0.71385 -0.0083 0
0.310272 0.715848 -0.0083 0
0.310272 0.715847 -0.008 0
0.310273 0.715845 -0.008 0
0.310272 0.715843 -0.0085 0
0.310272 0.715842 -0.0085 0
0.310272 0.715841 -0.0085 0
0.310395 0.715815 -0.0076 0
0.310395 0.715815 -0.008 0
0.310395 0.715814 -0.008 0
0.310395 0.715815 -0.008 0
0.310271 0.715838 -0.0081 0
0.310271 0.715836 -0.008 0
0.310394 0.715812 -0.008 0
0.310395 0.71581 -0.008 0
0.310273 0.715831 -0.0079 0
0.310275 0.71583 -0.008 0
0.310275 0.71583 -0.008 0
0.309035 0.75681 -0.008 0
0.310276 0.715829 -0.0082 0
0.310307 0.71483 -0.0082 0
0.310276 0.715828 -0.0082 0
0.310275 0.715828 -0.0082 0
0.310398 0.715804 -0.0079 0
0.310398 0.715804 -0.0079 0
0.310397 0.715802 -0.0081 0
0.310397 0.715801 -0.0081 0
0.310398 0.7158 -0.0079 0
0.310398 0.7158 -0.0079 0
0.310399 0.7158 -0.0082 0
0.310399 0.715799 -0.0082 0
0.310399 0.715797 -0.0077 0
0.310398 0.715797 -0.0077 0
0.310398 0.715796 -0.0077 0
0.310398 0.715793 -0.0082 0
0.310398 0.715792 -0.0081 0
0.310397 0.715791 -0.0081 0
0.310397 0.71579 -0.0081 0
0.310396 0.715789 -0.0077 0
0.310396 0.715788 -0.0077 0
0.310396 0.715787 -0.0083 0
0.310396 0.715786 -0.0082 0
0.310397 0.715786 -0.0082 0
0.310398 0.715785 -0.0082 0
0.310398 0.715785 -0.0083 0
0.310398 0.715783 -0.0083 0
0.310398 0.715782 -0.0079 0
0.310398 0.715782 -0.0079 0
0.310398 0.715781 -0.0079 0
0.310398 0.71578 -0.0078 0
0.310398 0.715779 -0.0078 0
0.310398 0.715779 -0.008 0
0.310397 0.715777 -0.008 0
0.310396 0.715776 -0.0079 0
0.310397 0.715775 -0.0079 0
0.310397 0.715774 -0.0077 0
0.310397 0.715774 -0.0077 0
0.310397 0.715774 -0.0077 0
0.310397 0.715774 -0.0083 0
0.310397 0.715773 -0.0083 0
0.310397 0.715771 -0.008 0
0.310397 0.715769 -0.008 0
0.310397 0.715768 -0.0085 0
0.310397 0.715767 -0.0085 0
0.310273 0.715789 -0.0085 0
0.310273 0.715785 -0.0081 0
0.310334 0.713785 -0.0081 0
0.310273 0.715783 -0.0081 0
0.310274 0.715781 -0.0083 0
0.310273 0.715779 -0.0083 0
0.310273 0.715778 -0.0083 0
0.310272 0.715777 -0.008 0
0.310272 0.715776 -0.008 0
0.310272 0.715775 -0.0082 0
0.310395 0.715749 -0.0082 0
0.310272 0.715771 -0.0082 0
0.310332 0.713771 -0.0082 0
0.310395 0.715746 -0.0082 0
0.310271 0.715768 -0.0079 0
0.310271 0.715766 -0.0079 0
0.31027 0.715765 -0.0077 0
0.31027 0.715764 -0.0077 0
0.31027 0.715762 -0.0082 0
0.31027 0.715761 -0.0082 0
0.31027 0.715761 -0.0078 0
0.310269 0.715759 -0.0078 0
0.310392 0.715735 -0.0078 0
0.310329 0.713759 -0.0078 0
0.310269 0.715756 -0.0078 0
0.310269 0.715755 -0.0082 0
0.310393 0.715729 -0.0082 0
0.310393 0.715727 -0.008 0
0.310394 0.715726 -0.008 0
0.310394 0.715724 -0.0081 0
0.310394 0.715723 -0.0081 0
0.310394 0.715722 -0.0081 0
0.310395 0.715721 -0.0076 0
0.310395 0.71572 -0.0076 0
0.310395 0.715719 -0.0081 0
0.310396 0.715718 -0.0081 0
0.310396 0.715718 -0.0084 0
0.310395 0.715717 -0.0084 0
0.310395 0.715716 -0.0077 0
0.310394 0.715716 -0.0077 0
0.310394 0.715716 -0.0085 0
0.310393 0.715716 -0.0085 0
0.310393 0.715717 -0.0081 0
0.310392 0.715717 -0.0081 0
0.310391 0.715717 -0.0085 0
0.310391 0.715716 -0.0085 0
0.31039 0.715716 -0.0079 0
0.31039 0.715714 -0.0083 0
0.31039 0.715713 -0.0083 0
0.310391 0.715711 -0.0083 0
0.31039 0.71571 -0.0083 0
0.31039 0.715706 -0.0083 0
0.31039 0.715705 -0.0076 0
0.31039 0.715703 -0.0076 0
0.310391 0.715701 -0.008 0
0.31039 0.715699 -0.0081 0
0.31039 0.715698 -0.0081 0
0.31039 0.715696 -0.0081 0
0.310391 0.715695 -0.0082 0
0.31039 0.715693 -0.0082 0
0.31039 0.715692 -0.0078 0
0.310389 0.715691 -0.0078 0
0.310387 0.715688 -0.0083 0
0.310387 0.715688 -0.0083 0
0.310387 0.715687 -0.0083 0
0.310387 0.715685 -0.0083 0
0.310386 0.715683 -0.0077 0
0.310386 0.715682 -0.0077 0
0.310385 0.715681 -0.0083 0
0.310385 0.71568 -0.0083 0
0.310385 0.715678 -0.0077 0
0.310385 0.715676 -0.0082 0
0.310385 0.715674 -0.0082 0
0.310385 0.715672 -0.0082 0
0.310384 0.71567 -0.0081 0
0.310383 0.715669 -0.0081 0
0.310383 0.715668 -0.0081 0
0.310382 0.715667 -0.0081 0
0.310382 0.715666 -0.0083 0
0.310381 0.715665 -0.0083 0
0.31038 0.715664 -0.0083 0
0.31038 0.715664 -0.0086 0
0.31038 0.715663 -0.0086 0
0.31038 0.715662 -0.0081 0
0.310379 0.715662 -0.0081 0
0.310379 0.715662 -0.008 0
0.310378 0.715661 -0.008 0
0.310378 0.715658 -0.0085 0
0.310377 0.715657 -0.0085 0
0.310377 0.715654 -0.0082 0
0.310377 0.715651 -0.0082 0
0.310377 0.71565 -0.0085 0
0.310378 0.71565 -0.0085 0
0.310378 0.715649 -0.008 0
0.310378 0.715649 -0.008 0
0.310379 0.715648 -0.008 0
0.31038 0.715647 -0.008 0
0.31038 0.715646 -0.0079 0
0.31038 0.715645 -0.0079 0
0.310379 0.715644 -0.0079 0
0.310379 0.715642 -0.0082 0
0.310379 0.71564 -0.0082 0
0.310379 0.715638 -0.0086 0
0.310379 0.715637 -0.0086 0
0.310379 0.715637 -0.008 0
0.31038 0.715637 -0.008 0
0.31038 0.715636 -0.0081 0
0.310381 0.715635 -0.0081 0
0.310381 0.715634 -0.0081 0
0.310381 0.715634 -0.008 0
0.310381 0.715634 -0.008 0
0.310381 0.715633 -0.008 0
0.310381 0.715633 -0.0073 0
0.310381 0.71563 -0.0077 0
0.310381 0.715629 -0.0077 0
0.310382 0.715627 -0.0078 0
0.310382 0.715626 -0.0078 0
0.310382 0.715625 -0.0078 0
0.310383 0.715624 -0.008 0
0.310383 0.715623 -0.008 0
0.310385 0.715622 -0.0079 0
0.310385 0.715621 -0.0079 0
0.310385 0.71562 -0.0079 0
0.310385 0.71562 -0.0084 0
0.310386 0.715619 -0.0084 0
0.310386 0.715617 -0.0082 0
0.310385 0.715614 -0.0082 0
0.310384 0.715612 -0.0082 0
0.310384 0.715612 -0.0082 0
0.310384 0.715611 -0.0082 0
0.310383 0.71561 -0.0081 0
0.310382 0.715609 -0.0081 0
0.310382 0.715608 -0.0082 0
0.310382 0.715607 -0.0082 0
0.310383 0.715606 -0.0082 0
0.310382 0.715604 -0.0077 0
0.310382 0.715603 -0.0081 0
0.310382 0.715602 -0.0081 0
0.310382 0.715601 -0.0082 0
0.310382 0.7156 -0.0082 0
0.310381 0.715598 -0.0082 0
0.310381 0.715596 -0.0085 0
0.310379 0.715592 -0.0085 0
0.310378 0.715591 -0.008 0
0.310377 0.715589 -0.008 0
0.310376 0.715588 -0.008 0
0.310376 0.715587 -0.008 0
0.310375 0.715586 -0.008 0
0.310373 0.715584 -0.008 0
0.310373 0.715583 -0.0082 0
0.310372 0.715581 -0.0082 0
0.310371 0.715579 -0.0082 0
0.31037 0.715578 -0.0082 0
0.310369 0.715576 -0.0082 0
0.310369 0.715576 -0.0075 0
0.310368 0.715575 -0.0075 0
0.310368 0.715575 -0.0079 0
0.310368 0.715574 -0.0079 0
0.310398 0.714573 -0.0079 0
0.310367 0.715571 -0.0081 0
0.310367 0.71557 -0.0081 0
0.310367 0.715569 -0.0081 0
0.310367 0.715568 -0.0081 0
0.310367 0.715567 -0.0083 0
0.310367 0.715565 -0.0083 0
0.310366 0.715564 -0.0081 0
0.310366 0.715563 -0.0081 0
0.310365 0.71556 -0.0081 0
0.310365 0.71556 -0.0081 0
0.310365 0.71556 -0.0075 0
0.310364 0.715559 -0.0075 0
0.310364 0.715558 -0.0075 0
0.310424 0.713558 -0.0081 0
0.310363 0.715556 -0.0081 0
0.310363 0.715555 -0.008 0
0.310363 0.715554 -0.008 0
0.310362 0.715553 -0.008 0
0.310362 0.715552 -0.0082 0
0.310363 0.715551 -0.0082 0
0.310363 0.71555 -0.0076 0
0.310362 0.715548 -0.0076 0
0.310363 0.715548 -0.0078 0
0.310363 0.715547 -0.0078 0
0.310362 0.715547 -0.0077 0
0.310362 0.715546 -0.0077 0
0.310362 0.715546 -0.0077 0
0.310361 0.715545 -0.0082 0
0.310361 0.715544 -0.0082 0
0.310392 0.714544 -0.0078 0
0.310391 0.714543 -0.0078 0
0.310362 0.715541 -0.0078 0
0.310361 0.71554 -0.0079 0
0.310721 0.703546 -0.0083 0
0.310359 0.715539 -0.0083 0
0.310359 0.715538 -0.0083 0
0.310359 0.715537 -0.0078 0
0.310358 0.715537 -0.0078 0
0.310358 0.715536 -0.0082 0
0.310358 0.715534 -0.0082 0
0.310357 0.715534 -0.008 0
0.310233 0.715557 -0.008 0
0.310233 0.715557 -0.0076 0
0.310232 0.715556 -0.0076 0
0.310232 0.715556 -0.0076 0
0.310232 0.715555 -0.0082 0
0.310232 0.715555 -0.0082 0
0.310233 0.715555 -0.0076 0
0.310233 0.715553 -0.0076 0
0.310233 0.715553 -0.0077 0
0.310232 0.715552 -0.0077 0
0.310232 0.715552 -0.0079 0
0.310232 0.715551 -0.0079 0
0.310356 0.715526 -0.0079 0
0.310357 0.715525 -0.0082 0
0.310356 0.715525 -0.0082 0
0.310355 0.715524 -0.0084 0
0.31023 0.715545 -0.0084 0
0.31023 0.715543 -0.0081 0
0.310354 0.715519 -0.0081 0
0.310354 0.715517 -0.0082 0
0.310444 0.712517 -0.0082 0
0.310353 0.715516 -0.0082 0
0.310352 0.715514 -0.0082 0
0.310351 0.715514 -0.0088 0
0.31035 0.715512 -0.0088 0
0.31035 0.715511 -0.0086 0
0.310349 0.71551 -0.0076 0
0.31035 0.715509 -0.0076 0
0.31035 0.715508 -0.0076 0
0.31035 0.715506 -0.0082 0
0.31035 0.715505 -0.0084 0
0.310351 0.715504 -0.0084 0
0.310351 0.715504 -0.0084 0
0.310351 0.715502 -0.0082 0
0.310352 0.7155 -0.0081 0
0.310351 0.715499 -0.0081 0
0.310352 0.715498 -0.0084 0
0.310353 0.715497 -0.0084 0
0.310353 0.715497 -0.0078 0
0.310355 0.715496 -0.0078 0
0.310355 0.715495 -0.0078 0
0.310356 0.715493 -0.0085 0
0.310356 0.715492 -0.008 0
0.310357 0.715491 -0.008 0
0.310356 0.715491 -0.008 0
0.310233 0.715513 -0.0078 0
0.310233 0.715511 -0.0079 0
0.310233 0.71551 -0.0079 0
0.310234 0.715509 -0.0082 0
0.310234 0.71551 -0.0082 0
0.310234 0.715509 -0.0078 0
0.310234 0.71551 -0.0078 0
0.310235 0.71551 -0.0081 0
0.310235 0.71551 -0.008 0
0.310235 0.715509 -0.008 0
0.310235 0.715509 -0.008 0
0.310235 0.715506 -0.008 0
0.310234 0.715504 -0.008 0
0.310234 0.715503 -0.008 0
0.311445 0.675521 -0.008 0
0.310235 0.715503 -0.0079 0
0.310235 0.715502 -0.0079 0
0.310235 0.715501 -0.0083 0
0.310236 0.7155 -0.0083 0
0.310235 0.715498 -0.0083 0
0.310235 0.715497 -0.008 0
0.310235 0.715497 -0.008 0
0.310235 0.715496 -0.0084 0
0.310236 0.715495 -0.0084 0
0.310236 0.715494 -0.0079 0
0.310235 0.715492 -0.0079 0
0.310235 0.715492 -0.0081 0
0.310233 0.71549 -0.0081 0
0.310232 0.715488 -0.0081 0
0.310232 0.715487 -0.0081 0
0.310231 0.715485 -0.008 0
0.31023 0.715483 -0.008 0
0.31023 0.715482 -0.008 0
0.31023 0.715481 -0.008 0
0.31023 0.71548 -0.008 0
0.310231 0.715478 -0.0081 0
0.310231 0.715477 -0.0081 0
0.310232 0.715475 -0.0081 0
0.310233 0.715474 -0.0081 0
0.310234 0.715473 -0.0082 0
0.310234 0.715472 -0.0082 0
0.310233 0.71547 -0.0082 0
0.310233 0.715469 -0.0075 0
0.310233 0.715468 -0.0075 0
0.310232 0.715467 -0.0083 0
0.310232 0.715467 -0.0083 0
0.310232 0.715466 -0.0083 0
0.310232 0.715466 -0.0078 0
0.310232 0.715465 -0.0078 0
0.310233 0.715464 -0.0079 0
0.310235 0.71546 -0.0079 0
0.310235 0.715458 -0.0079 0
0.310235 0.715456 -0.0079 0
0.310236 0.715454 -0.0083 0
0.310237 0.715453 -0.0083 0
0.310237 0.715451 -0.0083 0
0.310237 0.715449 -0.0081 0
0.310237 0.715448 -0.0076 0
0.310237 0.715447 -0.0076 0
0.310238 0.715446 -0.008 0
0.310238 0.715445 -0.008 0
0.310239 0.715444 -0.008 0
0.310239 0.715443 -0.008 0
0.31024 0.715443 -0.0079 0
0.310331 0.712444 -0.0079 0
0.31024 0.715442 -0.0084 0
0.31024 0.715439 -0.0084 0
0.310239 0.715439 -0.0079 0
0.310239 0.715438 -0.0079 0
0.3103 0.713439 -0.0083 0
0.310239 0.715436 -0.0083 0
0.310239 0.715435 -0.0082 0
0.310239 0.715434 -0.0082 0
0.310239 0.715434 -0.0074 0
0.31024 0.715432 -0.0074 0
0.310239 0.715431 -0.008 0
0.310239 0.71543 -0.008 0
0.310362 0.715405 -0.0081 0
0.310361 0.715401 -0.0081 0
0.31036 0.715401 -0.0083 0
0.31036 0.7154 -0.0083 0
0.31036 0.715398 -0.0083 0
0.310236 0.71542 -0.0083 0
0.310236 0.715417 -0.0079 0
0.310235 0.715416 -0.0079 0
0.310234 0.715415 -0.0082 0
0.310233 0.715412 -0.0082 0
0.310324 0.712412 -0.0081 0
0.310233 0.71541 -0.0081 0
0.310234 0.715409 -0.008 0
0.310234 0.715409 -0.008 0
0.310235 0.715409 -0.008 0
0.310598 0.703414 -0.0081 0
0.310235 0.715408 -0.0081 0
0.310359 0.715383 -0.0082 0
0.310359 0.715382 -0.0082 0
0.310235 0.715405 -0.0082 0
0.310234 0.715404 -0.0079 0
0.310235 0.715403 -0.0079 0
0.310234 0.715402 -0.0079 0
0.310234 0.715401 -0.0079 0
0.310234 0.7154 -0.0082 0
0.310234 0.715399 -0.0082 0
0.310233 0.715397 -0.0077 0
0.310232 0.715397 -0.0077 0
0.310232 0.715396 -0.0078 0
0.310231 0.715395 -0.0078 0
0.31023 0.715394 -0.008 0
0.310231 0.715393 -0.008 0
0.310231 0.715391 -0.0075 0
0.31023 0.715391 -0.0075 0
0.310354 0.715364 -0.0081 0
0.310353 0.715362 -0.0081 0
0.310354 0.715361 -0.0081 0
0.310354 0.715361 -0.0081 0
0.310231 0.715382 -0.0077 0
0.310355 0.715358 -0.0077 0
0.310355 0.715356 -0.0082 0
0.310355 0.715355 -0.0082 0
0.310356 0.715353 -0.0082 0
0.310232 0.715376 -0.0082 0
0.310232 0.715375 -0.0079 0
0.310232 0.715372 -0.0082 0
0.310231 0.71537 -0.0082 0
0.310232 0.715369 -0.0082 0
0.310231 0.715368 -0.0077 0
0.310232 0.715366 -0.008 0
0.310232 0.715365 -0.008 0
0.310232 0.715364 -0.008 0
0.310232 0.715363 -0.0083 0
0.310231 0.715362 -0.008 0
0.310232 0.715362 -0.008 0
0.310234 0.715361 -0.008 0
0.310357 0.715336 -0.008 0
0.310357 0.715333 -0.0081 0
0.310357 0.715332 -0.0081 0
0.310357 0.715331 -0.0084 0
0.310357 0.71533 -0.0078 0
0.310357 0.715328 -0.0078 0
0.310356 0.715328 -0.0078 0
0.310357 0.715327 -0.0083 0
0.310357 0.715326 -0.0083 0
0.310357 0.715325 -0.008 0
0.310359 0.715321 -0.008 0
0.310358 0.71532 -0.0085 0
0.310358 0.715318 -0.0085 0
0.310358 0.715316 -0.0081 0
0.310234 0.715337 -0.0081 0
0.310233 0.715337 -0.0081 0
0.310233 0.715334 -0.0079 0
0.310233 0.715333 -0.0078 0
0.310233 0.715333 -0.0078 0
0.310232 0.715332 -0.0078 0
0.310232 0.715329 -0.0079 0
0.310232 0.715327 -0.0086 0
0.310231 0.715326 -0.0086 0
0.310231 0.715325 -0.0086 0
0.31023 0.715325 -0.0084 0
0.31023 0.715324 -0.0082 0
0.31023 0.715323 -0.0082 0
0.31023 0.715323 -0.0082 0
0.31023 0.715322 -0.0077 0
0.310232 0.71532 -0.0076 0
0.310232 0.71532 -0.0076 0
0.310232 0.71532 -0.0076 0
0.310232 0.715319 -0.0078 0
0.310232 0.715318 -0.0081 0
0.310232 0.715318 -0.0081 0
0.310232 0.715318 -0.0081 0
0.310231 0.715316 -0.0086 0
0.31023 0.715315 -0.0081 0
0.310229 0.715314 -0.0081 0
0.31035 0.715289 -0.0079 0
0.31035 0.715288 -0.0079 0
0.31035 0.715287 -0.0077 0
0.31035 0.715286 -0.0077 0
0.310349 0.715285 -0.0082 0
0.310349 0.715285 -0.0082 0
0.310348 0.715284 -0.0076 0
0.310348 0.715284 -0.0076 0
0.310349 0.715281 -0.0083 0
0.310409 0.713281 -0.0083 0
0.310349 0.715279 -0.0083 0
0.310349 0.715277 -0.0083 0
0.310349 0.715274 -0.0075 0
0.31035 0.715274 -0.0075 0
0.31035 0.715274 -0.0077 0
0.31035 0.715273 -0.0077 0
0.310226 0.715295 -0.0083 0
0.310226 0.715294 -0.0083 0
0.310226 0.715293 -0.0085 0
0.310226 0.715293 -0.0085 0
0.310226 0.715293 -0.0085 0
0.310226 0.715292 -0.0081 0
0.310226 0.715292 -0.0081 0
0.310226 0.715291 -0.0084 0
0.310226 0.71529 -0.0084 0
0.310226 0.715289 -0.0086 0
0.310227 0.715288 -0.0086 0
0.310227 0.715287 -0.0081 0
0.310227 0.715286 -0.0081 0
0.310351 0.715261 -0.0081 0
0.310229 0.715281 -0.008 0
0.310229 0.71528 -0.0085 0
0.310228 0.71528 -0.0085 0
0.310228 0.71528 -0.0085 0
0.310229 0.715279 -0.0081 0
0.310229 0.715278 -0.0081 0
0.310229 0.715277 -0.0084 0
0.310229 0.715276 -0.0084 0
0.310229 0.715275 -0.0084 0
0.310352 0.71525 -0.0083 0
0.310352 0.715249 -0.008 0
0.310352 0.715248 -0.008 0
0.310351 0.715247 -0.008 0
0.310351 0.715245 -0.0083 0
0.310349 0.715243 -0.0078 0
0.310349 0.715241 -0.0078 0
0.310349 0.715241 -0.0078 0
0.31035 0.71524 -0.0079 0
0.31035 0.715239 -0.0079 0
0.310349 0.715239 -0.0083 0
0.310349 0.715238 -0.0083 0
0.310349 0.715237 -0.0083 0
0.310349 0.715236 -0.0081 0
0.310349 0.715235 -0.0081 0
0.310349 0.715233 -0.0081 0
0.310439 0.712234 -0.0081 0
0.310348 0.715233 -0.0081 0
0.310348 0.715232 -0.0079 0
0.310348 0.715231 -0.0079 0
0.310348 0.71523 -0.0083 0
0.310346 0.715226 -0.0083 0
0.310405 0.713226 -0.0079 0
0.310344 0.715224 -0.0079 0
0.310344 0.715221 -0.0081 0
0.310343 0.71522 -0.0081 0
0.310343 0.715219 -0.0079 0
0.310342 0.715218 -0.0079 0
0.310342 0.715217 -0.0081 0
0.310341 0.715216 -0.0081 0
0.31058 0.703244 -0.0081 0
0.310217 0.715238 -0.0081 0
0.310217 0.715236 -0.0085 0
0.310217 0.715235 -0.0085 0
0.310216 0.715234 -0.0082 0
0.310216 0.715234 -0.0082 0
0.310339 0.715209 -0.0078 0
0.310339 0.715209 -0.0078 0
0.310215 0.715231 -0.0087 0
0.310215 0.71523 -0.0087 0
0.310214 0.715227 -0.0074 0
0.310214 0.715226 -0.0074 0
0.310213 0.715224 -0.0079 0
0.310214 0.715223 -0.0081 0
0.310214 0.715222 -0.0081 0
0.310214 0.715221 -0.0081 0
0.310215 0.71522 -0.008 0
0.310215 0.715218 -0.0078 0
0.310214 0.715217 -0.0078 0
0.310215 0.715216 -0.0078 0
0.310215 0.715214 -0.008 0
0.310215 0.715213 -0.0076 0
0.310214 0.715212 -0.0076 0
0.310337 0.715187 -0.0076 0
0.310337 0.715186 -0.0084 0
0.310213 0.715208 -0.0084 0
0.310212 0.715207 -0.0078 0
0.310181 0.716205 -0.0078 0
0.310334 0.715181 -0.0078 0
0.310334 0.715179 -0.0081 0
0.310334 0.715177 -0.0083 0
0.310334 0.715176 -0.0083 0
0.310334 0.715175 -0.0083 0
0.310334 0.715174 -0.008 0
0.310334 0.715173 -0.008 0
0.310335 0.715169 -0.0083 0
0.310336 0.715168 -0.0083 0
0.310336 0.715167 -0.008 0
0.310337 0.715167 -0.008 0
0.310337 0.715167 -0.0085 0
0.310337 0.715167 -0.0085 0
0.310337 0.715167 -0.0085 0
0.310338 0.715165 -0.0077 0
0.310338 0.715165 -0.0077 0
0.310338 0.715165 -0.0077 0
0.310338 0.715164 -0.0082 0
0.310338 0.715163 -0.0082 0
0.310339 0.71516 -0.0079 0
0.31034 0.715159 -0.0079 0
0.310341 0.715157 -0.0081 0
0.310371 0.714157 -0.008 0
0.31034 0.715155 -0.008 0
0.31034 0.715154 -0.008 0
0.310339 0.715153 -0.0084 0
0.310339 0.715152 -0.0084 0
0.310338 0.715151 -0.008 0
0.310338 0.715151 -0.008 0
0.310338 0.71515 -0.008 0
0.310338 0.715149 -0.0079 0
0.310339 0.715145 -0.0079 0
0.310339 0.715144 -0.0079 0
0.310339 0.715142 -0.0079 0
0.31034 0.71514 -0.0077 0
0.31034 0.715139 -0.0077 0
0.310341 0.715139 -0.0082 0
0.310342 0.715139 -0.0082 0
0.310341 0.715138 -0.0076 0
0.31034 0.715137 -0.0076 0
0.31034 0.715137 -0.0077 0
0.310341 0.715137 -0.0077 0
0.310341 0.715137 -0.0077 0
0.310342 0.715135 -0.0087 0
0.310342 0.715133 -0.0076 0
0.310372 0.714132 -0.0076 0
0.310342 0.715131 -0.0076 0
0.310342 0.71513 -0.0082 0
0.310342 0.715128 -0.0082 0
0.310342 0.715126 -0.0077 0
0.310342 0.715125 -0.0077 0
0.310402 0.713123 -0.0077 0
0.310341 0.715121 -0.0077 0
0.310341 0.71512 -0.0077 0
0.310372 0.714118 -0.0077 0
0.310342 0.715116 -0.0077 0
0.310342 0.715115 -0.0081 0
0.310342 0.715114 -0.0084 0
0.309107 0.756095 -0.0084 0
0.310341 0.715113 -0.0084 0
0.31034 0.715114 -0.0078 0
0.31034 0.715113 -0.0078 0
0.31034 0.715113 -0.0079 0
0.31034 0.715112 -0.0079 0
0.31034 0.715112 -0.0079 0
0.310341 0.71511 -0.008 0
0.31034 0.715109 -0.0083 0
0.31034 0.715108 -0.0083 0
0.31034 0.715107 -0.0083 0
0.31034 0.715106 -0.0079 0
0.31034 0.715105 -0.0079 0
0.310339 0.715104 -0.008 0
0.310215 0.715126 -0.008 0
0.310215 0.715125 -0.0083 0
0.310215 0.715124 -0.0083 0
0.308975 0.756103 -0.0085 0
0.310215 0.715121 -0.0085 0
0.310215 0.715119 -0.0079 0
0.310215 0.715118 -0.0079 0
0.310214 0.715116 -0.008 0
0.310214 0.715115 -0.008 0
0.310214 0.715115 -0.0085 0
0.310275 0.713115 -0.0085 0
0.310213 0.715112 -0.0078 0
0.310212 0.715111 -0.0078 0
0.310212 0.715111 -0.0079 0
0.310335 0.715086 -0.0079 0
0.310336 0.715085 -0.0088 0
0.310336 0.715084 -0.0088 0
0.310336 0.715083 -0.0088 0
0.310336 0.715082 -0.0085 0
0.310336 0.715081 -0.0085 0
0.310335 0.71508 -0.0079 0
0.310334 0.715079 -0.0079 0
0.310333 0.715078 -0.0078 0
0.310332 0.715078 -0.0078 0
0.310332 0.715077 -0.0082 0
0.310332 0.715076 -0.0082 0
0.310332 0.715075 -0.0082 0
0.310331 0.715075 -0.0075 0
0.31033 0.715073 -0.0075 0
0.310358 0.714073 -0.0079 0
0.310327 0.71507 -0.0079 0
0.310327 0.71507 -0.0088 0
0.310326 0.715069 -0.0088 0
0.310325 0.715069 -0.0073 0
0.310325 0.715068 -0.0073 0
0.310324 0.715066 -0.0079 0
0.310324 0.715066 -0.0079 0
0.310324 0.715064 -0.0084 0
0.310324 0.715064 -0.0084 0
0.310323 0.71506 -0.0079 0
0.310323 0.715059 -0.0079 0
0.310323 0.715058 -0.0074 0
0.310323 0.715058 -0.0074 0
0.310198 0.71508 -0.0078 0
0.310322 0.715055 -0.0078 0
0.310322 0.715053 -0.0087 0
0.310198 0.715076 -0.0087 0
0.310199 0.715074 -0.0077 0
0.3102 0.715074 -0.0077 0
0.3102 0.715075 -0.0079 0
0.3102 0.715073 -0.0079 0
0.310291 0.712074 -0.008 0
0.3102 0.715072 -0.008 0
0.3102 0.715071 -0.0079 0
0.310231 0.71407 -0.0079 0
0.310202 0.715069 -0.0079 0
0.310202 0.715068 -0.0082 0
0.310203 0.715068 -0.0082 0
0.310204 0.715068 -0.0078 0
0.310204 0.715068 -0.0078 0
0.310205 0.715067 -0.0078 0
0.310205 0.715066 -0.0078 0
0.310205 0.715065 -0.0082 0
0.310206 0.715064 -0.0082 0
0.310206 0.715061 -0.0082 0
0.31033 0.715037 -0.0077 0
0.31033 0.715036 -0.0077 0
0.31033 0.715034 -0.0079 0
0.310331 0.715033 -0.0079 0
0.310331 0.715032 -0.0083 0
0.310362 0.714032 -0.0083 0
0.310332 0.71503 -0.0084 0
0.310332 0.715029 -0.0084 0
0.310331 0.715028 -0.0084 0
0.310331 0.715027 -0.0082 0
0.310331 0.715027 -0.0082 0
0.31033 0.715025 -0.0082 0
0.31033 0.715025 -0.0082 0
0.310329 0.715024 -0.0082 0
0.310329 0.715024 -0.0082 0
0.310329 0.715024 -0.008 0
0.310328 0.715023 -0.008 0
0.310327 0.715022 -0.008 0
0.310327 0.715021 -0.0084 0
0.310326 0.715021 -0.0077 0
0.310326 0.715021 -0.0077 0
0.310325 0.715021 -0.0077 0
0.310201 0.715043 -0.0084 0
0.3102 0.715044 -0.0077 0
0.310201 0.715044 -0.0077 0
0.310201 0.715044 -0.0077 0
0.310201 0.715042 -0.0082 0
0.3102 0.715041 -0.0079 0
0.310324 0.715017 -0.0079 0
0.310324 0.715017 -0.0079 0
0.310199 0.715041 -0.0081 0
0.310198 0.71504 -0.0082 0
0.310198 0.715039 -0.0082 0
0.310198 0.715038 -0.008 0
0.310198 0.715037 -0.008 0
0.310322 0.715012 -0.0082 0
0.310321 0.715012 -0.0082 0
0.310321 0.715011 -0.0079 0
0.31032 0.715011 -0.0079 0
0.310195 0.715034 -0.0076 0
0.310317 0.71501 -0.0076 0
0.310316 0.71501 -0.0082 0
0.310315 0.715009 -0.0082 0
0.310315 0.715008 -0.0082 0
0.310315 0.715007 -0.0082 0
0.310314 0.715006 -0.0082 0
0.310405 0.712006 -0.0082 0
0.310314 0.715004 -0.0082 0
0.310315 0.715003 -0.0078 0
0.310317 0.715002 -0.0078 0
0.310317 0.715 -0.0085 0
0.310318 0.714999 -0.0085 0
0.310318 0.714998 -0.0074 0
0.310317 0.714998 -0.0074 0
0.310317 0.714996 -0.008 0
0.310316 0.714995 -0.008 0
0.310316 0.714995 -0.0086 0
0.310316 0.714994 -0.0086 0
0.310316 0.714993 -0.0086 0
0.310316 0.714992 -0.0076 0
0.310316 0.71499 -0.0084 0
0.310316 0.714991 -0.0084 0
0.310317 0.71499 -0.0084 0
0.310316 0.714989 -0.0083 0
0.310192 0.715012 -0.0083 0
0.310191 0.71501 -0.0079 0
0.310191 0.715008 -0.0079 0
0.310191 0.715007 -0.0079 0
0.310191 0.715005 -0.0082 0
0.310191 0.715004 -0.0078 0
0.31019 0.715003 -0.0078 0
0.31019 0.715002 -0.0078 0
0.31019 0.715 -0.008 0
0.31019 0.714999 -0.008 0
0.31019 0.714997 -0.0079 0
0.31019 0.714996 -0.0079 0
0.31019 0.714995 -0.008 0
0.31019 0.714994 -0.008 0
0.31019 0.714993 -0.0083 0
0.310189 0.714992 -0.0083 0
0.31019 0.714991 -0.0083 0
0.31028 0.711991 -0.0077 0
0.310189 0.714988 -0.0077 0
0.310189 0.714987 -0.0081 0
0.310189 0.714986 -0.0081 0
0.310189 0.714986 -0.0083 0
0.310189 0.714984 -0.0083 0
0.310189 0.714983 -0.0081 0
0.31019 0.714982 -0.0081 0
0.31019 0.714981 -0.0081 0
0.310314 0.714957 -0.0084 0
0.310345 0.713956 -0.0076 0
0.310315 0.714955 -0.0076 0
0.310315 0.714952 -0.0076 0
0.310315 0.714951 -0.0084 0
0.310315 0.71495 -0.0084 0
0.310314 0.714948 -0.008 0
0.310313 0.714947 -0.008 0
0.310189 0.71497 -0.008 0
0.310189 0.714968 -0.0083 0
0.310313 0.714945 -0.0082 0
0.310314 0.714943 -0.0082 0
0.310314 0.714942 -0.0082 0
0.310314 0.714942 -0.0079 0
0.310314 0.714941 -0.0079 0
0.310405 0.711941 -0.0081 0
0.310315 0.714937 -0.0081 0
0.310315 0.714935 -0.0082 0
0.310315 0.714934 -0.0082 0
0.310314 0.714933 -0.0079 0
0.310314 0.714933 -0.0079 0
0.310313 0.714932 -0.0085 0
0.310313 0.714931 -0.0085 0
0.310314 0.714929 -0.0079 0
0.310314 0.714928 -0.0079 0
0.310314 0.714925 -0.0079 0
0.310313 0.714925 -0.0078 0
0.310313 0.714923 -0.0082 0
0.310312 0.714922 -0.0082 0
0.310311 0.714921 -0.0082 0
0.31031 0.71492 -0.0079 0
0.310311 0.71492 -0.0079 0
0.31031 0.714919 -0.0084 0
0.31031 0.714918 -0.0084 0
0.31031 0.714918 -0.008 0
0.31031 0.714917 -0.008 0
0.31031 0.714917 -0.008 0
0.310309 0.714916 -0.008 0
0.310309 0.714915 -0.008 0
0.310308 0.714915 -0.008 0
0.310308 0.714914 -0.008 0
0.310307 0.714913 -0.0082 0
0.310306 0.714912 -0.0082 0
0.310305 0.714911 -0.0081 0
0.310305 0.714911 -0.0081 0
0.310305 0.71491 -0.0081 0
0.310304 0.71491 -0.0081 0
0.310304 0.714908 -0.0081 0
0.310303 0.714907 -0.0082 0
0.310303 0.714906 -0.0082 0
0.310302 0.714904 -0.0079 0
0.310302 0.714904 -0.0079 0
0.310302 0.714903 -0.0078 0
0.310302 0.714902 -0.0078 0
0.310302 0.7149 -0.0088 0
0.310301 0.714899 -0.0088 0
0.310301 0.714898 -0.0082 0
0.3103 0.714896 -0.0082 0
0.3103 0.714894 -0.0079 0
0.3103 0.714893 -0.0079 0
0.3103 0.714892 -0.0082 0
0.310301 0.714891 -0.0082 0
0.310268 0.711916 -0.0076 0
0.310177 0.714914 -0.0076 0
0.310301 0.71489 -0.0081 0
0.310301 0.71489 -0.0081 0
0.310301 0.714889 -0.008 0
0.310301 0.714888 -0.008 0
0.310301 0.714887 -0.008 0
0.3103 0.714886 -0.0083 0
0.310301 0.714885 -0.0083 0
0.310301 0.714884 -0.0081 0
0.310301 0.714883 -0.0081 0
0.310301 0.714882 -0.0079 0
0.3103 0.714882 -0.0079 0
0.3103 0.714879 -0.0082 0
0.3103 0.714879 -0.0082 0
0.3103 0.714878 -0.0079 0
0.3103 0.714878 -0.0079 0
0.3103 0.714877 -0.0083 0
0.310299 0.714876 -0.0083 0
0.310299 0.714875 -0.008 0
0.310298 0.714874 -0.0082 0
0.310299 0.714874 -0.0082 0
0.310299 0.714873 -0.0082 0
0.310299 0.714872 -0.0077 0
0.310298 0.714872 -0.0077 0
0.3103 0.714871 -0.0078 0
0.3103 0.714871 -0.0083 0
0.3103 0.71487 -0.0083 0
0.31039 0.71187 -0.0083 0
0.3103 0.714865 -0.0082 0
0.3103 0.714864 -0.0082 0
0.3103 0.714862 -0.0075 0
0.3103 0.714862 -0.0075 0
0.3103 0.714861 -0.0083 0
0.310301 0.714858 -0.0083 0
0.310301 0.714857 -0.0079 0
0.310301 0.714856 -0.0079 0
0.310301 0.714855 -0.0085 0
0.310301 0.714855 -0.0085 0
0.310301 0.714854 -0.0085 0
0.310301 0.714854 -0.0076 0
0.310301 0.714853 -0.0076 0
0.3103 0.71485 -0.0082 0
0.3103 0.714849 -0.0082 0
0.3103 0.714847 -0.0078 0
0.3103 0.714846 -0.0078 0
0.3103 0.714844 -0.0079 0
0.3103 0.714842 -0.0079 0
0.310298 0.71484 -0.0082 0
0.310297 0.714839 -0.0082 0
0.310296 0.714838 -0.0081 0
0.310295 0.714836 -0.0081 0
0.310295 0.714835 -0.0082 0
0.310295 0.714834 -0.0082 0
0.310294 0.714833 -0.0079 0
0.310294 0.714833 -0.0079 0
0.310293 0.714833 -0.0079 0
0.310293 0.714833 -0.0083 0
0.310293 0.714832 -0.0083 0
0.310293 0.71483 -0.0077 0
0.310293 0.71483 -0.0077 0
0.310293 0.714829 -0.0083 0
0.310293 0.714829 -0.0083 0
0.310293 0.714829 -0.0078 0
0.310292 0.714828 -0.0078 0
0.310293 0.714828 -0.008 0
0.310292 0.714828 -0.008 0
0.310293 0.714828 -0.0079 0
0.310292 0.714828 -0.0079 0
0.310293 0.714826 -0.0079 0
0.310294 0.714825 -0.0079 0
0.310295 0.714823 -0.0079 0
0.310295 0.714822 -0.0079 0
0.310295 0.714821 -0.0079 0
0.310295 0.714818 -0.0079 0
0.310295 0.714816 -0.0078 0
0.310294 0.714816 -0.0078 0
0.310294 0.714815 -0.0078 0
0.31017 0.714837 -0.0082 0
0.31017 0.714836 -0.0082 0
0.31017 0.714835 -0.0082 0
0.310109 0.716832 -0.0078 0
0.310169 0.714832 -0.0078 0
0.310169 0.714831 -0.0078 0
0.310169 0.71483 -0.0078 0
0.310168 0.71483 -0.0078 0
0.310168 0.714829 -0.0078 0
0.310291 0.714805 -0.0084 0
0.310167 0.714828 -0.0084 0
0.310167 0.714827 -0.0084 0
0.310167 0.714826 -0.0079 0
0.310287 0.7148 -0.0085 0
0.310294 0.714799 -0.0085 0
0.310439 0.714776 -0.0085 0
0.311085 0.714656 0.0055 0
0.31131 0.714603 0.042 0
0.311654 0.714526 0.042 0
0.311935 0.713448 -0.0078 0
0.311967 0.713424 -0.0078 0
0.311998 0.713403 0.0275 0
0.311878 0.713425 0.0275 0
0.311732 0.713484 0.0275 0
0.311247 0.713622 -0.0024 0
0.311109 0.713659 0.0027 0
0.311121 0.712669 0.0027 0
0.311107 0.712675 0.0027 0
0.311092 0.712689 -0.0111 0
0.31109 0.712693 -0.0091 0
0.310966 0.712721 -0.0091 0
0.310842 0.712744 -0.0087 0
0.310878 0.711744 -0.0087 0
0.310613 0.712791 -0.0025 0
0.310531 0.711811 -0.0025 0
0.31028 0.711851 0.004 0
0.310123 0.712867 0.004 0
0.310147 0.711861 -0.0066 0
0.309654 0.711941 -0.0066 0
0.309627 0.712929 -0.0011 0
0.30951 0.712941 -0.0011 0
0.30952 0.712937 -0.0062 0
0.309551 0.711945 -0.0062 0
0.30955 0.711955 -0.0071 0
0.309551 0.711963 -0.0071 0
0.309552 0.711968 -0.0026 0
0.30955 0.711972 -0.0026 0
0.309549 0.711972 -0.0061 0
0.30955 0.711971 -0.0061 0
0.309551 0.711969 -0.0052 0
0.309555 0.711972 -0.0052 0
0.309556 0.711972 -0.0022 0
0.309558 0.711972 -0.0022 0
0.309561 0.711971 -0.0046 0
0.309561 0.711969 -0.0046 0
0.30953 0.712969 -0.005 0
0.309563 0.711971 -0.005 0
0.309562 0.711971 -0.0026 0
0.309561 0.711973 -0.0026 0
0.309559 0.711973 -0.0026 0
0.309524 0.712973 -0.0049 0
0.309553 0.711974 -0.0049 0
0.309555 0.711977 -0.0076 0
0.309557 0.71198 -0.0076 0
0.309556 0.71198 -0.0029 0
0.309558 0.711979 -0.0029 0
0.30956 0.711977 -0.0046 0
0.309562 0.711974 -0.0046 0
0.309563 0.711973 -0.0046 0
0.309562 0.711969 -0.0045 0
0.309562 0.711968 -0.0024 0
0.309561 0.711967 -0.0024 0
0.30956 0.711966 -0.0024 0
0.30956 0.711963 -0.0083 0
0.30956 0.711964 -0.0054 0
0.30956 0.711965 -0.0054 0
0.309561 0.711965 -0.0054 0
0.309561 0.711964 -0.0066 0
0.309561 0.711962 -0.0071 0
0.309562 0.71196 -0.0071 0
0.309563 0.711959 -0.0071 0
0.309563 0.711959 -0.0027 0
0.309566 0.711959 -0.0056 0
0.309567 0.71196 -0.0056 0
0.309566 0.711959 -0.0056 0
0.309536 0.712958 -0.0059 0
0.309568 0.711958 -0.0059 0
0.309568 0.711955 -0.0045 0
0.309569 0.711955 -0.0045 0
0.309569 0.711954 -0.007 0
0.309569 0.711954 -0.007 0
0.309569 0.711954 -0.0044 0
0.30957 0.711953 -0.0044 0
0.30957 0.711952 -0.0041 0
0.309569 0.711951 -0.0041 0
0.30957 0.711951 -0.0055 0
0.309571 0.711948 -0.0055 0
0.30957 0.711948 -0.0062 0
0.309569 0.711947 -0.0062 0
0.309567 0.711946 -0.0057 0
0.309568 0.711949 -0.0057 0
0.30957 0.71195 -0.007 0
0.309568 0.711948 -0.0041 0
0.309565 0.711946 -0.0041 0
0.309529 0.712941 -0.0041 0
0.30956 0.711938 -0.003 0
0.309561 0.711936 -0.003 0
0.309568 0.711939 -0.0046 0
0.309537 0.712939 -0.0046 0
0.309569 0.711939 -0.0066 0
0.309537 0.712934 -0.0025 0
0.30957 0.711934 -0.0025 0
0.309568 0.711932 -0.0025 0
0.309567 0.71193 -0.0037 0
0.309533 0.712929 -0.0037 0
0.309535 0.712926 -0.0073 0
0.309566 0.711926 -0.0073 0
0.309566 0.711926 -0.0039 0
0.309534 0.712925 -0.0039 0
0.309533 0.712924 -0.0045 0
0.309628 0.709925 -0.0045 0
0.309565 0.711922 -0.0051 0
0.309564 0.711922 -0.0051 0
0.309531 0.71292 -0.0072 0
0.309561 0.71192 -0.0072 0
0.309437 0.711943 -0.0079 0
0.309561 0.711918 -0.0079 0
0.30953 0.712917 -0.0026 0
0.309564 0.711919 -0.0026 0
0.309566 0.711919 -0.0026 0
0.309574 0.71192 -0.0042 0
0.309575 0.71192 -0.0064 0
0.309575 0.711919 -0.0064 0
0.309571 0.711916 -0.005 0
0.309571 0.711917 -0.005 0
0.30957 0.711914 -0.0059 0
0.309569 0.711913 -0.0059 0
0.309567 0.711912 -0.0028 0
0.309537 0.712911 -0.0028 0
0.30957 0.71191 -0.0069 0
0.309567 0.71191 -0.0069 0
0.309566 0.711911 -0.000999998 0
0.309566 0.71191 -0.000999998 0
0.309566 0.711909 -0.0058 0
0.309564 0.711905 -0.0058 0
0.309564 0.711904 -0.0043 0
0.309564 0.711904 -0.0043 0
0.309563 0.711902 -0.0057 0
0.309532 0.712901 -0.0057 0
0.309563 0.711902 -0.0025 0
0.309561 0.711901 -0.0025 0
0.309562 0.7119 -0.0031 0
0.309528 0.712898 -0.0031 0
0.314882 0.541981 -0.0031 0
0.309558 0.711897 -0.0018 0
0.309558 0.711895 -0.0018 0
0.309559 0.711893 -0.0033 0
0.30956 0.711892 -0.0033 0
0.30956 0.711891 -0.0048 0
0.309562 0.711892 -0.0048 0
0.309563 0.711893 -0.0065 0
0.309627 0.709894 -0.0065 0
0.309565 0.711892 -0.0065 0
0.309567 0.711891 -0.0058 0
0.309568 0.711892 -0.0058 0
0.309568 0.711892 -0.0051 0
0.309568 0.711891 -0.0051 0
0.309567 0.71189 -0.0051 0
0.309566 0.711888 -0.0072 0
0.309564 0.711886 -0.0072 0
0.309561 0.711883 -0.0039 0
0.30956 0.711883 -0.0039 0
0.309561 0.711882 -0.0039 0
0.30956 0.711881 -0.0015 0
0.309559 0.711878 -0.0015 0
0.309559 0.711878 -0.0062 0
0.309559 0.711878 -0.0062 0
0.309562 0.711879 -0.0038 0
0.30956 0.711876 -0.0038 0
0.309552 0.711873 -0.0043 0
0.310859 0.669891 -0.0043 0
0.309538 0.71187 -0.0043 0
0.309477 0.711868 -0.0041 0
0.30932 0.712862 -0.0041 0
0.309196 0.711857 -0.0075 0
0.308973 0.712848 -0.0075 0
0.308751 0.711839 -0.0075 0
0.308102 0.711841 -0.0054 0
0.3078 0.711829 -0.007 0
0.307474 0.711815 -0.007 0
0.307486 0.700809 -0.007 0
0.306798 0.711793 -0.0076 0
0.306138 0.709851 -0.0076 0
0.305568 0.711861 -0.0072 0
0.305033 0.71187 -0.0072 0
0.304047 0.71186 -0.005 0
0.303231 0.711913 -0.005 0
0.302774 0.711897 -0.007 0
0.302166 0.711906 -0.007 0
0.300922 0.711922 -0.0066 0
0.300313 0.710928 -0.0066 0
0.299625 0.711936 -0.008 0
0.298971 0.711946 -0.008 0
0.298205 0.710983 -0.008 0
0.296432 0.711078 -0.0024 0
0.295706 0.711086 -0.0036 0
0.294862 0.710112 -0.0036 0
0.294079 0.710112 -0.0036 0
0.292527 0.709108 -0.0035 0
0.291662 0.7101 -0.008 0
0.29081 0.710092 -0.008 0
0.290107 0.70906 -0.008 0
0.289293 0.707052 -0.0027 0
0.287632 0.708981 -0.0049 0
0.286814 0.708955 -0.0049 0
0.285594 0.708998 -0.0049 0
0.284695 0.67108 -0.0033 0
0.283615 0.670095 -9.99989e-05 0
0.282627 0.669089 -9.99989e-05 0
0.280094 0.668173 -0.0034 0
0.278886 0.668181 -0.0034 0
0.277667 0.668184 -0.007 0
0.275279 0.668158 -0.007 0
0.274179 0.667128 -0.0065 0
0.273097 0.667073 -0.0065 0
0.271876 0.667043 -0.0052 0
0.269513 0.665961 -0.0052 0
0.26827 0.664934 -0.0044 0
0.267032 0.66588 -0.0044 0
0.264617 0.66477 -0.0027 0
0.26333 0.664718 -0.0027 0
0.261869 0.663716 -0.003 0
0.260396 0.662715 -0.003 0
0.257415 0.662682 -0.0029 0
0.25582 0.66267 -0.0029 0
0.254116 0.661678 -0.004 0
0.250914 0.661609 -0.0073 0
0.249271 0.66058 -0.0073 0
0.247687 0.660524 -0.0073 0
0.246067 0.660466 -0.0069 0
0.244581 0.65938 -0.0069 0
0.242984 0.659317 -0.0088 0
0.241434 0.659238 -0.0088 0
0.240012 0.659134 -0.0088 0
0.237219 0.658891 -0.0032 0
0.235966 0.658734 -0.000399999 0
0.234686 0.65858 -0.000399999 0
0.232369 0.658199 -0.0029 0
0.231169 0.658997 -0.0029 0
0.229925 0.657816 -0.0039 0
0.228731 0.658613 -0.0039 0
0.226729 0.658112 -0.0045 0
0.22539 0.659911 -0.0045 0
0.223866 0.659762 -0.0029 0
0.222313 0.65962 -0.0029 0
0.221659 0.659308 -0.0029 0
0.218668 0.659006 -0.009 0
0.217112 0.65985 -0.01 0
0.215462 0.659716 -0.01 0
0.213986 0.659565 -0.01 0
0.210607 0.659299 -0.0043 0
0.208842 0.659202 -0.0102 0
0.207005 0.658105 -0.0102 0
0.20519 0.658983 -0.0102 0
0.201425 0.658741 -0.0064 0
0.199696 0.658572 -0.0044 0
0.198028 0.658375 -0.0044 0
0.195816 0.659299 -0.0044 0
0.192141 0.696779 -0.0028 0
0.190381 0.698601 -0.0024 0
0.18862 0.699423 -0.0024 0
0.185312 0.699018 -0.0074 0
0.183537 0.697842 -0.0074 0
0.181718 0.69867 -0.0048 0
0.179897 0.698501 -0.0048 0
0.176163 0.698172 -0.0083 0
0.174203 0.698039 -0.0083 0
0.172025 0.698928 -0.0092 0
0.169955 0.698784 -0.0092 0
