ply
format ascii 1.0
element vertex 1662
property float x
property float y
property float z
property float intensity
end_header
-0.357384 -1.2431 -0.0028 0
-0.357383 -1.2431 -0.0028 0
-0.356545 -1.24255 -0.0034 0
-0.357382 -1.2431 -0.0034 0
-0.357381 -1.2431 -0.0021 0
-0.356544 -1.24255 -0.0021 0
-0.35738 -1.2431 -0.0021 0
-0.35738 -1.2431 -0.0039 0
-0.35738 -1.2431 -0.0039 0
-0.357378 -1.24309 -0.0034 0
-0.357378 -1.24309 -0.0034 0
-0.357377 -1.24309 -0.0033 0
-0.357376 -1.24309 -0.0033 0
-0.357375 -1.24309 -0.0032 0
-0.357374 -1.24309 -0.0032 0
-0.357373 -1.24309 -0.0025 0
-0.357373 -1.24309 -0.0025 0
-0.357372 -1.24309 -0.0027 0
-0.357371 -1.24309 -0.0027 0
-0.35737 -1.24309 -0.0027 0
-0.357369 -1.24309 -0.0037 0
-0.357369 -1.24309 -0.0037 0
-0.357368 -1.24309 -0.0037 0
-0.357368 -1.24309 -0.0036 0
-0.357366 -1.24309 -0.0034 0
-0.357366 -1.24309 -0.0034 0
-0.357365 -1.24309 -0.003 0
-0.357364 -1.24308 -0.003 0
-0.357363 -1.24308 -0.003 0
-0.357362 -1.24309 -0.003 0
-0.357361 -1.24309 -0.0033 0
-0.35736 -1.24309 -0.0033 0
-0.357359 -1.24309 -0.0033 0
-0.357358 -1.24309 -0.0037 0
-0.357358 -1.24309 -0.0037 0
-0.357357 -1.24309 -0.0032 0
-0.357357 -1.24309 -0.0032 0
-0.357356 -1.24309 -0.0032 0
-0.357355 -1.24309 -0.0031 0
-0.357353 -1.24308 -0.0031 0
-0.357352 -1.24308 -0.0027 0
-0.357352 -1.24308 -0.0027 0
-0.357351 -1.24308 -0.0031 0
-0.35735 -1.24308 -0.0031 0
-0.356512 -1.24254 -0.0029 0
-0.357349 -1.24308 -0.0029 0
-0.357348 -1.24308 -0.0029 0
-0.357347 -1.24308 -0.0033 0
-0.357345 -1.24308 -0.0033 0
-0.357344 -1.24308 -0.0029 0
-0.357343 -1.24308 -0.0029 0
-0.357342 -1.24308 -0.0028 0
-0.357342 -1.24308 -0.0028 0
-0.357341 -1.24308 -0.0032 0
-0.355666 -1.24199 -0.0032 0
-0.35734 -1.24308 -0.0032 0
-0.357339 -1.24308 -0.0033 0
-0.357338 -1.24308 -0.0033 0
-0.357336 -1.24308 -0.0031 0
-0.357336 -1.24308 -0.0031 0
-0.357335 -1.24308 -0.0033 0
-0.357335 -1.24308 -0.0033 0
-0.357334 -1.24309 -0.0028 0
-0.357333 -1.24308 -0.0028 0
-0.357332 -1.24308 -0.003 0
-0.357332 -1.24308 -0.003 0
-0.357331 -1.24308 -0.0035 0
-0.357329 -1.24308 -0.0035 0
-0.357373 -1.24297 -0.0031 0
-0.357373 -1.24297 -0.0031 0
-0.354859 -1.24133 -0.0032 0
-0.357326 -1.24308 -0.0032 0
-0.357325 -1.24308 -0.0032 0
-0.357368 -1.24296 -0.0032 0
-0.357367 -1.24296 -0.0028 0
-0.357366 -1.24296 -0.0028 0
-0.357366 -1.24296 -0.0028 0
-0.357364 -1.24296 -0.0034 0
-0.357363 -1.24296 -0.003 0
-0.357362 -1.24296 -0.003 0
-0.35736 -1.24296 -0.003 0
-0.35736 -1.24296 -0.0033 0
-0.357359 -1.24296 -0.0033 0
-0.357358 -1.24295 -0.0031 0
-0.357358 -1.24295 -0.0031 0
-0.357356 -1.24295 -0.0032 0
-0.357355 -1.24295 -0.0032 0
-0.357355 -1.24295 -0.003 0
-0.357354 -1.24295 -0.003 0
-0.357352 -1.24295 -0.0031 0
-0.357352 -1.24295 -0.0031 0
-0.357351 -1.24295 -0.0034 0
-0.35735 -1.24295 -0.0034 0
-0.357349 -1.24294 -0.0037 0
-0.357347 -1.24294 -0.0037 0
-0.357346 -1.24294 -0.0033 0
-0.357344 -1.24294 -0.0033 0
-0.357344 -1.24294 -0.0031 0
-0.357344 -1.24294 -0.0031 0
-0.357343 -1.24294 -0.0032 0
-0.357296 -1.24306 -0.0032 0
-0.357295 -1.24305 -0.0032 0
-0.357294 -1.24305 -0.0032 0
-0.357293 -1.24305 -0.0035 0
-0.35729 -1.24305 -0.0035 0
-0.35729 -1.24305 -0.0033 0
-0.357289 -1.24305 -0.0033 0
-0.357288 -1.24305 -0.0033 0
-0.357285 -1.24305 -0.0031 0
-0.357284 -1.24305 -0.0028 0
-0.357283 -1.24305 -0.0028 0
-0.357282 -1.24305 -0.0031 0
-0.357281 -1.24305 -0.0031 0
-0.357281 -1.24305 -0.0031 0
-0.35728 -1.24304 -0.0031 0
-0.35728 -1.24304 -0.0031 0
-0.35728 -1.24304 -0.003 0
-0.357279 -1.24304 -0.003 0
-0.357278 -1.24304 -0.003 0
-0.357277 -1.24304 -0.0029 0
-0.35732 -1.24293 -0.0029 0
-0.357275 -1.24304 -0.0034 0
-0.357275 -1.24304 -0.0034 0
-0.357275 -1.24304 -0.0033 0
-0.357275 -1.24304 -0.0033 0
-0.357274 -1.24304 -0.0034 0
-0.357319 -1.24292 -0.0034 0
-0.357318 -1.24292 -0.0034 0
-0.357318 -1.24292 -0.0033 0
-0.357274 -1.24304 -0.0033 0
-0.357274 -1.24304 -0.0033 0
-0.357274 -1.24304 -0.0033 0
-0.357274 -1.24304 -0.0034 0
-0.357318 -1.24292 -0.0034 0
-0.357318 -1.24292 -0.003 0
-0.357317 -1.24292 -0.003 0
-0.357317 -1.24292 -0.003 0
-0.357316 -1.24292 -0.0033 0
-0.356478 -1.24237 -0.0033 0
-0.357316 -1.24292 -0.0029 0
-0.357315 -1.24292 -0.0029 0
-0.357313 -1.24292 -0.003 0
-0.357312 -1.24292 -0.0035 0
-0.357311 -1.24292 -0.0035 0
-0.357267 -1.24303 -0.0026 0
-0.357267 -1.24303 -0.0026 0
-0.357266 -1.24303 -0.0026 0
-0.357265 -1.24303 -0.0031 0
-0.357263 -1.24303 -0.0035 0
-0.357262 -1.24303 -0.0035 0
-0.35726 -1.24303 -0.0033 0
-0.357303 -1.24291 -0.0033 0
-0.357301 -1.24291 -0.0034 0
-0.356463 -1.24237 -0.0034 0
-0.357299 -1.24291 -0.0034 0
-0.357297 -1.24291 -0.0034 0
-0.357295 -1.24291 -0.0033 0
-0.357294 -1.24291 -0.0033 0
-0.357292 -1.24291 -0.003 0
-0.35729 -1.24291 -0.003 0
-0.357286 -1.24291 -0.0031 0
-0.357284 -1.24291 -0.0031 0
-0.357282 -1.24291 -0.003 0
-0.357279 -1.24291 -0.003 0
-0.357278 -1.24291 -0.0029 0
-0.357276 -1.2429 -0.0029 0
-0.357274 -1.2429 -0.0028 0
-0.357273 -1.2429 -0.0028 0
-0.357271 -1.2429 -0.0028 0
-0.357225 -1.24302 -0.0029 0
-0.357222 -1.24302 -0.0029 0
-0.35722 -1.24302 -0.0031 0
-0.357218 -1.24302 -0.0031 0
-0.357216 -1.24302 -0.0032 0
-0.357214 -1.24302 -0.0032 0
-0.357256 -1.2429 -0.0033 0
-0.357256 -1.2429 -0.0033 0
-0.357255 -1.2429 -0.003 0
-0.357253 -1.2429 -0.003 0
-0.357252 -1.2429 -0.0024 0
-0.357251 -1.24289 -0.0024 0
-0.357251 -1.24289 -0.0032 0
-0.35725 -1.24289 -0.0032 0
-0.357249 -1.24289 -0.0033 0
-0.357249 -1.24289 -0.0033 0
-0.357204 -1.24301 -0.0029 0
-0.357203 -1.24301 -0.0031 0
-0.357202 -1.24301 -0.0031 0
-0.357202 -1.24301 -0.0031 0
-0.3572 -1.24301 -0.0034 0
-0.357244 -1.24289 -0.0031 0
-0.357243 -1.24289 -0.0031 0
-0.357242 -1.24289 -0.0031 0
-0.357241 -1.24289 -0.0033 0
-0.357239 -1.24289 -0.0033 0
-0.357238 -1.24289 -0.0033 0
-0.357237 -1.24289 -0.0033 0
-0.357237 -1.24289 -0.0033 0
-0.357236 -1.24289 -0.0031 0
-0.357235 -1.24288 -0.0031 0
-0.357234 -1.24288 -0.0031 0
-0.357233 -1.24288 -0.003 0
-0.357233 -1.24288 -0.003 0
-0.357231 -1.24288 -0.003 0
-0.357231 -1.24288 -0.0033 0
-0.35723 -1.24288 -0.0033 0
-0.357229 -1.24288 -0.0033 0
-0.357228 -1.24288 -0.0033 0
-0.357225 -1.24288 -0.003 0
-0.357224 -1.24288 -0.003 0
-0.357224 -1.24288 -0.0034 0
-0.357223 -1.24288 -0.0034 0
-0.357222 -1.24288 -0.0026 0
-0.357222 -1.24288 -0.0026 0
-0.35722 -1.24288 -0.0026 0
-0.35722 -1.24288 -0.0029 0
-0.357219 -1.24288 -0.0029 0
-0.357218 -1.24288 -0.003 0
-0.357217 -1.24288 -0.003 0
-0.357216 -1.24288 -0.0034 0
-0.357215 -1.24288 -0.0034 0
-0.357214 -1.24288 -0.0034 0
-0.357213 -1.24288 -0.0032 0
-0.357212 -1.24288 -0.0032 0
-0.35721 -1.24288 -0.0032 0
-0.357209 -1.24288 -0.0032 0
-0.357208 -1.24288 -0.003 0
-0.357207 -1.24288 -0.003 0
-0.357205 -1.24288 -0.0029 0
-0.357204 -1.24288 -0.0029 0
-0.357203 -1.24288 -0.0034 0
-0.357201 -1.24288 -0.0034 0
-0.3572 -1.24288 -0.0032 0
-0.357199 -1.24288 -0.0032 0
-0.357198 -1.24288 -0.0032 0
-0.357197 -1.24288 -0.0032 0
-0.357196 -1.24288 -0.0031 0
-0.357149 -1.243 -0.0028 0
-0.357148 -1.243 -0.0028 0
-0.357146 -1.243 -0.0028 0
-0.347934 -1.23699 -0.0034 0
-0.357144 -1.243 -0.0034 0
-0.357143 -1.243 -0.0034 0
-0.357142 -1.243 -0.0035 0
-0.357141 -1.243 -0.0035 0
-0.35714 -1.243 -0.0029 0
-0.357139 -1.243 -0.0029 0
-0.357138 -1.243 -0.0034 0
-0.357137 -1.243 -0.0034 0
-0.357137 -1.243 -0.0038 0
-0.357136 -1.243 -0.0038 0
-0.357135 -1.243 -0.0031 0
-0.357133 -1.243 -0.0031 0
-0.357132 -1.24299 -0.0031 0
-0.357132 -1.24299 -0.0032 0
-0.357132 -1.24299 -0.0032 0
-0.357134 -1.24299 -0.004 0
-0.357134 -1.24299 -0.004 0
-0.357134 -1.24299 -0.0029 0
-0.357134 -1.24299 -0.0029 0
-0.357134 -1.24299 -0.0029 0
-0.357133 -1.24299 -0.0029 0
-0.357175 -1.24287 -0.0027 0
-0.357174 -1.24287 -0.0027 0
-0.357173 -1.24287 -0.0027 0
-0.357173 -1.24287 -0.0036 0
-0.357172 -1.24287 -0.0036 0
-0.357172 -1.24287 -0.0033 0
-0.357171 -1.24287 -0.0033 0
-0.357126 -1.24299 -0.0028 0
-0.357125 -1.24299 -0.0028 0
-0.357125 -1.24299 -0.0032 0
-0.357125 -1.24299 -0.0032 0
-0.357125 -1.24299 -0.0032 0
-0.357124 -1.24298 -0.003 0
-0.357124 -1.24298 -0.003 0
-0.357123 -1.24298 -0.0036 0
-0.357165 -1.24286 -0.0031 0
-0.357164 -1.24286 -0.0031 0
-0.357119 -1.24298 -0.0031 0
-0.357118 -1.24298 -0.0029 0
-0.357118 -1.24298 -0.0029 0
-0.357117 -1.24298 -0.0035 0
-0.357115 -1.24298 -0.0035 0
-0.357114 -1.24298 -0.0031 0
-0.357113 -1.24297 -0.0031 0
-0.357112 -1.24297 -0.0031 0
-0.357111 -1.24297 -0.0031 0
-0.357155 -1.24285 -0.0031 0
-0.35711 -1.24297 -0.0037 0
-0.357992 -1.2434 -0.0037 0
-0.357109 -1.24297 -0.0037 0
-0.357153 -1.24285 -0.0036 0
-0.357152 -1.24285 -0.0036 0
-0.357151 -1.24285 -0.0034 0
-0.35715 -1.24285 -0.003 0
-0.355474 -1.24176 -0.003 0
-0.357149 -1.24285 -0.003 0
-0.357148 -1.24285 -0.003 0
-0.357147 -1.24285 -0.003 0
-0.357102 -1.24297 -0.003 0
-0.357146 -1.24285 -0.0032 0
-0.357145 -1.24285 -0.0033 0
-0.3571 -1.24296 -0.0033 0
-0.357099 -1.24296 -0.0033 0
-0.357098 -1.24296 -0.0029 0
-0.357095 -1.24296 -0.0035 0
-0.357138 -1.24284 -0.0035 0
-0.357137 -1.24284 -0.0027 0
-0.357137 -1.24284 -0.0027 0
-0.357136 -1.24284 -0.0027 0
-0.357136 -1.24284 -0.0039 0
-0.357134 -1.24284 -0.0039 0
-0.357133 -1.24284 -0.0033 0
-0.35713 -1.24284 -0.0033 0
-0.357129 -1.24284 -0.0031 0
-0.357129 -1.24284 -0.0031 0
-0.357128 -1.24284 -0.0035 0
-0.357128 -1.24284 -0.0035 0
-0.357082 -1.24295 -0.0035 0
-0.357081 -1.24295 -0.003 0
-0.357079 -1.24295 -0.003 0
-0.357078 -1.24295 -0.0031 0
-0.357077 -1.24295 -0.0031 0
-0.357076 -1.24295 -0.0035 0
-0.357076 -1.24295 -0.0035 0
-0.357076 -1.24295 -0.0035 0
-0.357076 -1.24295 -0.0031 0
-0.357076 -1.24295 -0.0033 0
-0.357075 -1.24295 -0.0033 0
-0.357074 -1.24295 -0.0033 0
-0.357073 -1.24295 -0.0029 0
-0.357071 -1.24295 -0.0029 0
-0.35707 -1.24295 -0.0033 0
-0.357069 -1.24295 -0.0034 0
-0.357067 -1.24295 -0.0034 0
-0.357066 -1.24295 -0.0032 0
-0.357065 -1.24295 -0.0032 0
-0.357064 -1.24295 -0.0031 0
-0.357061 -1.24294 -0.0031 0
-0.35706 -1.24294 -0.0028 0
-0.35706 -1.24294 -0.0028 0
-0.357059 -1.24294 -0.0032 0
-0.357057 -1.24294 -0.0032 0
-0.357056 -1.24294 -0.0032 0
-0.357055 -1.24294 -0.0032 0
-0.357054 -1.24294 -0.0028 0
-0.357054 -1.24294 -0.0028 0
-0.357053 -1.24294 -0.0029 0
-0.357053 -1.24294 -0.0029 0
-0.357051 -1.24294 -0.0032 0
-0.357051 -1.24294 -0.0032 0
-0.357051 -1.24294 -0.0029 0
-0.35705 -1.24294 -0.0029 0
-0.35705 -1.24294 -0.0034 0
-0.35705 -1.24294 -0.0034 0
-0.357049 -1.24294 -0.0028 0
-0.357048 -1.24294 -0.0028 0
-0.357048 -1.24294 -0.0028 0
-0.357048 -1.24294 -0.0028 0
-0.357048 -1.24294 -0.0033 0
-0.357048 -1.24294 -0.0033 0
-0.357047 -1.24294 -0.0033 0
-0.357046 -1.24294 -0.0032 0
-0.357045 -1.24293 -0.0032 0
-0.357045 -1.24293 -0.0028 0
-0.357042 -1.24293 -0.0028 0
-0.357041 -1.24293 -0.003 0
-0.35704 -1.24293 -0.003 0
-0.35704 -1.24293 -0.003 0
-0.357039 -1.24293 -0.0029 0
-0.357038 -1.24293 -0.0029 0
-0.357038 -1.24293 -0.0029 0
-0.357037 -1.24293 -0.0033 0
-0.354523 -1.24129 -0.0033 0
-0.357035 -1.24292 -0.0033 0
-0.357034 -1.24292 -0.0033 0
-0.357034 -1.24292 -0.0032 0
-0.357033 -1.24292 -0.0032 0
-0.357033 -1.24292 -0.0032 0
-0.357032 -1.24292 -0.0035 0
-0.357031 -1.24292 -0.0035 0
-0.357031 -1.24292 -0.0029 0
-0.357029 -1.24292 -0.0035 0
-0.357029 -1.24292 -0.0035 0
-0.357029 -1.24292 -0.0035 0
-0.357029 -1.24292 -0.0036 0
-0.357028 -1.24292 -0.0036 0
-0.357028 -1.24292 -0.0036 0
-0.357027 -1.24292 -0.0032 0
-0.357025 -1.24292 -0.0032 0
-0.357024 -1.24292 -0.003 0
-0.357023 -1.24292 -0.003 0
-0.357023 -1.24292 -0.0033 0
-0.357023 -1.24292 -0.0033 0
-0.357021 -1.24292 -0.0029 0
-0.357021 -1.24292 -0.0029 0
-0.35702 -1.24292 -0.0036 0
-0.35702 -1.24292 -0.0036 0
-0.357019 -1.24292 -0.0036 0
-0.357019 -1.24291 -0.003 0
-0.357019 -1.24291 -0.003 0
-0.357018 -1.24291 -0.0032 0
-0.357018 -1.24291 -0.0032 0
-0.357017 -1.24291 -0.0032 0
-0.357016 -1.24291 -0.0033 0
-0.357017 -1.24291 -0.0033 0
-0.357016 -1.24291 -0.0031 0
-0.357016 -1.24291 -0.0031 0
-0.357016 -1.24291 -0.0031 0
-0.357015 -1.24291 -0.0027 0
-0.357015 -1.24291 -0.0031 0
-0.357015 -1.24291 -0.0031 0
-0.357015 -1.24291 -0.0031 0
-0.354502 -1.24127 -0.003 0
-0.357014 -1.24291 -0.003 0
-0.357013 -1.24291 -0.003 0
-0.357013 -1.2429 -0.003 0
-0.357013 -1.2429 -0.003 0
-0.357012 -1.2429 -0.0031 0
-0.357012 -1.2429 -0.0031 0
-0.35701 -1.2429 -0.0028 0
-0.357009 -1.2429 -0.0028 0
-0.357009 -1.2429 -0.0026 0
-0.357008 -1.2429 -0.0026 0
-0.357008 -1.2429 -0.0029 0
-0.357008 -1.2429 -0.0029 0
-0.357008 -1.2429 -0.0029 0
-0.357006 -1.2429 -0.0032 0
-0.357005 -1.2429 -0.0029 0
-0.357004 -1.2429 -0.0029 0
-0.357003 -1.2429 -0.0029 0
-0.356165 -1.24235 -0.0032 0
-0.357002 -1.24289 -0.0032 0
-0.357002 -1.24289 -0.003 0
-0.357002 -1.24289 -0.003 0
-0.357002 -1.24289 -0.0032 0
-0.357001 -1.24289 -0.0032 0
-0.357001 -1.24289 -0.0031 0
-0.357 -1.24289 -0.0031 0
-0.356999 -1.24289 -0.0031 0
-0.356998 -1.24289 -0.0029 0
-0.356997 -1.24289 -0.0036 0
-0.356996 -1.24289 -0.0036 0
-0.356994 -1.24289 -0.0036 0
-0.356993 -1.24289 -0.003 0
-0.356993 -1.24289 -0.003 0
-0.356993 -1.24289 -0.0035 0
-0.354481 -1.24125 -0.0035 0
-0.356992 -1.24289 -0.0035 0
-0.356992 -1.24289 -0.0032 0
-0.356991 -1.24289 -0.0032 0
-0.356989 -1.24289 -0.0032 0
-0.356987 -1.24289 -0.0033 0
-0.356986 -1.24289 -0.003 0
-0.356984 -1.24289 -0.003 0
-0.356982 -1.24289 -0.0034 0
-0.35698 -1.24289 -0.0034 0
-0.356979 -1.24289 -0.0031 0
-0.356979 -1.24289 -0.0031 0
-0.356977 -1.24289 -0.0032 0
-0.356976 -1.24289 -0.0032 0
-0.356975 -1.24289 -0.0035 0
-0.356974 -1.24289 -0.0035 0
-0.356973 -1.24289 -0.0031 0
-0.356972 -1.24289 -0.0031 0
-0.35697 -1.24289 -0.0031 0
-0.355294 -1.24179 -0.0037 0
-0.356968 -1.24289 -0.0037 0
-0.355293 -1.24179 -0.0034 0
-0.356968 -1.24289 -0.0034 0
-0.356967 -1.24289 -0.0031 0
-0.356965 -1.24288 -0.0031 0
-0.356963 -1.24288 -0.0036 0
-0.356962 -1.24288 -0.0036 0
-0.356961 -1.24288 -0.0036 0
-0.357003 -1.24276 -0.0027 0
-0.357003 -1.24276 -0.0031 0
-0.357003 -1.24276 -0.0031 0
-0.357003 -1.24276 -0.0031 0
-0.356958 -1.24288 -0.0032 0
-0.356957 -1.24288 -0.0031 0
-0.357 -1.24276 -0.0031 0
-0.356999 -1.24276 -0.0031 0
-0.356953 -1.24288 -0.003 0
-0.356953 -1.24288 -0.0031 0
-0.356953 -1.24287 -0.0031 0
-0.391286 -1.26528 -0.0031 0
-0.356954 -1.24287 -0.0033 0
-0.356116 -1.24233 -0.0033 0
-0.356953 -1.24287 -0.0033 0
-0.356952 -1.24287 -0.0033 0
-0.356996 -1.24276 -0.003 0
-0.356995 -1.24276 -0.003 0
-0.356993 -1.24276 -0.0032 0
-0.356993 -1.24276 -0.0032 0
-0.356992 -1.24275 -0.003 0
-0.356992 -1.24275 -0.003 0
-0.356993 -1.24275 -0.0033 0
-0.356992 -1.24275 -0.0033 0
-0.35699 -1.24275 -0.0028 0
-0.35699 -1.24275 -0.0028 0
-0.356989 -1.24275 -0.0028 0
-0.356986 -1.24275 -0.0033 0
-0.356985 -1.24275 -0.0032 0
-0.356984 -1.24275 -0.0032 0
-0.356983 -1.24275 -0.0032 0
-0.356982 -1.24275 -0.0028 0
-0.356981 -1.24275 -0.0028 0
-0.35698 -1.24275 -0.0034 0
-0.356979 -1.24275 -0.0033 0
-0.356979 -1.24275 -0.0033 0
-0.356979 -1.24275 -0.0033 0
-0.356979 -1.24275 -0.0034 0
-0.356978 -1.24275 -0.0034 0
-0.356977 -1.24275 -0.003 0
-0.356977 -1.24274 -0.003 0
-0.356976 -1.24274 -0.003 0
-0.356975 -1.24274 -0.0029 0
-0.356974 -1.24274 -0.0029 0
-0.356974 -1.24274 -0.0031 0
-0.356972 -1.24274 -0.0031 0
-0.356971 -1.24274 -0.003 0
-0.35697 -1.24274 -0.003 0
-0.35697 -1.24274 -0.0028 0
-0.356969 -1.24274 -0.0028 0
-0.35697 -1.24274 -0.0028 0
-0.356969 -1.24274 -0.0034 0
-0.356969 -1.24274 -0.0034 0
-0.356967 -1.24274 -0.0031 0
-0.356965 -1.24274 -0.0031 0
-0.356964 -1.24274 -0.0036 0
-0.356963 -1.24274 -0.0036 0
-0.356917 -1.24285 -0.0036 0
-0.356914 -1.24285 -0.0032 0
-0.355239 -1.24176 -0.0032 0
-0.356912 -1.24285 -0.0032 0
-0.356911 -1.24285 -0.0034 0
-0.356909 -1.24285 -0.0034 0
-0.356908 -1.24285 -0.0034 0
-0.356907 -1.24285 -0.0031 0
-0.356906 -1.24285 -0.0031 0
-0.356905 -1.24285 -0.0033 0
-0.356947 -1.24273 -0.0033 0
-0.356902 -1.24285 -0.0033 0
-0.355226 -1.24175 -0.0033 0
-0.356944 -1.24273 -0.0033 0
-0.356898 -1.24285 -0.003 0
-0.356897 -1.24285 -0.003 0
-0.356895 -1.24284 -0.0028 0
-0.356895 -1.24284 -0.0028 0
-0.356893 -1.24284 -0.0033 0
-0.356893 -1.24284 -0.0033 0
-0.356892 -1.24284 -0.0029 0
-0.35689 -1.24284 -0.0029 0
-0.356934 -1.24273 -0.0029 0
-0.355214 -1.24175 -0.0029 0
-0.356887 -1.24284 -0.0029 0
-0.356887 -1.24284 -0.0033 0
-0.356928 -1.24272 -0.0033 0
-0.356927 -1.24272 -0.0031 0
-0.356927 -1.24272 -0.0031 0
-0.356926 -1.24272 -0.0032 0
-0.356925 -1.24272 -0.0032 0
-0.356923 -1.24272 -0.0032 0
-0.356923 -1.24272 -0.0027 0
-0.356922 -1.24271 -0.0027 0
-0.356921 -1.24271 -0.0032 0
-0.356921 -1.24271 -0.0032 0
-0.356921 -1.24271 -0.0035 0
-0.35692 -1.24271 -0.0035 0
-0.356919 -1.24271 -0.0028 0
-0.356919 -1.24271 -0.0028 0
-0.356918 -1.24271 -0.0036 0
-0.356918 -1.24271 -0.0036 0
-0.356919 -1.24272 -0.0032 0
-0.356918 -1.24272 -0.0032 0
-0.356918 -1.24272 -0.0036 0
-0.356917 -1.24272 -0.0036 0
-0.356916 -1.24272 -0.003 0
-0.356915 -1.24272 -0.0034 0
-0.356914 -1.24272 -0.0034 0
-0.356912 -1.24271 -0.0034 0
-0.356911 -1.24271 -0.0034 0
-0.356908 -1.24271 -0.0034 0
-0.356906 -1.24271 -0.0027 0
-0.356905 -1.24271 -0.0027 0
-0.356904 -1.24271 -0.0031 0
-0.356902 -1.24271 -0.0032 0
-0.3569 -1.24271 -0.0032 0
-0.356899 -1.24271 -0.0032 0
-0.356899 -1.24271 -0.0033 0
-0.356897 -1.24271 -0.0033 0
-0.356895 -1.2427 -0.0029 0
-0.356894 -1.24271 -0.0029 0
-0.356891 -1.24271 -0.0034 0
-0.356891 -1.24271 -0.0034 0
-0.35689 -1.2427 -0.0034 0
-0.356888 -1.2427 -0.0034 0
-0.356886 -1.2427 -0.0028 0
-0.356885 -1.2427 -0.0028 0
-0.356884 -1.2427 -0.0034 0
-0.356883 -1.2427 -0.0034 0
-0.356882 -1.2427 -0.0028 0
-0.356879 -1.2427 -0.0033 0
-0.356878 -1.2427 -0.0033 0
-0.356876 -1.2427 -0.0033 0
-0.356874 -1.2427 -0.0032 0
-0.356873 -1.2427 -0.0032 0
-0.356871 -1.2427 -0.0032 0
-0.35687 -1.2427 -0.0032 0
-0.35687 -1.2427 -0.0034 0
-0.356868 -1.2427 -0.0034 0
-0.356867 -1.2427 -0.0034 0
-0.356867 -1.2427 -0.0037 0
-0.356866 -1.2427 -0.0037 0
-0.356865 -1.2427 -0.0032 0
-0.356864 -1.2427 -0.0032 0
-0.356864 -1.2427 -0.0031 0
-0.356863 -1.2427 -0.0031 0
-0.356861 -1.2427 -0.0036 0
-0.356859 -1.2427 -0.0036 0
-0.356857 -1.2427 -0.0033 0
-0.356854 -1.24269 -0.0033 0
-0.356854 -1.24269 -0.0036 0
-0.356853 -1.24269 -0.0036 0
-0.356853 -1.24269 -0.0031 0
-0.356853 -1.24269 -0.0031 0
-0.356852 -1.24269 -0.0031 0
-0.356851 -1.24269 -0.0031 0
-0.356851 -1.24269 -0.003 0
-0.35685 -1.24269 -0.003 0
-0.356849 -1.24269 -0.003 0
-0.356847 -1.24269 -0.0033 0
-0.356846 -1.24269 -0.0033 0
-0.356844 -1.24269 -0.0037 0
-0.356843 -1.24269 -0.0037 0
-0.356843 -1.24269 -0.0031 0
-0.356843 -1.24268 -0.0031 0
-0.356843 -1.24268 -0.0032 0
-0.356843 -1.24268 -0.0032 0
-0.356842 -1.24268 -0.0032 0
-0.356842 -1.24268 -0.0031 0
-0.356841 -1.24268 -0.0031 0
-0.356841 -1.24268 -0.0031 0
-0.35684 -1.24268 -0.0024 0
-0.356838 -1.24268 -0.0028 0
-0.356837 -1.24268 -0.0028 0
-0.356836 -1.24268 -0.0029 0
-0.356835 -1.24268 -0.0029 0
-0.356835 -1.24268 -0.0029 0
-0.356834 -1.24268 -0.0031 0
-0.356833 -1.24267 -0.0031 0
-0.356833 -1.24267 -0.003 0
-0.356833 -1.24267 -0.003 0
-0.356832 -1.24267 -0.003 0
-0.356831 -1.24267 -0.0035 0
-0.356831 -1.24267 -0.0035 0
-0.356829 -1.24267 -0.0033 0
-0.356826 -1.24267 -0.0033 0
-0.356825 -1.24267 -0.0033 0
-0.356824 -1.24267 -0.0033 0
-0.356823 -1.24267 -0.0033 0
-0.356822 -1.24267 -0.0032 0
-0.356821 -1.24267 -0.0032 0
-0.35682 -1.24267 -0.0033 0
-0.356819 -1.24267 -0.0033 0
-0.356818 -1.24267 -0.0033 0
-0.356816 -1.24267 -0.0028 0
-0.356815 -1.24266 -0.0032 0
-0.356815 -1.24266 -0.0032 0
-0.356814 -1.24266 -0.0033 0
-0.356813 -1.24266 -0.0033 0
-0.356811 -1.24266 -0.0033 0
-0.356809 -1.24266 -0.0036 0
-0.356805 -1.24266 -0.0036 0
-0.356803 -1.24266 -0.0031 0
-0.356802 -1.24266 -0.0031 0
-0.3568 -1.24266 -0.0031 0
-0.356799 -1.24266 -0.0031 0
-0.356798 -1.24266 -0.0031 0
-0.356795 -1.24266 -0.0031 0
-0.356793 -1.24266 -0.0033 0
-0.356791 -1.24266 -0.0033 0
-0.35679 -1.24266 -0.0033 0
-0.356788 -1.24266 -0.0033 0
-0.356786 -1.24266 -0.0033 0
-0.356785 -1.24266 -0.0026 0
-0.356785 -1.24266 -0.0026 0
-0.356784 -1.24266 -0.003 0
-0.356783 -1.24266 -0.003 0
-0.355945 -1.24212 -0.003 0
-0.35678 -1.24266 -0.0032 0
-0.35678 -1.24266 -0.0032 0
-0.356779 -1.24266 -0.0032 0
-0.356778 -1.24266 -0.0032 0
-0.356777 -1.24266 -0.0034 0
-0.356775 -1.24266 -0.0034 0
-0.356774 -1.24266 -0.0032 0
-0.356773 -1.24266 -0.0032 0
-0.35677 -1.24266 -0.0032 0
-0.35677 -1.24266 -0.0032 0
-0.35677 -1.24266 -0.0026 0
-0.356769 -1.24266 -0.0026 0
-0.356768 -1.24266 -0.0026 0
-0.355091 -1.24156 -0.0032 0
-0.356765 -1.24266 -0.0032 0
-0.356765 -1.24266 -0.0031 0
-0.356764 -1.24266 -0.0031 0
-0.356763 -1.24266 -0.0031 0
-0.356762 -1.24266 -0.0033 0
-0.356761 -1.24265 -0.0033 0
-0.356761 -1.24265 -0.0027 0
-0.356759 -1.24265 -0.0027 0
-0.356758 -1.24265 -0.0029 0
-0.356758 -1.24265 -0.0029 0
-0.356757 -1.24265 -0.0028 0
-0.356756 -1.24265 -0.0028 0
-0.356756 -1.24265 -0.0028 0
-0.356756 -1.24265 -0.0033 0
-0.356755 -1.24265 -0.0033 0
-0.355916 -1.24211 -0.0029 0
-0.355915 -1.2421 -0.0029 0
-0.356752 -1.24265 -0.0029 0
-0.356751 -1.24265 -0.003 0
-0.346701 -1.23609 -0.0034 0
-0.356749 -1.24265 -0.0034 0
-0.356748 -1.24265 -0.0034 0
-0.356747 -1.24265 -0.0029 0
-0.356747 -1.24265 -0.0029 0
-0.356746 -1.24265 -0.0033 0
-0.356744 -1.24265 -0.0033 0
-0.356744 -1.24265 -0.0031 0
-0.356699 -1.24277 -0.0031 0
-0.356698 -1.24277 -0.0027 0
-0.356698 -1.24277 -0.0027 0
-0.356697 -1.24277 -0.0027 0
-0.356697 -1.24277 -0.0033 0
-0.356696 -1.24277 -0.0033 0
-0.356696 -1.24277 -0.0027 0
-0.356695 -1.24277 -0.0027 0
-0.356695 -1.24277 -0.0028 0
-0.356695 -1.24277 -0.0028 0
-0.356694 -1.24277 -0.003 0
-0.356693 -1.24277 -0.003 0
-0.356737 -1.24265 -0.003 0
-0.356736 -1.24265 -0.0033 0
-0.356735 -1.24265 -0.0033 0
-0.356734 -1.24265 -0.0035 0
-0.356687 -1.24276 -0.0035 0
-0.356686 -1.24276 -0.0032 0
-0.356729 -1.24265 -0.0032 0
-0.356728 -1.24264 -0.0033 0
-0.354214 -1.241 -0.0033 0
-0.356726 -1.24264 -0.0033 0
-0.356724 -1.24264 -0.0033 0
-0.356723 -1.24265 -0.0039 0
-0.356721 -1.24265 -0.0039 0
-0.356721 -1.24264 -0.0037 0
-0.356719 -1.24264 -0.0027 0
-0.356718 -1.24264 -0.0027 0
-0.356717 -1.24264 -0.0027 0
-0.356717 -1.24264 -0.0033 0
-0.356716 -1.24264 -0.0035 0
-0.356715 -1.24264 -0.0035 0
-0.356715 -1.24264 -0.0035 0
-0.356714 -1.24264 -0.0033 0
-0.356712 -1.24264 -0.0032 0
-0.356711 -1.24264 -0.0032 0
-0.35671 -1.24264 -0.0035 0
-0.35671 -1.24264 -0.0035 0
-0.35671 -1.24263 -0.0029 0
-0.35671 -1.24263 -0.0029 0
-0.356709 -1.24263 -0.0029 0
-0.356708 -1.24263 -0.0036 0
-0.356707 -1.24263 -0.0031 0
-0.356707 -1.24263 -0.0031 0
-0.356707 -1.24263 -0.0031 0
-0.356661 -1.24275 -0.0029 0
-0.35666 -1.24275 -0.003 0
-0.356659 -1.24274 -0.003 0
-0.356658 -1.24274 -0.0033 0
-0.356659 -1.24274 -0.0033 0
-0.356659 -1.24274 -0.0029 0
-0.356659 -1.24274 -0.0029 0
-0.35666 -1.24274 -0.0032 0
-0.356659 -1.24274 -0.0031 0
-0.356659 -1.24274 -0.0031 0
-0.356659 -1.24274 -0.0031 0
-0.356656 -1.24274 -0.0031 0
-0.356654 -1.24274 -0.0031 0
-0.356654 -1.24274 -0.0031 0
-0.323158 -1.22088 -0.0031 0
-0.356653 -1.24274 -0.003 0
-0.356653 -1.24274 -0.003 0
-0.356652 -1.24274 -0.0034 0
-0.356651 -1.24274 -0.0034 0
-0.35665 -1.24274 -0.0034 0
-0.356649 -1.24274 -0.0031 0
-0.356649 -1.24274 -0.0031 0
-0.356648 -1.24274 -0.0035 0
-0.356647 -1.24273 -0.0035 0
-0.356646 -1.24273 -0.003 0
-0.356645 -1.24273 -0.003 0
-0.356644 -1.24273 -0.0032 0
-0.356641 -1.24273 -0.0032 0
-0.35664 -1.24273 -0.0032 0
-0.356638 -1.24273 -0.0032 0
-0.356636 -1.24273 -0.0031 0
-0.356634 -1.24273 -0.0031 0
-0.356633 -1.24273 -0.0031 0
-0.356632 -1.24273 -0.0031 0
-0.356631 -1.24273 -0.0031 0
-0.356631 -1.24273 -0.0032 0
-0.356629 -1.24273 -0.0032 0
-0.356628 -1.24273 -0.0032 0
-0.356628 -1.24272 -0.0032 0
-0.356627 -1.24272 -0.0033 0
-0.356626 -1.24272 -0.0033 0
-0.356625 -1.24272 -0.0033 0
-0.356623 -1.24272 -0.0026 0
-0.356623 -1.24272 -0.0026 0
-0.356622 -1.24272 -0.0034 0
-0.356621 -1.24272 -0.0034 0
-0.356621 -1.24272 -0.0034 0
-0.35662 -1.24272 -0.0029 0
-0.35662 -1.24272 -0.0029 0
-0.356619 -1.24272 -0.003 0
-0.356617 -1.24272 -0.003 0
-0.356616 -1.24272 -0.003 0
-0.356614 -1.24271 -0.003 0
-0.356613 -1.24271 -0.0034 0
-0.356612 -1.24271 -0.0034 0
-0.35661 -1.24271 -0.0034 0
-0.356609 -1.24271 -0.0032 0
-0.356608 -1.24271 -0.0027 0
-0.356607 -1.24271 -0.0027 0
-0.356606 -1.24271 -0.0031 0
-0.356606 -1.24271 -0.0031 0
-0.356605 -1.2427 -0.0031 0
-0.356605 -1.2427 -0.0031 0
-0.356605 -1.2427 -0.003 0
-0.354092 -1.24106 -0.003 0
-0.356605 -1.2427 -0.0035 0
-0.356602 -1.2427 -0.0035 0
-0.356601 -1.2427 -0.003 0
-0.3566 -1.2427 -0.003 0
-0.354925 -1.24161 -0.0034 0
-0.356598 -1.2427 -0.0034 0
-0.356598 -1.2427 -0.0033 0
-0.356597 -1.2427 -0.0033 0
-0.356597 -1.2427 -0.0025 0
-0.356596 -1.2427 -0.0025 0
-0.356595 -1.2427 -0.0031 0
-0.356594 -1.2427 -0.0031 0
-0.356636 -1.24258 -0.0032 0
-0.356633 -1.24258 -0.0032 0
-0.356632 -1.24258 -0.0034 0
-0.356631 -1.24258 -0.0034 0
-0.356629 -1.24258 -0.0034 0
-0.356584 -1.24269 -0.0034 0
-0.35658 -1.24269 -0.003 0
-0.356579 -1.24269 -0.003 0
-0.356578 -1.24269 -0.0033 0
-0.356575 -1.24269 -0.0033 0
-0.354062 -1.24105 -0.0032 0
-0.356573 -1.24269 -0.0032 0
-0.356573 -1.24269 -0.0031 0
-0.356572 -1.24269 -0.0031 0
-0.356573 -1.24269 -0.0031 0
-0.346524 -1.23613 -0.0032 0
-0.356572 -1.24269 -0.0032 0
-0.356616 -1.24257 -0.0033 0
-0.356615 -1.24257 -0.0033 0
-0.35657 -1.24269 -0.0033 0
-0.356569 -1.24269 -0.003 0
-0.356568 -1.24269 -0.003 0
-0.356567 -1.24269 -0.003 0
-0.356566 -1.24269 -0.003 0
-0.356566 -1.24269 -0.0033 0
-0.356564 -1.24269 -0.0033 0
-0.356562 -1.24269 -0.0028 0
-0.356562 -1.24269 -0.0028 0
-0.356561 -1.24269 -0.0029 0
-0.35656 -1.24269 -0.0029 0
-0.356558 -1.24269 -0.0031 0
-0.356557 -1.24268 -0.0031 0
-0.356556 -1.24268 -0.0026 0
-0.356555 -1.24268 -0.0026 0
-0.356597 -1.24257 -0.0032 0
-0.356595 -1.24256 -0.0032 0
-0.356595 -1.24256 -0.0032 0
-0.356594 -1.24256 -0.0032 0
-0.356548 -1.24268 -0.0028 0
-0.356592 -1.24256 -0.0028 0
-0.356591 -1.24256 -0.0033 0
-0.35659 -1.24256 -0.0033 0
-0.356589 -1.24256 -0.0033 0
-0.356543 -1.24268 -0.0033 0
-0.356542 -1.24267 -0.003 0
-0.35654 -1.24267 -0.0033 0
-0.356539 -1.24267 -0.0033 0
-0.356538 -1.24267 -0.0033 0
-0.356536 -1.24267 -0.0028 0
-0.356536 -1.24267 -0.0031 0
-0.356534 -1.24267 -0.0031 0
-0.356534 -1.24267 -0.0031 0
-0.356532 -1.24267 -0.0034 0
-0.356532 -1.24267 -0.0031 0
-0.356531 -1.24267 -0.0031 0
-0.356532 -1.24267 -0.0031 0
-0.356575 -1.24255 -0.0031 0
-0.356572 -1.24255 -0.0032 0
-0.356571 -1.24255 -0.0032 0
-0.35657 -1.24254 -0.0035 0
-0.356569 -1.24254 -0.0029 0
-0.356568 -1.24254 -0.0029 0
-0.356567 -1.24254 -0.0029 0
-0.356567 -1.24254 -0.0034 0
-0.356566 -1.24254 -0.0034 0
-0.356565 -1.24254 -0.0031 0
-0.356563 -1.24254 -0.0031 0
-0.356561 -1.24254 -0.0036 0
-0.35656 -1.24254 -0.0036 0
-0.356558 -1.24254 -0.0032 0
-0.356512 -1.24265 -0.0032 0
-0.356511 -1.24265 -0.0032 0
-0.356509 -1.24265 -0.003 0
-0.356508 -1.24265 -0.0029 0
-0.356507 -1.24265 -0.0029 0
-0.356507 -1.24265 -0.0029 0
-0.356504 -1.24265 -0.003 0
-0.356502 -1.24265 -0.0037 0
-0.3565 -1.24265 -0.0037 0
-0.356499 -1.24265 -0.0037 0
-0.356499 -1.24265 -0.0035 0
-0.356498 -1.24265 -0.0033 0
-0.356497 -1.24265 -0.0033 0
-0.356497 -1.24265 -0.0033 0
-0.356497 -1.24265 -0.0028 0
-0.356496 -1.24265 -0.0027 0
-0.356496 -1.24265 -0.0027 0
-0.356496 -1.24265 -0.0027 0
-0.356495 -1.24265 -0.0029 0
-0.356494 -1.24264 -0.0032 0
-0.356494 -1.24264 -0.0032 0
-0.356494 -1.24264 -0.0032 0
-0.356492 -1.24265 -0.0037 0
-0.356491 -1.24265 -0.0032 0
-0.356489 -1.24265 -0.0032 0
-0.356532 -1.24253 -0.003 0
-0.35653 -1.24253 -0.003 0
-0.35653 -1.24253 -0.0028 0
-0.356528 -1.24253 -0.0028 0
-0.356527 -1.24253 -0.0033 0
-0.356527 -1.24253 -0.0033 0
-0.356526 -1.24253 -0.0027 0
-0.356525 -1.24253 -0.0027 0
-0.356524 -1.24253 -0.0034 0
-0.354848 -1.24143 -0.0034 0
-0.356521 -1.24252 -0.0034 0
-0.356521 -1.24252 -0.0034 0
-0.356518 -1.24252 -0.0026 0
-0.356518 -1.24252 -0.0026 0
-0.356518 -1.24252 -0.0028 0
-0.356517 -1.24252 -0.0028 0
-0.356471 -1.24264 -0.0034 0
-0.356471 -1.24264 -0.0034 0
-0.35647 -1.24264 -0.0036 0
-0.35647 -1.24264 -0.0036 0
-0.35647 -1.24264 -0.0036 0
-0.356469 -1.24264 -0.0032 0
-0.356469 -1.24264 -0.0032 0
-0.356468 -1.24264 -0.0035 0
-0.356467 -1.24264 -0.0035 0
-0.356466 -1.24263 -0.0037 0
-0.356466 -1.24263 -0.0037 0
-0.356465 -1.24263 -0.0032 0
-0.356464 -1.24263 -0.0032 0
-0.356507 -1.24251 -0.0032 0
-0.356461 -1.24263 -0.0031 0
-0.35646 -1.24263 -0.0036 0
-0.35646 -1.24263 -0.0036 0
-0.35646 -1.24263 -0.0036 0
-0.356459 -1.24263 -0.0032 0
-0.356458 -1.24263 -0.0032 0
-0.356458 -1.24263 -0.0035 0
-0.356457 -1.24263 -0.0035 0
-0.356456 -1.24263 -0.0035 0
-0.356498 -1.24251 -0.0034 0
-0.356498 -1.24251 -0.0031 0
-0.356497 -1.24251 -0.0031 0
-0.356495 -1.24251 -0.0031 0
-0.356494 -1.24251 -0.0034 0
-0.356491 -1.24251 -0.0029 0
-0.35649 -1.24251 -0.0029 0
-0.356489 -1.24251 -0.0029 0
-0.356489 -1.2425 -0.003 0
-0.356488 -1.2425 -0.003 0
-0.356488 -1.2425 -0.0034 0
-0.356487 -1.2425 -0.0034 0
-0.356486 -1.2425 -0.0034 0
-0.356485 -1.2425 -0.0032 0
-0.356484 -1.2425 -0.0032 0
-0.356483 -1.2425 -0.0032 0
-0.35397 -1.24086 -0.0032 0
-0.356482 -1.2425 -0.0032 0
-0.356482 -1.2425 -0.003 0
-0.356481 -1.2425 -0.003 0
-0.356479 -1.2425 -0.0034 0
-0.356475 -1.2425 -0.0034 0
-0.354799 -1.24141 -0.003 0
-0.356472 -1.2425 -0.003 0
-0.35647 -1.2425 -0.0032 0
-0.356469 -1.2425 -0.0032 0
-0.356467 -1.2425 -0.003 0
-0.356466 -1.2425 -0.003 0
-0.356465 -1.2425 -0.0032 0
-0.356464 -1.2425 -0.0032 0
-0.34637 -1.23606 -0.0032 0
-0.356418 -1.24262 -0.0032 0
-0.356417 -1.24262 -0.0036 0
-0.356416 -1.24261 -0.0036 0
-0.356415 -1.24261 -0.0033 0
-0.356414 -1.24261 -0.0033 0
-0.356457 -1.2425 -0.0029 0
-0.356457 -1.2425 -0.0029 0
-0.356411 -1.24261 -0.0038 0
-0.35641 -1.24261 -0.0038 0
-0.356407 -1.24261 -0.0025 0
-0.356406 -1.24261 -0.0025 0
-0.356405 -1.24261 -0.003 0
-0.356404 -1.24261 -0.0032 0
-0.356403 -1.24261 -0.0032 0
-0.356402 -1.24261 -0.0032 0
-0.356401 -1.24261 -0.0031 0
-0.3564 -1.24261 -0.0029 0
-0.356399 -1.24261 -0.0029 0
-0.356398 -1.24261 -0.0029 0
-0.356397 -1.24261 -0.0031 0
-0.356396 -1.2426 -0.0027 0
-0.356394 -1.2426 -0.0027 0
-0.356438 -1.24249 -0.0027 0
-0.356436 -1.24249 -0.0035 0
-0.356391 -1.2426 -0.0035 0
-0.356389 -1.2426 -0.0029 0
-0.357225 -1.24315 -0.0029 0
-0.35643 -1.24249 -0.0029 0
-0.356429 -1.24249 -0.0032 0
-0.356427 -1.24248 -0.0034 0
-0.356426 -1.24248 -0.0034 0
-0.356425 -1.24248 -0.0034 0
-0.356425 -1.24248 -0.0031 0
-0.356424 -1.24248 -0.0031 0
-0.356421 -1.24248 -0.0034 0
-0.35642 -1.24248 -0.0034 0
-0.35642 -1.24248 -0.0031 0
-0.35642 -1.24248 -0.0031 0
-0.35642 -1.24248 -0.0036 0
-0.35642 -1.24248 -0.0036 0
-0.35642 -1.24248 -0.0036 0
-0.356419 -1.24247 -0.0028 0
-0.356419 -1.24247 -0.0028 0
-0.356419 -1.24247 -0.0028 0
-0.356418 -1.24247 -0.0033 0
-0.356418 -1.24247 -0.0033 0
-0.356415 -1.24247 -0.003 0
-0.356414 -1.24247 -0.003 0
-0.356414 -1.24247 -0.0032 0
-0.355575 -1.24192 -0.0031 0
-0.356412 -1.24247 -0.0031 0
-0.356411 -1.24247 -0.0031 0
-0.35641 -1.24247 -0.0035 0
-0.356409 -1.24247 -0.0035 0
-0.356407 -1.24247 -0.0031 0
-0.356407 -1.24247 -0.0031 0
-0.356406 -1.24247 -0.0031 0
-0.356405 -1.24247 -0.003 0
-0.356402 -1.24246 -0.003 0
-0.356401 -1.24246 -0.003 0
-0.3564 -1.24246 -0.003 0
-0.356398 -1.24246 -0.0028 0
-0.356398 -1.24246 -0.0028 0
-0.356398 -1.24246 -0.0033 0
-0.356399 -1.24246 -0.0033 0
-0.356397 -1.24246 -0.0027 0
-0.356396 -1.24246 -0.0027 0
-0.356396 -1.24246 -0.0028 0
-0.356397 -1.24246 -0.0028 0
-0.356396 -1.24246 -0.0028 0
-0.356395 -1.24246 -0.0038 0
-0.356394 -1.24245 -0.0027 0
-0.355555 -1.24191 -0.0027 0
-0.356392 -1.24245 -0.0027 0
-0.356391 -1.24245 -0.0033 0
-0.35639 -1.24245 -0.0033 0
-0.356387 -1.24245 -0.0028 0
-0.356386 -1.24245 -0.0028 0
-0.354709 -1.24136 -0.0028 0
-0.356383 -1.24245 -0.0028 0
-0.356382 -1.24245 -0.0028 0
-0.355543 -1.2419 -0.0028 0
-0.356379 -1.24245 -0.0028 0
-0.356378 -1.24245 -0.0032 0
-0.356377 -1.24244 -0.0035 0
-0.390713 -1.26485 -0.0035 0
-0.356376 -1.24245 -0.0035 0
-0.356377 -1.24245 -0.0029 0
-0.356376 -1.24245 -0.0029 0
-0.356375 -1.24245 -0.003 0
-0.356375 -1.24245 -0.003 0
-0.356375 -1.24245 -0.003 0
-0.356373 -1.24244 -0.0031 0
-0.356372 -1.24244 -0.0034 0
-0.356371 -1.24244 -0.0034 0
-0.35637 -1.24244 -0.0034 0
-0.356369 -1.24244 -0.003 0
-0.356369 -1.24244 -0.003 0
-0.356368 -1.24244 -0.0031 0
-0.356321 -1.24256 -0.0031 0
-0.356321 -1.24256 -0.0034 0
-0.35632 -1.24256 -0.0034 0
-0.390652 -1.26497 -0.0036 0
-0.356317 -1.24256 -0.0036 0
-0.356316 -1.24256 -0.003 0
-0.356315 -1.24256 -0.003 0
-0.356313 -1.24255 -0.0031 0
-0.356312 -1.24255 -0.0031 0
-0.356311 -1.24255 -0.0036 0
-0.354636 -1.24146 -0.0036 0
-0.356308 -1.24255 -0.0029 0
-0.356307 -1.24255 -0.0029 0
-0.356307 -1.24255 -0.003 0
-0.35635 -1.24244 -0.003 0
-0.35635 -1.24243 -0.0039 0
-0.356349 -1.24243 -0.0039 0
-0.356348 -1.24243 -0.0039 0
-0.356347 -1.24243 -0.0036 0
-0.356346 -1.24243 -0.0036 0
-0.356345 -1.24243 -0.003 0
-0.356344 -1.24243 -0.003 0
-0.356342 -1.24243 -0.0029 0
-0.356341 -1.24243 -0.0029 0
-0.356341 -1.24243 -0.0033 0
-0.35634 -1.24243 -0.0033 0
-0.356339 -1.24243 -0.0033 0
-0.356338 -1.24243 -0.0026 0
-0.356336 -1.24243 -0.0026 0
-0.355497 -1.24189 -0.003 0
-0.356332 -1.24243 -0.003 0
-0.356332 -1.24243 -0.0039 0
-0.356331 -1.24243 -0.0039 0
-0.35633 -1.24244 -0.0024 0
-0.356329 -1.24244 -0.0024 0
-0.356327 -1.24244 -0.003 0
-0.356327 -1.24243 -0.003 0
-0.356326 -1.24243 -0.0035 0
-0.356325 -1.24243 -0.0035 0
-0.356322 -1.24243 -0.003 0
-0.356321 -1.24243 -0.003 0
-0.35632 -1.24243 -0.0025 0
-0.35632 -1.24243 -0.0025 0
-0.356273 -1.24255 -0.0029 0
-0.356316 -1.24243 -0.0029 0
-0.356315 -1.24243 -0.0038 0
-0.35627 -1.24255 -0.0038 0
-0.356269 -1.24255 -0.0028 0
-0.356269 -1.24255 -0.0028 0
-0.35627 -1.24255 -0.003 0
-0.356269 -1.24254 -0.003 0
-0.353756 -1.2409 -0.0031 0
-0.356267 -1.24254 -0.0031 0
-0.356267 -1.24254 -0.003 0
-0.355429 -1.242 -0.003 0
-0.356266 -1.24254 -0.003 0
-0.356265 -1.24254 -0.0033 0
-0.356265 -1.24254 -0.0033 0
-0.356266 -1.24254 -0.0029 0
-0.356266 -1.24254 -0.0029 0
-0.356266 -1.24254 -0.0029 0
-0.356265 -1.24254 -0.0029 0
-0.356264 -1.24254 -0.0033 0
-0.356263 -1.24253 -0.0033 0
-0.356262 -1.24253 -0.0033 0
-0.356305 -1.24241 -0.0028 0
-0.356304 -1.24241 -0.0028 0
-0.356303 -1.24241 -0.003 0
-0.356302 -1.24241 -0.003 0
-0.356302 -1.24241 -0.0034 0
-0.355464 -1.24186 -0.0034 0
-0.3563 -1.24241 -0.0035 0
-0.3563 -1.24241 -0.0035 0
-0.356299 -1.24241 -0.0035 0
-0.356298 -1.24241 -0.0033 0
-0.356297 -1.24241 -0.0033 0
-0.356295 -1.24241 -0.0033 0
-0.356295 -1.24241 -0.0033 0
-0.356294 -1.24241 -0.0033 0
-0.356294 -1.24241 -0.0033 0
-0.356294 -1.24241 -0.0031 0
-0.356293 -1.24241 -0.0031 0
-0.356292 -1.24241 -0.0031 0
-0.35629 -1.24241 -0.0035 0
-0.35629 -1.24241 -0.0028 0
-0.35629 -1.24241 -0.0028 0
-0.356289 -1.24241 -0.0028 0
-0.356243 -1.24253 -0.0035 0
-0.356244 -1.24253 -0.0028 0
-0.356244 -1.24253 -0.0028 0
-0.356244 -1.24253 -0.0028 0
-0.356242 -1.24253 -0.0033 0
-0.356242 -1.24253 -0.003 0
-0.356285 -1.24241 -0.003 0
-0.356285 -1.24241 -0.003 0
-0.35624 -1.24253 -0.0032 0
-0.356239 -1.24253 -0.0033 0
-0.356238 -1.24253 -0.0033 0
-0.356238 -1.24253 -0.0031 0
-0.356237 -1.24253 -0.0031 0
-0.35628 -1.24241 -0.0033 0
-0.356279 -1.24241 -0.0033 0
-0.356279 -1.24241 -0.003 0
-0.356278 -1.24241 -0.003 0
-0.356232 -1.24253 -0.0027 0
-0.356275 -1.24241 -0.0027 0
-0.356275 -1.24241 -0.0033 0
-0.356274 -1.24241 -0.0033 0
-0.356273 -1.24241 -0.0033 0
-0.356272 -1.24241 -0.0033 0
-0.35627 -1.24241 -0.0033 0
-0.353757 -1.24077 -0.0033 0
-0.356269 -1.24241 -0.0033 0
-0.356269 -1.24241 -0.0029 0
-0.356268 -1.24241 -0.0029 0
-0.356268 -1.24241 -0.0036 0
-0.356267 -1.24241 -0.0036 0
-0.356266 -1.24241 -0.0025 0
-0.356265 -1.24241 -0.0025 0
-0.356263 -1.2424 -0.0031 0
-0.356263 -1.2424 -0.0031 0
-0.356262 -1.2424 -0.0037 0
-0.356262 -1.2424 -0.0037 0
-0.356261 -1.2424 -0.0037 0
-0.35626 -1.2424 -0.0027 0
-0.356259 -1.2424 -0.0035 0
-0.356259 -1.2424 -0.0035 0
-0.356258 -1.2424 -0.0035 0
-0.356258 -1.2424 -0.0034 0
-0.356212 -1.24252 -0.0034 0
-0.35621 -1.24252 -0.003 0
-0.356208 -1.24252 -0.003 0
-0.356207 -1.24252 -0.003 0
-0.356206 -1.24252 -0.0033 0
-0.356204 -1.24252 -0.0029 0
-0.356204 -1.24252 -0.0029 0
-0.356202 -1.24252 -0.0029 0
-0.356201 -1.24252 -0.0031 0
-0.3562 -1.24251 -0.0031 0
-0.356198 -1.24251 -0.003 0
-0.356197 -1.24251 -0.003 0
-0.356196 -1.24251 -0.0031 0
-0.356195 -1.24251 -0.0031 0
-0.356194 -1.24251 -0.0034 0
-0.356193 -1.24251 -0.0034 0
-0.356193 -1.24251 -0.0034 0
-0.35368 -1.24087 -0.0028 0
-0.35619 -1.24251 -0.0028 0
-0.35619 -1.24251 -0.0032 0
-0.356189 -1.24251 -0.0032 0
-0.356188 -1.24251 -0.0034 0
-0.356187 -1.24251 -0.0034 0
-0.356186 -1.24251 -0.0032 0
-0.356185 -1.24251 -0.0032 0
-0.356185 -1.2425 -0.0032 0
-0.356229 -1.24239 -0.0035 0
-0.35539 -1.24184 -0.0027 0
-0.356227 -1.24238 -0.0027 0
-0.356225 -1.24238 -0.0027 0
-0.356224 -1.24238 -0.0035 0
-0.356223 -1.24238 -0.0035 0
-0.356221 -1.24238 -0.0031 0
-0.35622 -1.24238 -0.0031 0
-0.356174 -1.2425 -0.0031 0
-0.356174 -1.2425 -0.0034 0
-0.356218 -1.24238 -0.0033 0
-0.356217 -1.24238 -0.0033 0
-0.356216 -1.24238 -0.0033 0
-0.356216 -1.24238 -0.003 0
-0.356216 -1.24238 -0.003 0
-0.353702 -1.24074 -0.0032 0
-0.356212 -1.24238 -0.0032 0
-0.356211 -1.24237 -0.0033 0
-0.35621 -1.24237 -0.0033 0
-0.356209 -1.24237 -0.003 0
-0.356208 -1.24237 -0.003 0
-0.356207 -1.24237 -0.0036 0
-0.356206 -1.24237 -0.0036 0
-0.356205 -1.24237 -0.003 0
-0.356204 -1.24237 -0.003 0
-0.356202 -1.24237 -0.003 0
-0.356201 -1.24237 -0.0029 0
-0.356199 -1.24237 -0.0033 0
-0.356198 -1.24237 -0.0033 0
-0.356197 -1.24237 -0.0033 0
-0.356195 -1.24237 -0.003 0
-0.356195 -1.24237 -0.003 0
-0.356195 -1.24237 -0.0035 0
-0.356194 -1.24237 -0.0035 0
-0.356193 -1.24237 -0.0031 0
-0.356192 -1.24237 -0.0031 0
-0.356192 -1.24237 -0.0031 0
-0.356191 -1.24237 -0.0031 0
-0.35619 -1.24237 -0.0031 0
-0.35619 -1.24237 -0.0031 0
-0.356189 -1.24237 -0.0031 0
-0.356188 -1.24237 -0.0033 0
-0.356186 -1.24237 -0.0033 0
-0.356185 -1.24237 -0.0032 0
-0.356185 -1.24237 -0.0032 0
-0.356184 -1.24237 -0.0032 0
-0.356183 -1.24237 -0.0032 0
-0.356181 -1.24237 -0.0032 0
-0.35618 -1.24237 -0.0033 0
-0.356179 -1.24237 -0.0033 0
-0.356178 -1.24237 -0.003 0
-0.356177 -1.24237 -0.003 0
-0.356176 -1.24237 -0.0029 0
-0.356175 -1.24237 -0.0029 0
-0.356174 -1.24237 -0.0039 0
-0.356172 -1.24237 -0.0039 0
-0.356171 -1.24237 -0.0033 0
-0.35617 -1.24237 -0.0033 0
-0.356168 -1.24237 -0.003 0
-0.356167 -1.24237 -0.003 0
-0.356166 -1.24236 -0.0033 0
-0.356166 -1.24236 -0.0033 0
-0.353609 -1.24084 -0.0027 0
-0.356121 -1.24248 -0.0027 0
-0.356165 -1.24236 -0.0032 0
-0.356165 -1.24236 -0.0032 0
-0.356164 -1.24236 -0.0031 0
-0.356163 -1.24236 -0.0031 0
-0.356162 -1.24236 -0.0031 0
-0.356161 -1.24236 -0.0034 0
-0.356161 -1.24236 -0.0034 0
-0.35616 -1.24236 -0.0032 0
-0.356159 -1.24236 -0.0032 0
-0.356158 -1.24236 -0.003 0
-0.356157 -1.24236 -0.003 0
-0.356155 -1.24236 -0.0033 0
-0.356154 -1.24236 -0.0033 0
-0.356154 -1.24236 -0.003 0
-0.356154 -1.24236 -0.003 0
-0.356153 -1.24236 -0.0034 0
-0.356152 -1.24236 -0.0034 0
-0.356151 -1.24236 -0.0031 0
-0.35615 -1.24236 -0.0033 0
-0.35615 -1.24236 -0.0033 0
-0.356149 -1.24236 -0.0033 0
-0.356149 -1.24236 -0.0028 0
-0.356148 -1.24236 -0.0028 0
-0.356148 -1.24235 -0.0029 0
-0.356148 -1.24235 -0.0034 0
-0.356147 -1.24235 -0.0034 0
-0.353633 -1.24071 -0.0034 0
-0.356143 -1.24235 -0.0033 0
-0.356142 -1.24235 -0.0033 0
-0.356141 -1.24235 -0.0026 0
-0.356141 -1.24235 -0.0026 0
-0.35614 -1.24235 -0.0034 0
-0.356138 -1.24235 -0.0034 0
-0.356137 -1.24235 -0.003 0
-0.356136 -1.24235 -0.003 0
-0.356136 -1.24234 -0.0036 0
-0.356135 -1.24234 -0.0036 0
-0.356135 -1.24234 -0.0036 0
-0.356134 -1.24234 -0.0027 0
-0.356133 -1.24234 -0.0027 0
-0.356131 -1.24234 -0.0033 0
-0.356129 -1.24234 -0.0033 0
-0.356128 -1.24234 -0.0029 0
-0.356126 -1.24234 -0.0029 0
-0.356125 -1.24234 -0.003 0
-0.356124 -1.24234 -0.003 0
-0.356121 -1.24234 -0.0033 0
-0.356119 -1.24234 -0.0033 0
-0.356118 -1.24234 -0.0032 0
-0.356116 -1.24234 -0.0032 0
-0.356115 -1.24234 -0.0033 0
-0.356114 -1.24234 -0.0033 0
-0.356113 -1.24234 -0.003 0
-0.356112 -1.24234 -0.003 0
-0.356112 -1.24234 -0.003 0
-0.356112 -1.24234 -0.0034 0
-0.356111 -1.24234 -0.0034 0
-0.356109 -1.24234 -0.0028 0
-0.356109 -1.24234 -0.0028 0
-0.356108 -1.24234 -0.0034 0
-0.356108 -1.24234 -0.0034 0
-0.356108 -1.24234 -0.0029 0
-0.356107 -1.24234 -0.0029 0
-0.356108 -1.24234 -0.0031 0
-0.356108 -1.24234 -0.0031 0
-0.356108 -1.24234 -0.003 0
-0.356107 -1.24234 -0.003 0
-0.356106 -1.24234 -0.003 0
-0.356106 -1.24234 -0.003 0
-0.356105 -1.24233 -0.003 0
-0.356104 -1.24233 -0.003 0
-0.356103 -1.24233 -0.003 0
-0.3561 -1.24233 -0.003 0
-0.356099 -1.24233 -0.0029 0
-0.356098 -1.24233 -0.0029 0
-0.356097 -1.24233 -0.0029 0
-0.356051 -1.24245 -0.0033 0
-0.35605 -1.24245 -0.0033 0
-0.356049 -1.24245 -0.0033 0
-0.357722 -1.24354 -0.0029 0
-0.356046 -1.24245 -0.0029 0
-0.356045 -1.24244 -0.0029 0
-0.356045 -1.24244 -0.0029 0
-0.356044 -1.24244 -0.0029 0
-0.356043 -1.24244 -0.0029 0
-0.356086 -1.24233 -0.0035 0
-0.356042 -1.24245 -0.0035 0
-0.356042 -1.24244 -0.0035 0
-0.35604 -1.24244 -0.003 0
-0.356081 -1.24233 -0.0036 0
-0.356084 -1.24232 -0.0036 0
-0.356139 -1.24219 -0.0036 0
-0.356374 -1.24157 0.0104 0
-0.356446 -1.24135 0.0469 0
-0.356559 -1.24102 0.0469 0
-0.355786 -1.24022 -0.0029 0
-0.355782 -1.24018 -0.0029 0
-0.35578 -1.24014 0.0324 0
-0.355737 -1.24025 0.0324 0
-0.35571 -1.24041 0.0324 0
-0.355576 -1.2409 0.0025 0
-0.355536 -1.24103 0.0076 0
-0.354696 -1.24051 0.0076 0
-0.354694 -1.24052 0.0076 0
-0.354698 -1.24054 -0.0062 0
-0.354701 -1.24055 -0.0042 0
-0.354659 -1.24067 -0.0042 0
-0.354615 -1.24078 -0.0038 0
-0.353781 -1.24023 -0.0038 0
-0.354536 -1.241 0.0024 0
-0.353657 -1.24056 0.0024 0
-0.35356 -1.2408 0.0089 0
-0.354346 -1.24146 0.0089 0
-0.353499 -1.24092 -0.0017 0
-0.35331 -1.24138 -0.0017 0
-0.35414 -1.24192 0.0038 0
-0.35409 -1.24202 0.0038 0
-0.354091 -1.24201 -0.0013 0
-0.35326 -1.24147 -0.0013 0
-0.353268 -1.24147 -0.0022 0
-0.353276 -1.24148 -0.0022 0
-0.353281 -1.24148 0.0023 0
-0.353283 -1.24148 0.0023 0
-0.353282 -1.24148 -0.0012 0
-0.353282 -1.24148 -0.0012 0
-0.353281 -1.24148 -0.000300002 0
-0.353285 -1.24148 -0.000300002 0
-0.353286 -1.24148 0.0027 0
-0.353287 -1.24148 0.0027 0
-0.353287 -1.24147 0.000299998 0
-0.353286 -1.24147 0.000299998 0
-0.354124 -1.24202 -0.000100002 0
-0.353289 -1.24147 -0.000100002 0
-0.353289 -1.24147 0.0023 0
-0.35329 -1.24147 0.0023 0
-0.353288 -1.24148 0.0023 0
-0.354124 -1.24203 -1.39698e-09 0
-0.353286 -1.24148 -1.39698e-09 0
-0.35329 -1.24148 -0.0027 0
-0.353293 -1.24148 -0.0027 0
-0.353292 -1.24148 0.002 0
-0.353293 -1.24148 0.002 0
-0.353293 -1.24148 0.000299998 0
-0.353291 -1.24147 0.000299998 0
-0.35329 -1.24147 0.000299998 0
-0.353287 -1.24147 0.000399998 0
-0.353286 -1.24147 0.0025 0
-0.353284 -1.24147 0.0025 0
-0.353283 -1.24147 0.0025 0
-0.35328 -1.24147 -0.0034 0
-0.353282 -1.24147 -0.000500002 0
-0.353282 -1.24147 -0.000500002 0
-0.353283 -1.24147 -0.000500002 0
-0.353282 -1.24147 -0.0017 0
-0.35328 -1.24147 -0.0022 0
-0.353279 -1.24147 -0.0022 0
-0.353279 -1.24147 -0.0022 0
-0.353279 -1.24147 0.0022 0
-0.35328 -1.24146 -0.000700002 0
-0.353281 -1.24146 -0.000700002 0
-0.35328 -1.24146 -0.000700002 0
-0.354117 -1.24201 -0.001 0
-0.35328 -1.24146 -0.001 0
-0.353278 -1.24146 0.000399998 0
-0.353278 -1.24146 0.000399998 0
-0.353278 -1.24146 -0.0021 0
-0.353277 -1.24146 -0.0021 0
-0.353277 -1.24146 0.000499998 0
-0.353278 -1.24146 0.000499998 0
-0.353276 -1.24146 0.000799998 0
-0.353275 -1.24146 0.000799998 0
-0.353275 -1.24146 -0.000600002 0
-0.353274 -1.24145 -0.000600002 0
-0.353273 -1.24145 -0.0013 0
-0.353271 -1.24145 -0.0013 0
-0.35327 -1.24146 -0.000800002 0
-0.353273 -1.24146 -0.000800002 0
-0.353275 -1.24146 -0.0021 0
-0.353272 -1.24146 0.000799998 0
-0.353269 -1.24146 0.000799998 0
-0.354099 -1.24201 0.000799998 0
-0.353259 -1.24146 0.0019 0
-0.353258 -1.24146 0.0019 0
-0.353264 -1.24145 0.000299998 0
-0.354101 -1.242 0.000299998 0
-0.353265 -1.24145 -0.0017 0
-0.354097 -1.242 0.0024 0
-0.35326 -1.24145 0.0024 0
-0.353258 -1.24145 0.0024 0
-0.353256 -1.24145 0.0012 0
-0.354091 -1.242 0.0012 0
-0.354089 -1.24199 -0.0024 0
-0.353252 -1.24145 -0.0024 0
-0.353252 -1.24145 0.000999998 0
-0.354088 -1.24199 0.000999998 0
-0.354086 -1.24199 0.000399998 0
-0.351576 -1.24035 0.000399998 0
-0.353248 -1.24145 -0.000200002 0
-0.353247 -1.24145 -0.000200002 0
-0.354082 -1.24199 -0.0023 0
-0.353244 -1.24145 -0.0023 0
-0.353199 -1.24157 -0.003 0
-0.353242 -1.24145 -0.003 0
-0.354079 -1.24199 0.0023 0
-0.353245 -1.24144 0.0023 0
-0.353246 -1.24144 0.0023 0
-0.353251 -1.24144 0.000699998 0
-0.353251 -1.24144 -0.0015 0
-0.353251 -1.24143 -0.0015 0
-0.353246 -1.24144 -0.000100002 0
-0.353246 -1.24144 -0.000100002 0
-0.353244 -1.24144 -0.001 0
-0.353243 -1.24144 -0.001 0
-0.35324 -1.24144 0.0021 0
-0.354077 -1.24198 0.0021 0
-0.35324 -1.24143 -0.002 0
-0.353239 -1.24144 -0.002 0
-0.353239 -1.24144 0.0039 0
-0.353238 -1.24144 0.0039 0
-0.353237 -1.24144 -0.000900002 0
-0.353232 -1.24144 -0.000900002 0
-0.353232 -1.24144 0.000599998 0
-0.353232 -1.24144 0.000599998 0
-0.353231 -1.24144 -0.000800002 0
-0.354067 -1.24198 -0.000800002 0
-0.35323 -1.24144 0.0024 0
-0.353228 -1.24144 0.0024 0
-0.353228 -1.24144 0.0018 0
-0.354062 -1.24199 0.0018 0
-0.210965 -1.14837 0.0018 0
-0.353223 -1.24144 0.0031 0
-0.353221 -1.24144 0.0031 0
-0.35322 -1.24144 0.0016 0
-0.35322 -1.24143 0.0016 0
-0.353219 -1.24143 9.9998e-05 0
-0.353221 -1.24143 9.9998e-05 0
-0.353223 -1.24143 -0.0016 0
-0.351549 -1.24034 -0.0016 0
-0.353222 -1.24143 -0.0016 0
-0.353223 -1.24143 -0.000900002 0
-0.353224 -1.24143 -0.000900002 0
-0.353224 -1.24143 -0.000200002 0
-0.353223 -1.24143 -0.000200002 0
-0.353222 -1.24143 -0.000200002 0
-0.35322 -1.24143 -0.0023 0
-0.353216 -1.24143 -0.0023 0
-0.353213 -1.24143 0.000999998 0
-0.353212 -1.24143 0.000999998 0
-0.353212 -1.24143 0.000999998 0
-0.35321 -1.24143 0.0034 0
-0.353208 -1.24143 0.0034 0
-0.353208 -1.24143 -0.0013 0
-0.353208 -1.24143 -0.0013 0
-0.353209 -1.24142 0.0011 0
-0.353207 -1.24143 0.0011 0
-0.3532 -1.24143 0.000599998 0
-0.318047 -1.21844 0.000599998 0
-0.35319 -1.24144 0.000599998 0
-0.353156 -1.24149 0.000799998 0
-0.353923 -1.24214 0.000799998 0
-0.353 -1.24173 -0.0026 0
-0.35373 -1.24243 -0.0026 0
-0.352753 -1.2421 -0.0026 0
-0.352417 -1.24265 -0.000500002 0
-0.352249 -1.2429 -0.0021 0
-0.352067 -1.24317 -0.0021 0
-0.342679 -1.23743 -0.0021 0
-0.351696 -1.24374 -0.0027 0
-0.349695 -1.24329 -0.0027 0
-0.351113 -1.24483 -0.0023 0
-0.350842 -1.24529 -0.0023 0
-0.35032 -1.24612 -0.000100002 0
-0.34994 -1.24685 -0.000100002 0
-0.349689 -1.24723 -0.0021 0
-0.349379 -1.24775 -0.0021 0
-0.348746 -1.24882 -0.0017 0
-0.34758 -1.24882 -0.0017 0
-0.348081 -1.24994 -0.0031 0
-0.347749 -1.2505 -0.0031 0
-0.346528 -1.25065 -0.0031 0
-0.345685 -1.25221 0.0025 0
-0.345314 -1.25284 0.0013 0
-0.344042 -1.25305 0.0013 0
-0.343635 -1.25372 0.0013 0
-0.341969 -1.25452 0.0014 0
-0.342365 -1.25578 -0.0031 0
-0.341915 -1.2565 -0.0031 0
-0.340668 -1.25656 -0.0031 0
-0.33853 -1.25621 0.0022 0
-0.33931 -1.25863 -2.56114e-09 0
-0.338863 -1.25932 -2.56114e-09 0
-0.338263 -1.26038 -2.56114e-09 0
-0.30543 -1.24139 0.0016 0
-0.304026 -1.2418 0.0048 0
-0.302653 -1.24212 0.0048 0
-0.300551 -1.24381 0.0015 0
-0.299928 -1.24484 0.0015 0
-0.299297 -1.24588 -0.0021 0
-0.298029 -1.24791 -0.0021 0
-0.296578 -1.24831 -0.0016 0
-0.295967 -1.24921 -0.0016 0
-0.295305 -1.25023 -0.000300003 0
-0.29315 -1.25169 -0.000300003 0
-0.291627 -1.25221 0.000499998 0
-0.291789 -1.25376 0.000499998 0
-0.289583 -1.25524 0.0022 0
-0.288868 -1.25632 0.0022 0
-0.287252 -1.25704 0.0019 0
-0.28563 -1.25778 0.0019 0
-0.284048 -1.2603 0.002 0
-0.283208 -1.26166 0.002 0
-0.281473 -1.2626 0.000899997 0
-0.279746 -1.26529 -0.0024 0
-0.278011 -1.26616 -0.0024 0
-0.277139 -1.26748 -0.0024 0
-0.276245 -1.26884 -0.002 0
-0.274543 -1.26954 -0.002 0
-0.273658 -1.27087 -0.0039 0
-0.272783 -1.27215 -0.0039 0
-0.271953 -1.27331 -0.0039 0
-0.27029 -1.27557 0.0017 0
-0.269504 -1.27655 0.0045 0
-0.268705 -1.27757 0.0045 0
-0.267173 -1.27935 0.002 0
