ply
format ascii 1.0
element vertex 1731
property float x
property float y
property float z
property float intensity
end_header
0.3527 0.716069 -0.0041 0
0.3527 0.716069 -0.0041 0
0.3527 0.716068 -0.0034 0
0.352699 0.716066 -0.0034 0
0.3527 0.716066 -0.0041 0
0.3527 0.716063 -0.0041 0
0.3527 0.716062 -0.0045 0
0.3527 0.716061 -0.0045 0
0.3527 0.71606 -0.0041 0
0.3527 0.716058 -0.0041 0
0.3527 0.716058 -0.0039 0
0.352699 0.716058 -0.0039 0
0.352699 0.716058 -0.0042 0
0.3527 0.716055 -0.0042 0
0.352789 0.713055 -0.0044 0
0.352702 0.716053 -0.0044 0
0.352703 0.716052 -0.0038 0
0.352703 0.716051 -0.0038 0
0.352703 0.71605 -0.0038 0
0.352703 0.716049 -0.0041 0
0.352703 0.716048 -0.0041 0
0.352827 0.716024 -0.0039 0
0.352704 0.716047 -0.0039 0
0.352705 0.716047 -0.0041 0
0.35283 0.716023 -0.0041 0
0.352831 0.716022 -0.0039 0
0.352708 0.716044 -0.0039 0
0.352708 0.716043 -0.0039 0
0.352708 0.716043 -0.0035 0
0.352708 0.716042 -0.0035 0
0.352708 0.716042 -0.004 0
0.352831 0.716017 -0.004 0
0.352831 0.716016 -0.004 0
0.352708 0.716038 -0.0042 0
0.352708 0.716037 -0.0042 0
0.352707 0.716035 -0.0038 0
0.352707 0.716034 -0.0038 0
0.352829 0.716009 -0.0044 0
0.352829 0.716008 -0.0044 0
0.352829 0.716008 -0.0044 0
0.352829 0.716007 -0.0035 0
0.352829 0.716006 -0.0035 0
0.352829 0.716005 -0.0039 0
0.35283 0.716004 -0.0039 0
0.352706 0.716027 -0.0037 0
0.352707 0.716026 -0.0037 0
0.352707 0.716026 -0.0037 0
0.352708 0.716025 -0.0043 0
0.352707 0.716023 -0.004 0
0.352708 0.716021 -0.004 0
0.352707 0.71602 -0.004 0
0.352707 0.716019 -0.0042 0
0.352707 0.716018 -0.0042 0
0.35283 0.715994 -0.0042 0
0.352829 0.715993 -0.0041 0
0.352706 0.716015 -0.0037 0
0.352705 0.716014 -0.0037 0
0.352705 0.716013 -0.0032 0
0.352705 0.716011 -0.0032 0
0.352706 0.71601 -0.0032 0
0.352707 0.71601 -0.0045 0
0.352707 0.716009 -0.0045 0
0.352708 0.716009 -0.0044 0
0.352708 0.716009 -0.0044 0
0.352707 0.716008 -0.0031 0
0.352707 0.716007 -0.0031 0
0.352708 0.716007 -0.0043 0
0.352708 0.716007 -0.0043 0
0.352708 0.716005 -0.0043 0
0.352708 0.716004 -0.0039 0
0.352707 0.716002 -0.0039 0
0.352707 0.716 -0.0041 0
0.352706 0.715998 -0.0041 0
0.352705 0.715996 -0.0041 0
0.352705 0.715994 -0.0042 0
0.352704 0.715992 -0.0042 0
0.352703 0.715992 -0.0043 0
0.352702 0.715991 -0.0043 0
0.352702 0.715989 -0.0043 0
0.352703 0.715987 -0.0039 0
0.352702 0.715986 -0.005 0
0.352701 0.715985 -0.005 0
0.352701 0.715984 -0.005 0
0.352701 0.715983 -0.0036 0
0.3527 0.715982 -0.0036 0
0.352823 0.715957 -0.004 0
0.352824 0.715956 -0.004 0
0.352824 0.715956 -0.004 0
0.352824 0.715955 -0.0042 0
0.352825 0.715953 -0.0042 0
0.352826 0.715952 -0.0039 0
0.352825 0.715951 -0.0039 0
0.352825 0.71595 -0.0039 0
0.352824 0.715949 -0.0044 0
0.352823 0.715948 -0.0044 0
0.352823 0.715948 -0.0043 0
0.352822 0.715947 -0.0043 0
0.352822 0.715946 -0.004 0
0.352823 0.715945 -0.004 0
0.3527 0.715968 -0.0044 0
0.3527 0.715968 -0.0044 0
0.352699 0.715967 -0.0044 0
0.352698 0.715965 -0.0038 0
0.352697 0.715965 -0.0038 0
0.352696 0.715964 -0.0038 0
0.352696 0.715963 -0.0038 0
0.352696 0.715961 -0.0038 0
0.352695 0.71596 -0.0042 0
0.352696 0.715959 -0.0042 0
0.352696 0.715958 -0.0043 0
0.352696 0.715958 -0.0043 0
0.35282 0.715934 -0.0042 0
0.352821 0.715933 -0.0042 0
0.352821 0.715932 -0.0042 0
0.352821 0.715931 -0.0041 0
0.352822 0.71593 -0.0041 0
0.352699 0.71595 -0.0036 0
0.352698 0.715949 -0.0036 0
0.352697 0.715947 -0.004 0
0.352821 0.715922 -0.004 0
0.35282 0.71592 -0.0045 0
0.35282 0.715919 -0.0045 0
0.352819 0.715917 -0.0045 0
0.352819 0.715915 -0.0046 0
0.352819 0.715914 -0.0046 0
0.352819 0.715913 -0.004 0
0.352819 0.71591 -0.004 0
0.352819 0.715906 -0.0039 0
0.352818 0.715905 -0.0039 0
0.352818 0.715904 -0.0048 0
0.352817 0.715903 -0.0048 0
0.352817 0.715901 -0.0048 0
0.352816 0.715901 -0.0038 0
0.352816 0.715899 -0.0038 0
0.352815 0.715897 -0.0045 0
0.352691 0.715919 -0.0045 0
0.35269 0.715918 -0.004 0
0.352813 0.715893 -0.004 0
0.352689 0.715916 -0.0044 0
0.352688 0.715914 -0.0044 0
0.352688 0.715913 -0.0044 0
0.352687 0.715912 -0.0042 0
0.352687 0.715912 -0.0042 0
0.352686 0.71591 -0.0039 0
0.352686 0.715909 -0.0039 0
0.352686 0.715907 -0.0044 0
0.352686 0.715906 -0.0044 0
0.352686 0.715905 -0.0039 0
0.352686 0.715903 -0.0039 0
0.352686 0.715901 -0.004 0
0.352686 0.7159 -0.004 0
0.352686 0.715898 -0.004 0
0.352686 0.715897 -0.0043 0
0.352684 0.715896 -0.0043 0
0.352684 0.715895 -0.0042 0
0.352806 0.715869 -0.0041 0
0.35277 0.712893 -0.0041 0
0.352682 0.71589 -0.0041 0
0.352681 0.71589 -0.0041 0
0.352681 0.715888 -0.0041 0
0.35268 0.715887 -0.0039 0
0.35268 0.715885 -0.0039 0
0.35268 0.715885 -0.0039 0
0.35268 0.715883 -0.0046 0
0.35268 0.715881 -0.0044 0
0.352681 0.715881 -0.0044 0
0.35268 0.715879 -0.0044 0
0.35268 0.715878 -0.0035 0
0.35268 0.715877 -0.0035 0
0.35268 0.715876 -0.0046 0
0.35268 0.715875 -0.0046 0
0.35268 0.715875 -0.0043 0
0.35268 0.715875 -0.0043 0
0.35268 0.715874 -0.0043 0
0.35268 0.715874 -0.0034 0
0.352679 0.715874 -0.0034 0
0.352678 0.715874 -0.0043 0
0.352679 0.715872 -0.0043 0
0.352679 0.715872 -0.004 0
0.35268 0.715871 -0.004 0
0.35268 0.71587 -0.0039 0
0.352681 0.715869 -0.0039 0
0.352681 0.71587 -0.0038 0
0.352681 0.71587 -0.0038 0
0.352681 0.715869 -0.0043 0
0.352681 0.715869 -0.0043 0
0.35268 0.715869 -0.004 0
0.352679 0.715868 -0.004 0
0.352679 0.715868 -0.0043 0
0.352707 0.714867 -0.0043 0
0.352678 0.715865 -0.0043 0
0.352678 0.715863 -0.0043 0
0.352677 0.715862 -0.0041 0
0.352677 0.71586 -0.0041 0
0.352676 0.715859 -0.0041 0
0.352676 0.71586 -0.0039 0
0.352676 0.715858 -0.0039 0
0.352675 0.715857 -0.0039 0
0.352675 0.715857 -0.0039 0
0.352675 0.715856 -0.0039 0
0.352675 0.715855 -0.0039 0
0.352674 0.715854 -0.004 0
0.352675 0.715852 -0.004 0
0.352675 0.715851 -0.0041 0
0.352675 0.71585 -0.0041 0
0.352674 0.715849 -0.0041 0
0.352674 0.715847 -0.0045 0
0.352674 0.715846 -0.0045 0
0.352674 0.715845 -0.0039 0
0.352674 0.715844 -0.0039 0
0.352673 0.715842 -0.0043 0
0.352674 0.71584 -0.0043 0
0.352674 0.71584 -0.0037 0
0.352674 0.715839 -0.0037 0
0.352674 0.715838 -0.0037 0
0.352703 0.714837 -0.004 0
0.352673 0.715836 -0.004 0
0.352674 0.715836 -0.0044 0
0.352674 0.715835 -0.0044 0
0.352798 0.71581 -0.0039 0
0.352798 0.715809 -0.0039 0
0.352797 0.715807 -0.0038 0
0.352797 0.715807 -0.0038 0
0.352796 0.715806 -0.0038 0
0.352797 0.715804 -0.0042 0
0.352797 0.715804 -0.0042 0
0.352797 0.715801 -0.0039 0
0.352798 0.715801 -0.0039 0
0.352798 0.7158 -0.0042 0
0.352798 0.715799 -0.0042 0
0.352797 0.715799 -0.0042 0
0.352797 0.715798 -0.0043 0
0.352855 0.713798 -0.0043 0
0.352796 0.715795 -0.0039 0
0.352796 0.715794 -0.0044 0
0.352796 0.715794 -0.0044 0
0.352795 0.715793 -0.0044 0
0.352794 0.715792 -0.0037 0
0.352794 0.71579 -0.0037 0
0.352793 0.715789 -0.0042 0
0.352792 0.715787 -0.0042 0
0.352791 0.715786 -0.0041 0
0.352792 0.715786 -0.0041 0
0.352792 0.715785 -0.0041 0
0.352792 0.715784 -0.0041 0
0.352792 0.715783 -0.0041 0
0.352792 0.715783 -0.0044 0
0.352792 0.715782 -0.0044 0
0.352668 0.715804 -0.0037 0
0.352667 0.715803 -0.0037 0
0.352668 0.715802 -0.0037 0
0.352697 0.714802 -0.0043 0
0.352668 0.715801 -0.0043 0
0.352668 0.7158 -0.003 0
0.352698 0.7148 -0.003 0
0.352669 0.715798 -0.003 0
0.35267 0.715798 -0.0048 0
0.352671 0.715796 -0.0048 0
0.352672 0.715794 -0.0043 0
0.352672 0.715794 -0.0043 0
0.352672 0.715793 -0.0042 0
0.352672 0.715792 -0.0042 0
0.352671 0.715791 -0.0041 0
0.352671 0.715789 -0.0041 0
0.352672 0.715788 -0.0034 0
0.352672 0.715788 -0.0034 0
0.352671 0.715787 -0.0036 0
0.352671 0.715786 -0.0036 0
0.352671 0.715785 -0.0036 0
0.352671 0.715784 -0.0046 0
0.352671 0.715783 -0.0046 0
0.352671 0.715783 -0.0046 0
0.352671 0.715782 -0.0045 0
0.352672 0.715779 -0.0043 0
0.352672 0.715779 -0.0043 0
0.352672 0.715778 -0.0039 0
0.352672 0.715777 -0.0039 0
0.352672 0.715776 -0.0039 0
0.352671 0.715775 -0.0039 0
0.35267 0.715775 -0.0042 0
0.352668 0.715774 -0.0042 0
0.352668 0.715773 -0.0042 0
0.352668 0.715773 -0.0046 0
0.352668 0.715772 -0.0046 0
0.352668 0.715772 -0.0041 0
0.352667 0.715772 -0.0041 0
0.352667 0.715771 -0.0041 0
0.352667 0.71577 -0.004 0
0.352667 0.715768 -0.004 0
0.352667 0.715767 -0.0036 0
0.352667 0.715766 -0.0036 0
0.352667 0.715766 -0.004 0
0.352666 0.715765 -0.004 0
0.352695 0.714765 -0.0038 0
0.352666 0.715763 -0.0038 0
0.352666 0.715762 -0.0038 0
0.352665 0.715761 -0.0042 0
0.352665 0.71576 -0.0042 0
0.352664 0.715759 -0.0038 0
0.352662 0.715758 -0.0038 0
0.352662 0.715758 -0.0037 0
0.352661 0.715758 -0.0037 0
0.35266 0.715757 -0.0041 0
0.352719 0.713758 -0.0041 0
0.35266 0.715756 -0.0041 0
0.35266 0.715756 -0.0042 0
0.35266 0.715754 -0.0042 0
0.352659 0.715752 -0.004 0
0.352658 0.715753 -0.004 0
0.352658 0.715753 -0.0042 0
0.352657 0.715752 -0.0042 0
0.352656 0.715752 -0.0037 0
0.352656 0.71575 -0.0037 0
0.352656 0.71575 -0.0039 0
0.352657 0.715749 -0.0039 0
0.352656 0.715748 -0.0044 0
0.352655 0.715747 -0.0044 0
0.352778 0.715723 -0.004 0
0.352777 0.715723 -0.004 0
0.352864 0.712724 -0.0041 0
0.352654 0.715744 -0.0041 0
0.352653 0.715743 -0.0041 0
0.352777 0.715718 -0.0041 0
0.352777 0.715716 -0.0037 0
0.352777 0.715716 -0.0037 0
0.352778 0.715714 -0.0037 0
0.352778 0.715712 -0.0043 0
0.352778 0.715711 -0.0039 0
0.352778 0.71571 -0.0039 0
0.352779 0.715708 -0.0039 0
0.352779 0.715707 -0.0042 0
0.35278 0.715706 -0.0042 0
0.35278 0.715704 -0.004 0
0.352781 0.715704 -0.004 0
0.352781 0.715701 -0.0041 0
0.352781 0.7157 -0.0041 0
0.352781 0.715699 -0.0039 0
0.352781 0.715698 -0.0039 0
0.352783 0.715696 -0.004 0
0.352783 0.715695 -0.004 0
0.352784 0.715694 -0.0043 0
0.352784 0.715693 -0.0043 0
0.352784 0.715691 -0.0046 0
0.352784 0.715689 -0.0046 0
0.352784 0.715688 -0.0042 0
0.352784 0.715686 -0.0042 0
0.352785 0.715685 -0.004 0
0.352785 0.715685 -0.004 0
0.352785 0.715684 -0.0041 0
0.352662 0.715704 -0.0041 0
0.352662 0.715702 -0.0041 0
0.352662 0.715701 -0.0041 0
0.352662 0.7157 -0.0044 0
0.352662 0.715697 -0.0044 0
0.352662 0.715696 -0.0042 0
0.352662 0.715696 -0.0042 0
0.352662 0.715694 -0.0042 0
0.352662 0.715691 -0.004 0
0.352661 0.71569 -0.0037 0
0.352661 0.715689 -0.0037 0
0.352662 0.715687 -0.004 0
0.352662 0.715686 -0.004 0
0.352663 0.715686 -0.004 0
0.352663 0.715684 -0.004 0
0.352663 0.715684 -0.004 0
0.352663 0.715684 -0.0039 0
0.352664 0.715683 -0.0039 0
0.352663 0.715681 -0.0039 0
0.352663 0.715681 -0.0038 0
0.352786 0.715656 -0.0038 0
0.352662 0.715679 -0.0043 0
0.352662 0.715679 -0.0043 0
0.352662 0.715679 -0.0042 0
0.352662 0.715679 -0.0042 0
0.352662 0.715678 -0.0043 0
0.352786 0.715654 -0.0043 0
0.352786 0.715654 -0.0043 0
0.352786 0.715654 -0.0042 0
0.352662 0.715678 -0.0042 0
0.352662 0.715678 -0.0042 0
0.352661 0.715678 -0.0042 0
0.352661 0.715678 -0.0043 0
0.352785 0.715654 -0.0043 0
0.352785 0.715654 -0.0039 0
0.352785 0.715653 -0.0039 0
0.352785 0.715653 -0.0039 0
0.352787 0.715651 -0.0042 0
0.352817 0.714651 -0.0042 0
0.352788 0.71565 -0.0038 0
0.352788 0.715649 -0.0038 0
0.352788 0.715647 -0.0039 0
0.352788 0.715645 -0.0044 0
0.352788 0.715644 -0.0044 0
0.352667 0.715667 -0.0035 0
0.352668 0.715666 -0.0035 0
0.352668 0.715665 -0.0035 0
0.352667 0.715664 -0.004 0
0.352666 0.715662 -0.0044 0
0.352666 0.715661 -0.0044 0
0.352665 0.71566 -0.0042 0
0.352788 0.715635 -0.0042 0
0.352786 0.715633 -0.0043 0
0.352815 0.714633 -0.0043 0
0.352785 0.715632 -0.0043 0
0.352785 0.715629 -0.0043 0
0.352785 0.715628 -0.0042 0
0.352785 0.715626 -0.0042 0
0.352784 0.715624 -0.0039 0
0.352784 0.715622 -0.0039 0
0.352783 0.715618 -0.004 0
0.352782 0.715616 -0.004 0
0.352781 0.715614 -0.0039 0
0.35278 0.715611 -0.0039 0
0.35278 0.71561 -0.0038 0
0.35278 0.715608 -0.0038 0
0.352779 0.715607 -0.0037 0
0.352779 0.715605 -0.0037 0
0.352778 0.715604 -0.0037 0
0.352654 0.715626 -0.0038 0
0.352652 0.715623 -0.0038 0
0.352652 0.715621 -0.004 0
0.352652 0.715618 -0.004 0
0.352652 0.715616 -0.0041 0
0.352651 0.715615 -0.0041 0
0.352775 0.715588 -0.0042 0
0.352776 0.715587 -0.0042 0
0.352776 0.715585 -0.0039 0
0.352776 0.715584 -0.0039 0
0.352776 0.715583 -0.0033 0
0.352776 0.715581 -0.0033 0
0.352777 0.71558 -0.0041 0
0.352777 0.715579 -0.0041 0
0.352777 0.715579 -0.0042 0
0.352777 0.715579 -0.0042 0
0.352653 0.715601 -0.0038 0
0.352653 0.7156 -0.004 0
0.352654 0.715599 -0.004 0
0.352654 0.715598 -0.004 0
0.352654 0.715596 -0.0043 0
0.352778 0.715572 -0.004 0
0.352777 0.715571 -0.004 0
0.352776 0.71557 -0.004 0
0.352776 0.715569 -0.0042 0
0.352776 0.715568 -0.0042 0
0.352776 0.715567 -0.0042 0
0.352775 0.715565 -0.0042 0
0.352776 0.715565 -0.0042 0
0.352776 0.715564 -0.004 0
0.352776 0.715562 -0.004 0
0.352776 0.715561 -0.004 0
0.352776 0.71556 -0.0039 0
0.352776 0.71556 -0.0039 0
0.352775 0.715559 -0.0039 0
0.352775 0.715558 -0.0042 0
0.352775 0.715558 -0.0042 0
0.352774 0.715556 -0.0042 0
0.352775 0.715555 -0.0042 0
0.352775 0.715551 -0.0039 0
0.352775 0.71555 -0.0039 0
0.352774 0.71555 -0.0043 0
0.352774 0.71555 -0.0043 0
0.352774 0.715549 -0.0035 0
0.352773 0.715548 -0.0035 0
0.352773 0.715547 -0.0035 0
0.352772 0.715547 -0.0038 0
0.352772 0.715546 -0.0038 0
0.352772 0.715546 -0.0039 0
0.352771 0.715545 -0.0039 0
0.352771 0.715543 -0.0043 0
0.35277 0.715542 -0.0043 0
0.35277 0.715542 -0.0043 0
0.352769 0.715541 -0.0041 0
0.352768 0.715541 -0.0041 0
0.352766 0.71554 -0.0041 0
0.352765 0.715538 -0.0041 0
0.352765 0.715538 -0.0039 0
0.352764 0.715537 -0.0039 0
0.352763 0.715535 -0.0038 0
0.352763 0.715535 -0.0038 0
0.352761 0.715534 -0.0043 0
0.35276 0.715533 -0.0043 0
0.352759 0.715532 -0.0041 0
0.352759 0.715531 -0.0041 0
0.352759 0.71553 -0.0041 0
0.352758 0.715529 -0.0041 0
0.352758 0.715528 -0.004 0
0.352632 0.71555 -0.0037 0
0.352632 0.715548 -0.0037 0
0.352631 0.715546 -0.0037 0
0.352954 0.704551 -0.0043 0
0.35263 0.715545 -0.0043 0
0.35263 0.715544 -0.0043 0
0.352629 0.715543 -0.0044 0
0.352629 0.715542 -0.0044 0
0.352628 0.715541 -0.0038 0
0.352628 0.71554 -0.0038 0
0.352628 0.715539 -0.0043 0
0.352628 0.715538 -0.0043 0
0.352628 0.715538 -0.0047 0
0.352628 0.715537 -0.0047 0
0.352628 0.715536 -0.004 0
0.352628 0.715534 -0.004 0
0.352629 0.715532 -0.004 0
0.35263 0.715531 -0.0041 0
0.352631 0.715531 -0.0041 0
0.352633 0.715532 -0.0049 0
0.352634 0.715532 -0.0049 0
0.352634 0.715531 -0.0038 0
0.352634 0.715531 -0.0038 0
0.352634 0.715531 -0.0038 0
0.352634 0.71553 -0.0038 0
0.352757 0.715504 -0.0036 0
0.352757 0.715503 -0.0036 0
0.352756 0.715502 -0.0036 0
0.352757 0.715501 -0.0045 0
0.352757 0.715501 -0.0045 0
0.352757 0.7155 -0.0042 0
0.352757 0.715499 -0.0042 0
0.352633 0.715522 -0.0037 0
0.352632 0.715521 -0.0037 0
0.352632 0.715522 -0.0041 0
0.352631 0.715522 -0.0041 0
0.352632 0.715521 -0.0041 0
0.352632 0.715521 -0.0039 0
0.352633 0.715519 -0.0039 0
0.352633 0.715519 -0.0045 0
0.352757 0.715493 -0.004 0
0.352757 0.715491 -0.004 0
0.352633 0.715513 -0.004 0
0.352634 0.715513 -0.0038 0
0.352634 0.715512 -0.0038 0
0.352634 0.715511 -0.0044 0
0.352634 0.715508 -0.0044 0
0.352635 0.715506 -0.004 0
0.352636 0.715505 -0.004 0
0.352637 0.715503 -0.004 0
0.352637 0.715502 -0.004 0
0.35276 0.715478 -0.004 0
0.352637 0.715501 -0.0046 0
0.352731 0.716477 -0.0046 0
0.352637 0.7155 -0.0046 0
0.352761 0.715476 -0.0045 0
0.352761 0.715475 -0.0045 0
0.352761 0.715473 -0.0043 0
0.352762 0.715472 -0.0039 0
0.35282 0.713472 -0.0039 0
0.352761 0.715471 -0.0039 0
0.352762 0.71547 -0.0039 0
0.352761 0.715469 -0.0039 0
0.352637 0.715491 -0.0039 0
0.352761 0.715467 -0.0041 0
0.352761 0.715466 -0.0042 0
0.352638 0.715489 -0.0042 0
0.352638 0.715488 -0.0042 0
0.352637 0.715487 -0.0038 0
0.352637 0.715483 -0.0044 0
0.352761 0.715457 -0.0044 0
0.352762 0.715457 -0.0036 0
0.352762 0.715456 -0.0036 0
0.352763 0.715455 -0.0036 0
0.352763 0.715454 -0.0048 0
0.352763 0.715452 -0.0048 0
0.352763 0.715451 -0.0042 0
0.352763 0.715448 -0.0042 0
0.352762 0.715447 -0.004 0
0.352762 0.715446 -0.004 0
0.352762 0.715446 -0.0044 0
0.352761 0.715446 -0.0044 0
0.352636 0.715469 -0.0044 0
0.352636 0.715468 -0.0039 0
0.352635 0.715466 -0.0039 0
0.352634 0.715465 -0.004 0
0.352634 0.715464 -0.004 0
0.352634 0.715464 -0.0044 0
0.352634 0.715463 -0.0044 0
0.352635 0.715463 -0.0044 0
0.352635 0.715463 -0.004 0
0.352635 0.715462 -0.0042 0
0.352634 0.715461 -0.0042 0
0.352635 0.715459 -0.0042 0
0.352635 0.715458 -0.0038 0
0.352635 0.715457 -0.0038 0
0.352635 0.715455 -0.0042 0
0.352634 0.715454 -0.0043 0
0.352634 0.715453 -0.0043 0
0.352633 0.715451 -0.0041 0
0.352634 0.71545 -0.0041 0
0.352634 0.715449 -0.004 0
0.352634 0.715446 -0.004 0
0.352634 0.715445 -0.0037 0
0.352634 0.715444 -0.0037 0
0.352634 0.715443 -0.0041 0
0.352634 0.715441 -0.0041 0
0.352634 0.71544 -0.0041 0
0.352634 0.715438 -0.0041 0
0.352634 0.715437 -0.0037 0
0.352635 0.715437 -0.0037 0
0.352635 0.715436 -0.0038 0
0.352635 0.715435 -0.0038 0
0.352635 0.715434 -0.0041 0
0.352634 0.715433 -0.0041 0
0.352635 0.715433 -0.0038 0
0.352635 0.715432 -0.0038 0
0.352634 0.715432 -0.0043 0
0.352634 0.715432 -0.0043 0
0.352634 0.715431 -0.0037 0
0.352633 0.715431 -0.0037 0
0.352633 0.715431 -0.0037 0
0.352633 0.715431 -0.0037 0
0.352634 0.71543 -0.0042 0
0.352634 0.71543 -0.0042 0
0.352634 0.715429 -0.0042 0
0.352634 0.715428 -0.0041 0
0.352634 0.715427 -0.0041 0
0.352635 0.715426 -0.0037 0
0.352635 0.715423 -0.0037 0
0.352635 0.715421 -0.0039 0
0.352636 0.71542 -0.0039 0
0.352636 0.715419 -0.0039 0
0.352636 0.715418 -0.0038 0
0.352636 0.715417 -0.0038 0
0.352636 0.715417 -0.0038 0
0.352636 0.715416 -0.0042 0
0.352725 0.712415 -0.0042 0
0.352638 0.715412 -0.0042 0
0.352638 0.715412 -0.0042 0
0.352638 0.715411 -0.0041 0
0.352638 0.71541 -0.0041 0
0.352638 0.71541 -0.0041 0
0.352638 0.715409 -0.0044 0
0.352638 0.715408 -0.0044 0
0.352639 0.715407 -0.0038 0
0.352639 0.715405 -0.0044 0
0.352639 0.715405 -0.0044 0
0.352639 0.715405 -0.0044 0
0.352639 0.715404 -0.0045 0
0.352639 0.715404 -0.0045 0
0.352639 0.715403 -0.0045 0
0.352638 0.715402 -0.0041 0
0.352638 0.715401 -0.0041 0
0.352638 0.715399 -0.0039 0
0.352638 0.715399 -0.0039 0
0.352638 0.715398 -0.0042 0
0.352638 0.715398 -0.0042 0
0.352638 0.715397 -0.0038 0
0.352637 0.715396 -0.0038 0
0.352637 0.715396 -0.0045 0
0.352637 0.715396 -0.0045 0
0.352637 0.715395 -0.0045 0
0.352638 0.715394 -0.0039 0
0.352638 0.715394 -0.0039 0
0.352638 0.715393 -0.0041 0
0.352637 0.715393 -0.0041 0
0.352637 0.715392 -0.0041 0
0.352637 0.715391 -0.0042 0
0.352637 0.715391 -0.0042 0
0.352638 0.715391 -0.004 0
0.352639 0.71539 -0.004 0
0.352639 0.715389 -0.004 0
0.35264 0.715388 -0.0036 0
0.35264 0.715388 -0.004 0
0.352641 0.715387 -0.004 0
0.352641 0.715386 -0.004 0
0.35273 0.712387 -0.0039 0
0.352643 0.715385 -0.0039 0
0.352643 0.715384 -0.0039 0
0.352644 0.715383 -0.0039 0
0.352644 0.715383 -0.0039 0
0.352644 0.715383 -0.004 0
0.352644 0.715381 -0.004 0
0.352644 0.71538 -0.0037 0
0.352644 0.715378 -0.0037 0
0.352644 0.715378 -0.0035 0
0.352644 0.715377 -0.0035 0
0.352644 0.715378 -0.0038 0
0.352644 0.715378 -0.0038 0
0.352644 0.715377 -0.0038 0
0.352645 0.715375 -0.0041 0
0.352645 0.715373 -0.0038 0
0.352645 0.715372 -0.0038 0
0.352645 0.71537 -0.0038 0
0.352675 0.71437 -0.0041 0
0.352646 0.715369 -0.0041 0
0.352647 0.715368 -0.0039 0
0.352647 0.715368 -0.0039 0
0.352647 0.715368 -0.0041 0
0.352648 0.715367 -0.0041 0
0.352648 0.715367 -0.004 0
0.352647 0.715366 -0.004 0
0.352647 0.715365 -0.004 0
0.352646 0.715364 -0.0038 0
0.352645 0.715364 -0.0045 0
0.352644 0.715363 -0.0045 0
0.352644 0.715361 -0.0045 0
0.352644 0.71536 -0.0039 0
0.352644 0.71536 -0.0039 0
0.352644 0.71536 -0.0044 0
0.352732 0.712361 -0.0044 0
0.352644 0.715359 -0.0044 0
0.352645 0.715358 -0.0041 0
0.352645 0.715356 -0.0041 0
0.352644 0.715355 -0.0041 0
0.352643 0.715353 -0.0042 0
0.352643 0.715351 -0.0039 0
0.352642 0.71535 -0.0039 0
0.352641 0.715348 -0.0043 0
0.35264 0.715347 -0.0043 0
0.35264 0.715346 -0.004 0
0.352639 0.715346 -0.004 0
0.352639 0.715344 -0.0041 0
0.352638 0.715343 -0.0041 0
0.352638 0.715342 -0.0044 0
0.352637 0.715341 -0.0044 0
0.352637 0.71534 -0.004 0
0.352636 0.715339 -0.004 0
0.352635 0.715338 -0.004 0
0.352693 0.713338 -0.0046 0
0.352634 0.715337 -0.0046 0
0.352693 0.713337 -0.0043 0
0.352634 0.715336 -0.0043 0
0.352634 0.715334 -0.004 0
0.352635 0.715333 -0.004 0
0.352635 0.715331 -0.0045 0
0.352634 0.715329 -0.0045 0
0.352634 0.715328 -0.0045 0
0.352757 0.715303 -0.0036 0
0.352757 0.715302 -0.004 0
0.352757 0.715302 -0.004 0
0.352757 0.715302 -0.004 0
0.352633 0.715326 -0.0041 0
0.352633 0.715324 -0.004 0
0.352757 0.715299 -0.004 0
0.352757 0.715298 -0.004 0
0.352635 0.715318 -0.0039 0
0.352637 0.715318 -0.004 0
0.352637 0.715317 -0.004 0
0.351433 0.756299 -0.004 0
0.352638 0.715317 -0.0042 0
0.352668 0.714317 -0.0042 0
0.352638 0.715316 -0.0042 0
0.352637 0.715316 -0.0042 0
0.352761 0.715292 -0.0039 0
0.35276 0.715291 -0.0039 0
0.352759 0.71529 -0.0041 0
0.352759 0.715289 -0.0041 0
0.35276 0.715288 -0.0039 0
0.35276 0.715288 -0.0039 0
0.352761 0.715287 -0.0042 0
0.352761 0.715287 -0.0042 0
0.352761 0.715285 -0.0037 0
0.352761 0.715285 -0.0037 0
0.352761 0.715284 -0.0037 0
0.35276 0.715281 -0.0042 0
0.35276 0.71528 -0.0041 0
0.352759 0.715278 -0.0041 0
0.352759 0.715278 -0.0041 0
0.352758 0.715277 -0.0037 0
0.352758 0.715276 -0.0037 0
0.352758 0.715275 -0.0043 0
0.352758 0.715273 -0.0042 0
0.352759 0.715273 -0.0042 0
0.35276 0.715273 -0.0042 0
0.35276 0.715272 -0.0043 0
0.35276 0.715271 -0.0043 0
0.35276 0.71527 -0.0039 0
0.35276 0.715269 -0.0039 0
0.35276 0.715268 -0.0039 0
0.35276 0.715267 -0.0038 0
0.35276 0.715267 -0.0038 0
0.35276 0.715266 -0.004 0
0.352759 0.715265 -0.004 0
0.352759 0.715263 -0.0039 0
0.352759 0.715263 -0.0039 0
0.352759 0.715262 -0.0037 0
0.352759 0.715261 -0.0037 0
0.35276 0.715262 -0.0037 0
0.352759 0.715261 -0.0043 0
0.35276 0.715261 -0.0043 0
0.352759 0.715258 -0.004 0
0.352759 0.715257 -0.004 0
0.352759 0.715255 -0.0045 0
0.352759 0.715254 -0.0045 0
0.352635 0.715276 -0.0045 0
0.352635 0.715273 -0.0041 0
0.352694 0.713273 -0.0041 0
0.352636 0.71527 -0.0041 0
0.352636 0.715268 -0.0043 0
0.352635 0.715267 -0.0043 0
0.352635 0.715266 -0.0043 0
0.352635 0.715265 -0.004 0
0.352634 0.715263 -0.004 0
0.352634 0.715262 -0.0042 0
0.352757 0.715237 -0.0042 0
0.352634 0.715259 -0.0042 0
0.352692 0.713259 -0.0042 0
0.352757 0.715233 -0.0042 0
0.352633 0.715255 -0.0039 0
0.352633 0.715254 -0.0039 0
0.352632 0.715252 -0.0037 0
0.352632 0.715252 -0.0037 0
0.352632 0.715249 -0.0042 0
0.352632 0.715249 -0.0042 0
0.352632 0.715248 -0.0038 0
0.352631 0.715247 -0.0038 0
0.352754 0.715223 -0.0038 0
0.352689 0.713246 -0.0038 0
0.352631 0.715244 -0.0038 0
0.352631 0.715243 -0.0042 0
0.352755 0.715216 -0.0042 0
0.352755 0.715214 -0.004 0
0.352756 0.715213 -0.004 0
0.352756 0.715212 -0.0041 0
0.352757 0.71521 -0.0041 0
0.352756 0.715209 -0.0041 0
0.352757 0.715208 -0.0036 0
0.352757 0.715207 -0.0036 0
0.352757 0.715206 -0.0041 0
0.352758 0.715206 -0.0041 0
0.352758 0.715206 -0.0044 0
0.352758 0.715205 -0.0044 0
0.352757 0.715204 -0.0037 0
0.352756 0.715203 -0.0037 0
0.352756 0.715203 -0.0045 0
0.352755 0.715204 -0.0045 0
0.352755 0.715205 -0.0041 0
0.352754 0.715205 -0.0041 0
0.352753 0.715205 -0.0045 0
0.352753 0.715204 -0.0045 0
0.352752 0.715203 -0.0039 0
0.352752 0.715201 -0.0043 0
0.352752 0.7152 -0.0043 0
0.352753 0.715199 -0.0043 0
0.352753 0.715197 -0.0043 0
0.352752 0.715194 -0.0043 0
0.352752 0.715192 -0.0036 0
0.352752 0.71519 -0.0036 0
0.352753 0.715189 -0.004 0
0.352752 0.715186 -0.0041 0
0.352752 0.715185 -0.0041 0
0.352752 0.715184 -0.0041 0
0.352753 0.715182 -0.0042 0
0.352752 0.71518 -0.0042 0
0.352752 0.715179 -0.0038 0
0.352751 0.715178 -0.0038 0
0.352749 0.715176 -0.0043 0
0.352749 0.715176 -0.0043 0
0.352749 0.715174 -0.0043 0
0.352749 0.715173 -0.0043 0
0.352748 0.715171 -0.0037 0
0.352748 0.71517 -0.0037 0
0.352747 0.715169 -0.0043 0
0.352747 0.715167 -0.0043 0
0.352747 0.715166 -0.0037 0
0.352747 0.715163 -0.0042 0
0.352747 0.715161 -0.0042 0
0.352747 0.71516 -0.0042 0
0.352746 0.715158 -0.0041 0
0.352746 0.715157 -0.0041 0
0.352745 0.715155 -0.0041 0
0.352744 0.715155 -0.0041 0
0.352744 0.715154 -0.0043 0
0.352743 0.715153 -0.0043 0
0.352742 0.715152 -0.0043 0
0.352742 0.715151 -0.0046 0
0.352742 0.71515 -0.0046 0
0.352742 0.71515 -0.0041 0
0.352742 0.715149 -0.0041 0
0.352741 0.715149 -0.004 0
0.35274 0.715148 -0.004 0
0.35274 0.715146 -0.0045 0
0.352739 0.715144 -0.0045 0
0.352739 0.715142 -0.0042 0
0.352739 0.715138 -0.0042 0
0.352739 0.715138 -0.0045 0
0.35274 0.715137 -0.0045 0
0.35274 0.715137 -0.004 0
0.35274 0.715136 -0.004 0
0.352741 0.715136 -0.004 0
0.352742 0.715134 -0.004 0
0.352742 0.715134 -0.0039 0
0.352742 0.715132 -0.0039 0
0.352741 0.715131 -0.0039 0
0.352741 0.715129 -0.0042 0
0.352741 0.715127 -0.0042 0
0.352741 0.715125 -0.0046 0
0.352741 0.715125 -0.0046 0
0.352741 0.715125 -0.004 0
0.352742 0.715124 -0.004 0
0.352742 0.715124 -0.0041 0
0.352743 0.715123 -0.0041 0
0.352743 0.715122 -0.0041 0
0.352743 0.715122 -0.004 0
0.352743 0.715121 -0.004 0
0.352743 0.715121 -0.004 0
0.352743 0.71512 -0.0033 0
0.352743 0.715118 -0.0037 0
0.352743 0.715116 -0.0037 0
0.352744 0.715115 -0.0038 0
0.352744 0.715114 -0.0038 0
0.352744 0.715113 -0.0038 0
0.352745 0.715111 -0.004 0
0.352746 0.71511 -0.004 0
0.352747 0.715109 -0.0039 0
0.352747 0.715108 -0.0039 0
0.352747 0.715108 -0.0039 0
0.352747 0.715107 -0.0044 0
0.352748 0.715106 -0.0044 0
0.352748 0.715104 -0.0042 0
0.352747 0.715101 -0.0042 0
0.352746 0.7151 -0.0042 0
0.352746 0.715099 -0.0042 0
0.352746 0.715098 -0.0042 0
0.352745 0.715097 -0.0041 0
0.352744 0.715097 -0.0041 0
0.352744 0.715095 -0.0042 0
0.352744 0.715094 -0.0042 0
0.352745 0.715093 -0.0042 0
0.352744 0.715091 -0.0037 0
0.352744 0.71509 -0.0041 0
0.352744 0.715089 -0.0041 0
0.352744 0.715088 -0.0042 0
0.352744 0.715087 -0.0042 0
0.352743 0.715086 -0.0042 0
0.352743 0.715083 -0.0045 0
0.352741 0.71508 -0.0045 0
0.35274 0.715078 -0.004 0
0.352739 0.715077 -0.004 0
0.352738 0.715076 -0.004 0
0.352738 0.715075 -0.004 0
0.352737 0.715074 -0.004 0
0.352735 0.715072 -0.004 0
0.352735 0.71507 -0.0042 0
0.352734 0.715068 -0.0042 0
0.352733 0.715067 -0.0042 0
0.352732 0.715065 -0.0042 0
0.352731 0.715064 -0.0042 0
0.352731 0.715063 -0.0035 0
0.35273 0.715063 -0.0035 0
0.35273 0.715062 -0.0039 0
0.35273 0.715061 -0.0039 0
0.352759 0.714061 -0.0039 0
0.352729 0.715058 -0.0041 0
0.352729 0.715057 -0.0041 0
0.352729 0.715057 -0.0041 0
0.352729 0.715056 -0.0041 0
0.352729 0.715054 -0.0043 0
0.352729 0.715053 -0.0043 0
0.352728 0.715052 -0.0041 0
0.352727 0.71505 -0.0041 0
0.352727 0.715048 -0.0041 0
0.352727 0.715047 -0.0041 0
0.352727 0.715047 -0.0035 0
0.352726 0.715046 -0.0035 0
0.352726 0.715045 -0.0035 0
0.352784 0.713045 -0.0041 0
0.352725 0.715043 -0.0041 0
0.352725 0.715042 -0.004 0
0.352725 0.715041 -0.004 0
0.352724 0.715041 -0.004 0
0.352724 0.715039 -0.0042 0
0.352725 0.715039 -0.0042 0
0.352725 0.715038 -0.0036 0
0.352724 0.715036 -0.0036 0
0.352725 0.715035 -0.0038 0
0.352725 0.715035 -0.0038 0
0.352724 0.715034 -0.0037 0
0.352724 0.715033 -0.0037 0
0.352724 0.715033 -0.0037 0
0.352723 0.715033 -0.0042 0
0.352723 0.715032 -0.0042 0
0.352753 0.714031 -0.0038 0
0.352752 0.71403 -0.0038 0
0.352723 0.715029 -0.0038 0
0.352723 0.715028 -0.0039 0
0.353073 0.703033 -0.0043 0
0.352721 0.715026 -0.0043 0
0.352721 0.715025 -0.0043 0
0.352721 0.715025 -0.0038 0
0.35272 0.715024 -0.0038 0
0.35272 0.715023 -0.0042 0
0.35272 0.715022 -0.0042 0
0.352719 0.715021 -0.004 0
0.352595 0.715045 -0.004 0
0.352594 0.715045 -0.0036 0
0.352594 0.715044 -0.0036 0
0.352594 0.715043 -0.0036 0
0.352594 0.715043 -0.0042 0
0.352594 0.715042 -0.0042 0
0.352594 0.715042 -0.0036 0
0.352595 0.715041 -0.0036 0
0.352595 0.715041 -0.0037 0
0.352594 0.71504 -0.0037 0
0.352594 0.715039 -0.0039 0
0.352594 0.715038 -0.0039 0
0.352718 0.715014 -0.0039 0
0.352718 0.715013 -0.0042 0
0.352718 0.715012 -0.0042 0
0.352717 0.715011 -0.0044 0
0.352592 0.715032 -0.0044 0
0.352592 0.715031 -0.0041 0
0.352716 0.715006 -0.0041 0
0.352716 0.715005 -0.0042 0
0.352804 0.712005 -0.0042 0
0.352715 0.715003 -0.0042 0
0.352714 0.715002 -0.0042 0
0.352713 0.715001 -0.0048 0
0.352712 0.714999 -0.0048 0
0.352712 0.714999 -0.0046 0
0.352711 0.714997 -0.0036 0
0.352711 0.714996 -0.0036 0
0.352711 0.714995 -0.0036 0
0.352712 0.714994 -0.0042 0
0.352712 0.714993 -0.0044 0
0.352713 0.714992 -0.0044 0
0.352713 0.714991 -0.0044 0
0.352713 0.71499 -0.0042 0
0.352713 0.714988 -0.0041 0
0.352713 0.714987 -0.0041 0
0.352714 0.714985 -0.0044 0
0.352715 0.714985 -0.0044 0
0.352715 0.714984 -0.0038 0
0.352716 0.714983 -0.0038 0
0.352717 0.714982 -0.0038 0
0.352718 0.71498 -0.0045 0
0.352718 0.714979 -0.004 0
0.352719 0.714978 -0.004 0
0.352718 0.714978 -0.004 0
0.352595 0.715 -0.0038 0
0.352594 0.714999 -0.0039 0
0.352595 0.714998 -0.0039 0
0.352596 0.714997 -0.0042 0
0.352596 0.714997 -0.0042 0
0.352596 0.714997 -0.0038 0
0.352596 0.714997 -0.0038 0
0.352596 0.714998 -0.0041 0
0.352597 0.714997 -0.004 0
0.352597 0.714997 -0.004 0
0.352597 0.714996 -0.004 0
0.352597 0.714994 -0.004 0
0.352596 0.714992 -0.004 0
0.352596 0.714991 -0.004 0
0.353772 0.675008 -0.004 0
0.352597 0.71499 -0.0039 0
0.352597 0.714989 -0.0039 0
0.352597 0.714989 -0.0043 0
0.352597 0.714987 -0.0043 0
0.352597 0.714986 -0.0043 0
0.352597 0.714985 -0.004 0
0.352597 0.714985 -0.004 0
0.352597 0.714984 -0.0044 0
0.352598 0.714983 -0.0044 0
0.352597 0.714981 -0.0039 0
0.352597 0.71498 -0.0039 0
0.352597 0.714979 -0.0041 0
0.352595 0.714977 -0.0041 0
0.352594 0.714976 -0.0041 0
0.352594 0.714974 -0.0041 0
0.352593 0.714973 -0.004 0
0.352592 0.714971 -0.004 0
0.352592 0.71497 -0.004 0
0.352592 0.714968 -0.004 0
0.352592 0.714967 -0.004 0
0.352593 0.714966 -0.0041 0
0.352593 0.714964 -0.0041 0
0.352594 0.714962 -0.0041 0
0.352595 0.714961 -0.0041 0
0.352596 0.71496 -0.0042 0
0.352596 0.714959 -0.0042 0
0.352595 0.714958 -0.0042 0
0.352595 0.714956 -0.0035 0
0.352594 0.714956 -0.0035 0
0.352594 0.714955 -0.0043 0
0.352594 0.714954 -0.0043 0
0.352594 0.714954 -0.0043 0
0.352594 0.714953 -0.0038 0
0.352594 0.714953 -0.0038 0
0.352594 0.714952 -0.0039 0
0.352596 0.714948 -0.0039 0
0.352597 0.714946 -0.0039 0
0.352597 0.714944 -0.0039 0
0.352598 0.714942 -0.0043 0
0.352599 0.71494 -0.0043 0
0.352599 0.714939 -0.0043 0
0.352599 0.714937 -0.0041 0
0.352599 0.714936 -0.0036 0
0.352599 0.714934 -0.0036 0
0.3526 0.714933 -0.004 0
0.3526 0.714932 -0.004 0
0.352601 0.714932 -0.004 0
0.352601 0.714931 -0.004 0
0.352601 0.714931 -0.0039 0
0.35269 0.711931 -0.0039 0
0.352602 0.71493 -0.0044 0
0.352601 0.714927 -0.0044 0
0.352601 0.714926 -0.0039 0
0.352601 0.714926 -0.0039 0
0.35266 0.712926 -0.0043 0
0.352601 0.714923 -0.0043 0
0.352601 0.714923 -0.0042 0
0.352601 0.714922 -0.0042 0
0.352601 0.714921 -0.0034 0
0.352602 0.71492 -0.0034 0
0.352601 0.714919 -0.004 0
0.352601 0.714918 -0.004 0
0.352724 0.714892 -0.0041 0
0.352723 0.714889 -0.0041 0
0.352722 0.714888 -0.0043 0
0.352722 0.714887 -0.0043 0
0.352722 0.714886 -0.0043 0
0.352598 0.714908 -0.0043 0
0.352597 0.714904 -0.0039 0
0.352596 0.714904 -0.0039 0
0.352596 0.714903 -0.0042 0
0.352595 0.7149 -0.0042 0
0.352683 0.7119 -0.0041 0
0.352595 0.714898 -0.0041 0
0.352595 0.714897 -0.004 0
0.352596 0.714896 -0.004 0
0.352596 0.714896 -0.004 0
0.35295 0.702901 -0.0041 0
0.352597 0.714895 -0.0041 0
0.352721 0.714871 -0.0042 0
0.35272 0.71487 -0.0042 0
0.352597 0.714893 -0.0042 0
0.352596 0.714892 -0.0039 0
0.352596 0.71489 -0.0039 0
0.352596 0.71489 -0.0039 0
0.352596 0.714889 -0.0039 0
0.352596 0.714888 -0.0042 0
0.352595 0.714887 -0.0042 0
0.352595 0.714885 -0.0037 0
0.352594 0.714884 -0.0037 0
0.352594 0.714883 -0.0038 0
0.352593 0.714883 -0.0038 0
0.352592 0.714881 -0.004 0
0.352592 0.71488 -0.004 0
0.352592 0.714879 -0.0035 0
0.352592 0.714878 -0.0035 0
0.352716 0.714852 -0.0041 0
0.352715 0.71485 -0.0041 0
0.352716 0.714849 -0.0041 0
0.352716 0.714848 -0.0041 0
0.352593 0.71487 -0.0037 0
0.352717 0.714845 -0.0037 0
0.352717 0.714844 -0.0042 0
0.352717 0.714843 -0.0042 0
0.352717 0.714841 -0.0042 0
0.352594 0.714863 -0.0042 0
0.352593 0.714862 -0.0039 0
0.352594 0.71486 -0.0042 0
0.352593 0.714858 -0.0042 0
0.352593 0.714857 -0.0042 0
0.352593 0.714855 -0.0037 0
0.352594 0.714854 -0.004 0
0.352594 0.714853 -0.004 0
0.352594 0.714852 -0.004 0
0.352593 0.71485 -0.0043 0
0.352593 0.71485 -0.004 0
0.352593 0.714849 -0.004 0
0.352596 0.714848 -0.004 0
0.352719 0.714824 -0.004 0
0.352718 0.714821 -0.0041 0
0.352719 0.71482 -0.0041 0
0.352719 0.714818 -0.0044 0
0.352719 0.714817 -0.0038 0
0.352718 0.714816 -0.0038 0
0.352718 0.714815 -0.0038 0
0.352718 0.714814 -0.0043 0
0.352719 0.714813 -0.0043 0
0.352719 0.714812 -0.004 0
0.35272 0.714809 -0.004 0
0.35272 0.714807 -0.0045 0
0.35272 0.714806 -0.0045 0
0.352719 0.714803 -0.0041 0
0.352595 0.714825 -0.0041 0
0.352595 0.714824 -0.0041 0
0.352595 0.714822 -0.0039 0
0.352595 0.714821 -0.0038 0
0.352594 0.714821 -0.0038 0
0.352594 0.71482 -0.0038 0
0.352594 0.714817 -0.0039 0
0.352593 0.714815 -0.0046 0
0.352593 0.714813 -0.0046 0
0.352593 0.714812 -0.0046 0
0.352592 0.714812 -0.0044 0
0.352591 0.714811 -0.0042 0
0.352592 0.71481 -0.0042 0
0.352592 0.71481 -0.0042 0
0.352592 0.71481 -0.0037 0
0.352593 0.714808 -0.0036 0
0.352594 0.714807 -0.0036 0
0.352594 0.714807 -0.0036 0
0.352594 0.714807 -0.0038 0
0.352594 0.714806 -0.0041 0
0.352594 0.714806 -0.0041 0
0.352594 0.714805 -0.0041 0
0.352592 0.714804 -0.0046 0
0.352592 0.714803 -0.0041 0
0.352591 0.714801 -0.0041 0
0.352712 0.714777 -0.0039 0
0.352712 0.714776 -0.0039 0
0.352712 0.714775 -0.0037 0
0.352712 0.714774 -0.0037 0
0.352711 0.714773 -0.0042 0
0.352711 0.714772 -0.0042 0
0.35271 0.714771 -0.0036 0
0.35271 0.714771 -0.0036 0
0.35271 0.714769 -0.0043 0
0.352769 0.712768 -0.0043 0
0.35271 0.714766 -0.0043 0
0.352711 0.714765 -0.0043 0
0.352711 0.714762 -0.0035 0
0.352711 0.714762 -0.0035 0
0.352712 0.714762 -0.0037 0
0.352712 0.714761 -0.0037 0
0.352587 0.714783 -0.0043 0
0.352588 0.714782 -0.0043 0
0.352588 0.714781 -0.0045 0
0.352588 0.714781 -0.0045 0
0.352588 0.71478 -0.0045 0
0.352588 0.71478 -0.0041 0
0.352588 0.714779 -0.0041 0
0.352588 0.714779 -0.0044 0
0.352588 0.714777 -0.0044 0
0.352588 0.714776 -0.0046 0
0.352588 0.714775 -0.0046 0
0.352588 0.714774 -0.0041 0
0.352589 0.714773 -0.0041 0
0.352713 0.714748 -0.0041 0
0.35259 0.714769 -0.004 0
0.35259 0.714768 -0.0045 0
0.35259 0.714768 -0.0045 0
0.35259 0.714767 -0.0045 0
0.352591 0.714767 -0.0041 0
0.352591 0.714766 -0.0041 0
0.352591 0.714765 -0.0044 0
0.35259 0.714764 -0.0044 0
0.35259 0.714763 -0.0044 0
0.352713 0.714737 -0.0043 0
0.352713 0.714737 -0.004 0
0.352713 0.714736 -0.004 0
0.352713 0.714734 -0.004 0
0.352712 0.714733 -0.0043 0
0.352711 0.71473 -0.0038 0
0.35271 0.714729 -0.0038 0
0.35271 0.714728 -0.0038 0
0.352711 0.714728 -0.0039 0
0.352711 0.714727 -0.0039 0
0.352711 0.714726 -0.0043 0
0.352711 0.714725 -0.0043 0
0.352711 0.714724 -0.0043 0
0.352711 0.714723 -0.0041 0
0.352711 0.714722 -0.0041 0
0.35271 0.714721 -0.0041 0
0.352798 0.711722 -0.0041 0
0.35271 0.71472 -0.0041 0
0.35271 0.71472 -0.0039 0
0.35271 0.714719 -0.0039 0
0.352709 0.714717 -0.0043 0
0.352708 0.714714 -0.0043 0
0.352765 0.712713 -0.0039 0
0.352706 0.714711 -0.0039 0
0.352706 0.714709 -0.0041 0
0.352705 0.714708 -0.0041 0
0.352704 0.714706 -0.0039 0
0.352704 0.714706 -0.0039 0
0.352704 0.714705 -0.0041 0
0.352703 0.714704 -0.0041 0
0.352932 0.702732 -0.0041 0
0.352579 0.714725 -0.0041 0
0.352579 0.714724 -0.0045 0
0.352579 0.714723 -0.0045 0
0.352578 0.714722 -0.0042 0
0.352578 0.714722 -0.0042 0
0.352701 0.714697 -0.0038 0
0.352701 0.714696 -0.0038 0
0.352577 0.714719 -0.0047 0
0.352576 0.714717 -0.0047 0
0.352576 0.714715 -0.0034 0
0.352575 0.714713 -0.0034 0
0.352575 0.714712 -0.0039 0
0.352575 0.714711 -0.0041 0
0.352575 0.71471 -0.0041 0
0.352576 0.714709 -0.0041 0
0.352577 0.714707 -0.004 0
0.352577 0.714706 -0.0038 0
0.352576 0.714705 -0.0038 0
0.352576 0.714704 -0.0038 0
0.352577 0.714702 -0.004 0
0.352576 0.714701 -0.0036 0
0.352576 0.7147 -0.0036 0
0.352699 0.714675 -0.0036 0
0.352699 0.714674 -0.0044 0
0.352575 0.714696 -0.0044 0
0.352574 0.714695 -0.0038 0
0.352543 0.715693 -0.0038 0
0.352696 0.714668 -0.0038 0
0.352696 0.714667 -0.0041 0
0.352695 0.714665 -0.0043 0
0.352696 0.714664 -0.0043 0
0.352696 0.714662 -0.0043 0
0.352696 0.714661 -0.004 0
0.352696 0.71466 -0.004 0
0.352697 0.714656 -0.0043 0
0.352697 0.714655 -0.0043 0
0.352698 0.714655 -0.004 0
0.352698 0.714655 -0.004 0
0.352698 0.714655 -0.0045 0
0.352699 0.714655 -0.0045 0
0.352699 0.714654 -0.0045 0
0.352699 0.714653 -0.0037 0
0.3527 0.714653 -0.0037 0
0.352699 0.714652 -0.0037 0
0.3527 0.714652 -0.0042 0
0.3527 0.714651 -0.0042 0
0.352701 0.714647 -0.0039 0
0.352702 0.714646 -0.0039 0
0.352702 0.714645 -0.0041 0
0.352732 0.713644 -0.004 0
0.352702 0.714643 -0.004 0
0.352701 0.714642 -0.004 0
0.352701 0.714641 -0.0044 0
0.352701 0.71464 -0.0044 0
0.3527 0.714639 -0.004 0
0.3527 0.714638 -0.004 0
0.3527 0.714638 -0.004 0
0.3527 0.714637 -0.0039 0
0.352701 0.714633 -0.0039 0
0.3527 0.714631 -0.0039 0
0.352701 0.714629 -0.0039 0
0.352701 0.714627 -0.0037 0
0.352702 0.714627 -0.0037 0
0.352703 0.714627 -0.0042 0
0.352703 0.714626 -0.0042 0
0.352703 0.714625 -0.0036 0
0.352702 0.714625 -0.0036 0
0.352702 0.714624 -0.0037 0
0.352703 0.714625 -0.0037 0
0.352703 0.714624 -0.0037 0
0.352703 0.714622 -0.0047 0
0.352704 0.714621 -0.0036 0
0.352733 0.71362 -0.0036 0
0.352704 0.714618 -0.0036 0
0.352704 0.714617 -0.0042 0
0.352704 0.714616 -0.0042 0
0.352703 0.714613 -0.0037 0
0.352703 0.714612 -0.0037 0
0.352762 0.712611 -0.0037 0
0.352703 0.714608 -0.0037 0
0.352703 0.714608 -0.0037 0
0.352733 0.713606 -0.0037 0
0.352703 0.714604 -0.0037 0
0.352703 0.714602 -0.0041 0
0.352703 0.714601 -0.0044 0
0.351505 0.755583 -0.0044 0
0.352702 0.714601 -0.0044 0
0.352702 0.714602 -0.0038 0
0.352701 0.714601 -0.0038 0
0.352702 0.7146 -0.0039 0
0.352702 0.7146 -0.0039 0
0.352702 0.7146 -0.0039 0
0.352702 0.714597 -0.004 0
0.352702 0.714596 -0.0043 0
0.352702 0.714595 -0.0043 0
0.352702 0.714594 -0.0043 0
0.352701 0.714594 -0.0039 0
0.352701 0.714593 -0.0039 0
0.352701 0.714592 -0.004 0
0.352576 0.714614 -0.004 0
0.352577 0.714613 -0.0043 0
0.352577 0.714612 -0.0043 0
0.351372 0.755592 -0.0045 0
0.352576 0.714608 -0.0045 0
0.352576 0.714607 -0.0039 0
0.352576 0.714606 -0.0039 0
0.352576 0.714604 -0.004 0
0.352576 0.714603 -0.004 0
0.352575 0.714602 -0.0045 0
0.352635 0.712602 -0.0045 0
0.352574 0.7146 -0.0038 0
0.352573 0.714599 -0.0038 0
0.352573 0.714599 -0.0039 0
0.352697 0.714574 -0.0039 0
0.352698 0.714573 -0.0048 0
0.352698 0.714572 -0.0048 0
0.352698 0.714571 -0.0048 0
0.352698 0.71457 -0.0045 0
0.352697 0.714569 -0.0045 0
0.352697 0.714568 -0.0039 0
0.352696 0.714567 -0.0039 0
0.352695 0.714566 -0.0038 0
0.352694 0.714565 -0.0038 0
0.352694 0.714565 -0.0042 0
0.352693 0.714564 -0.0042 0
0.352693 0.714563 -0.0042 0
0.352693 0.714562 -0.0035 0
0.352691 0.714561 -0.0035 0
0.352719 0.71356 -0.0039 0
0.352689 0.714558 -0.0039 0
0.352689 0.714557 -0.0048 0
0.352688 0.714557 -0.0048 0
0.352687 0.714556 -0.0033 0
0.352686 0.714556 -0.0033 0
0.352685 0.714554 -0.0039 0
0.352686 0.714553 -0.0039 0
0.352686 0.714552 -0.0044 0
0.352685 0.714551 -0.0044 0
0.352685 0.714548 -0.0039 0
0.352685 0.714546 -0.0039 0
0.352684 0.714546 -0.0034 0
0.352684 0.714546 -0.0034 0
0.352559 0.714567 -0.0038 0
0.352683 0.714542 -0.0038 0
0.352683 0.714541 -0.0047 0
0.352559 0.714564 -0.0047 0
0.352561 0.714562 -0.0037 0
0.352561 0.714562 -0.0037 0
0.352561 0.714562 -0.0039 0
0.352562 0.714561 -0.0039 0
0.352649 0.711561 -0.004 0
0.352561 0.714559 -0.004 0
0.352562 0.714558 -0.0039 0
0.352592 0.713558 -0.0039 0
0.352563 0.714556 -0.0039 0
0.352563 0.714556 -0.0042 0
0.352565 0.714555 -0.0042 0
0.352565 0.714556 -0.0038 0
0.352566 0.714555 -0.0038 0
0.352566 0.714555 -0.0038 0
0.352566 0.714554 -0.0038 0
0.352567 0.714553 -0.0042 0
0.352567 0.714551 -0.0042 0
0.352567 0.714549 -0.0042 0
0.352691 0.714524 -0.0037 0
0.352691 0.714524 -0.0037 0
0.352692 0.714522 -0.0039 0
0.352692 0.71452 -0.0039 0
0.352693 0.714519 -0.0043 0
0.352722 0.713519 -0.0043 0
0.352693 0.714517 -0.0044 0
0.352693 0.714517 -0.0044 0
0.352693 0.714516 -0.0044 0
0.352693 0.714515 -0.0042 0
0.352693 0.714514 -0.0042 0
0.352692 0.714513 -0.0042 0
0.352691 0.714512 -0.0042 0
0.352691 0.714511 -0.0042 0
0.352691 0.714512 -0.0042 0
0.35269 0.714511 -0.004 0
0.35269 0.714511 -0.004 0
0.352689 0.71451 -0.004 0
0.352688 0.714509 -0.0044 0
0.352688 0.714508 -0.0037 0
0.352688 0.714508 -0.0037 0
0.352687 0.714508 -0.0037 0
0.352562 0.714531 -0.0044 0
0.352562 0.714532 -0.0037 0
0.352562 0.714532 -0.0037 0
0.352562 0.714531 -0.0037 0
0.352562 0.71453 -0.0042 0
0.352562 0.714529 -0.0039 0
0.352685 0.714505 -0.0039 0
0.352685 0.714505 -0.0039 0
0.35256 0.714528 -0.0041 0
0.35256 0.714528 -0.0042 0
0.352559 0.714527 -0.0042 0
0.35256 0.714526 -0.004 0
0.35256 0.714525 -0.004 0
0.352683 0.7145 -0.0042 0
0.352683 0.7145 -0.0042 0
0.352682 0.714499 -0.0039 0
0.352681 0.714498 -0.0039 0
0.352556 0.714521 -0.0036 0
0.352679 0.714497 -0.0036 0
0.352678 0.714497 -0.0042 0
0.352677 0.714497 -0.0042 0
0.352677 0.714496 -0.0042 0
0.352676 0.714495 -0.0042 0
0.352676 0.714493 -0.0042 0
0.352763 0.711493 -0.0042 0
0.352676 0.714491 -0.0042 0
0.352677 0.714491 -0.0038 0
0.352679 0.714489 -0.0038 0
0.352679 0.714488 -0.0045 0
0.352679 0.714487 -0.0045 0
0.352679 0.714486 -0.0034 0
0.352679 0.714485 -0.0034 0
0.352678 0.714483 -0.004 0
0.352678 0.714483 -0.004 0
0.352678 0.714482 -0.0046 0
0.352678 0.714482 -0.0046 0
0.352677 0.714481 -0.0046 0
0.352678 0.714479 -0.0036 0
0.352678 0.714478 -0.0044 0
0.352678 0.714478 -0.0044 0
0.352678 0.714477 -0.0044 0
0.352677 0.714477 -0.0043 0
0.352553 0.7145 -0.0043 0
0.352552 0.714498 -0.0039 0
0.352552 0.714496 -0.0039 0
0.352552 0.714494 -0.0039 0
0.352552 0.714493 -0.0042 0
0.352552 0.714491 -0.0038 0
0.352552 0.714491 -0.0038 0
0.352552 0.714489 -0.0038 0
0.352551 0.714488 -0.004 0
0.352552 0.714486 -0.004 0
0.352551 0.714485 -0.0039 0
0.352552 0.714483 -0.0039 0
0.352551 0.714482 -0.004 0
0.352551 0.714481 -0.004 0
0.352551 0.71448 -0.0043 0
0.352551 0.714479 -0.0043 0
0.352551 0.714478 -0.0043 0
0.352639 0.711478 -0.0037 0
0.352551 0.714476 -0.0037 0
0.352551 0.714475 -0.0041 0
0.352551 0.714474 -0.0041 0
0.352551 0.714473 -0.0043 0
0.35255 0.714472 -0.0043 0
0.352551 0.714471 -0.0041 0
0.352551 0.714469 -0.0041 0
0.352551 0.714468 -0.0041 0
0.352675 0.714445 -0.0044 0
0.352705 0.713444 -0.0036 0
0.352676 0.714442 -0.0036 0
0.352676 0.71444 -0.0036 0
0.352676 0.714439 -0.0044 0
0.352676 0.714437 -0.0044 0
0.352675 0.714436 -0.004 0
0.352675 0.714434 -0.004 0
0.35255 0.714457 -0.004 0
0.352551 0.714456 -0.0043 0
0.352675 0.714432 -0.0042 0
0.352676 0.714431 -0.0042 0
0.352676 0.71443 -0.0042 0
0.352676 0.714429 -0.0039 0
0.352676 0.714429 -0.0039 0
0.352764 0.711429 -0.0041 0
0.352676 0.714425 -0.0041 0
0.352676 0.714423 -0.0042 0
0.352676 0.714422 -0.0042 0
0.352676 0.714421 -0.0039 0
0.352675 0.71442 -0.0039 0
0.352674 0.71442 -0.0045 0
0.352675 0.714418 -0.0045 0
0.352675 0.714417 -0.0039 0
0.352675 0.714415 -0.0039 0
0.352676 0.714413 -0.0039 0
0.352675 0.714412 -0.0038 0
0.352674 0.714411 -0.0042 0
0.352673 0.714409 -0.0042 0
0.352672 0.714409 -0.0042 0
0.352672 0.714407 -0.0039 0
0.352672 0.714407 -0.0039 0
0.352672 0.714407 -0.0044 0
0.352671 0.714406 -0.0044 0
0.352672 0.714405 -0.004 0
0.352672 0.714404 -0.004 0
0.352671 0.714404 -0.004 0
0.35267 0.714404 -0.004 0
0.35267 0.714403 -0.004 0
0.35267 0.714402 -0.004 0
0.352669 0.714402 -0.004 0
0.352668 0.714401 -0.0042 0
0.352667 0.7144 -0.0042 0
0.352667 0.714399 -0.0041 0
0.352667 0.714398 -0.0041 0
0.352666 0.714398 -0.0041 0
0.352666 0.714397 -0.0041 0
0.352665 0.714395 -0.0041 0
0.352665 0.714394 -0.0042 0
0.352664 0.714393 -0.0042 0
0.352664 0.714392 -0.0039 0
0.352664 0.714391 -0.0039 0
0.352663 0.71439 -0.0038 0
0.352663 0.714389 -0.0038 0
0.352663 0.714388 -0.0048 0
0.352662 0.714386 -0.0048 0
0.352662 0.714385 -0.0042 0
0.352662 0.714384 -0.0042 0
0.352661 0.714382 -0.0039 0
0.352661 0.714381 -0.0039 0
0.352662 0.71438 -0.0042 0
0.352662 0.714379 -0.0042 0
0.352627 0.711404 -0.0036 0
0.352539 0.714402 -0.0036 0
0.352662 0.714378 -0.0041 0
0.352663 0.714378 -0.0041 0
0.352663 0.714376 -0.004 0
0.352662 0.714375 -0.004 0
0.352662 0.714374 -0.004 0
0.352662 0.714373 -0.0043 0
0.352662 0.714373 -0.0043 0
0.352663 0.714372 -0.0041 0
0.352663 0.714371 -0.0041 0
0.352663 0.71437 -0.0039 0
0.352662 0.714369 -0.0039 0
0.352662 0.714367 -0.0042 0
0.352661 0.714366 -0.0042 0
0.352661 0.714366 -0.0039 0
0.352661 0.714365 -0.0039 0
0.352661 0.714364 -0.0043 0
0.352661 0.714363 -0.0043 0
0.35266 0.714363 -0.004 0
0.35266 0.714362 -0.0042 0
0.35266 0.714361 -0.0042 0
0.35266 0.714361 -0.0042 0
0.35266 0.71436 -0.0037 0
0.35266 0.71436 -0.0037 0
0.352661 0.714359 -0.0038 0
0.352662 0.714358 -0.0043 0
0.352662 0.714358 -0.0043 0
0.352749 0.711357 -0.0043 0
0.352661 0.714352 -0.0042 0
0.352661 0.714351 -0.0042 0
0.352661 0.71435 -0.0035 0
0.352662 0.71435 -0.0035 0
0.352662 0.714349 -0.0043 0
0.352662 0.714346 -0.0043 0
0.352663 0.714345 -0.0039 0
0.352662 0.714344 -0.0039 0
0.352663 0.714343 -0.0045 0
0.352663 0.714343 -0.0045 0
0.352663 0.714342 -0.0045 0
0.352662 0.714341 -0.0036 0
0.352663 0.71434 -0.0036 0
0.352662 0.714338 -0.0042 0
0.352662 0.714337 -0.0042 0
0.352661 0.714335 -0.0038 0
0.352661 0.714333 -0.0038 0
0.352661 0.714332 -0.0039 0
0.352661 0.71433 -0.0039 0
0.352659 0.714328 -0.0042 0
0.352658 0.714326 -0.0042 0
0.352657 0.714326 -0.0041 0
0.352657 0.714324 -0.0041 0
0.352656 0.714323 -0.0042 0
0.352656 0.714322 -0.0042 0
0.352656 0.714321 -0.0039 0
0.352655 0.71432 -0.0039 0
0.352654 0.71432 -0.0039 0
0.352654 0.71432 -0.0043 0
0.352654 0.71432 -0.0043 0
0.352654 0.714317 -0.0037 0
0.352654 0.714317 -0.0037 0
0.352654 0.714317 -0.0043 0
0.352654 0.714316 -0.0043 0
0.352654 0.714316 -0.0038 0
0.352654 0.714316 -0.0038 0
0.352654 0.714316 -0.004 0
0.352654 0.714316 -0.004 0
0.352654 0.714316 -0.0039 0
0.352654 0.714315 -0.0039 0
0.352654 0.714314 -0.0039 0
0.352655 0.714313 -0.0039 0
0.352656 0.714311 -0.0039 0
0.352656 0.71431 -0.0039 0
0.352657 0.714308 -0.0039 0
0.352656 0.714306 -0.0039 0
0.352656 0.714304 -0.0038 0
0.352656 0.714303 -0.0038 0
0.352655 0.714302 -0.0038 0
0.352531 0.714324 -0.0042 0
0.352531 0.714323 -0.0042 0
0.352531 0.714322 -0.0042 0
0.352472 0.716319 -0.0038 0
0.35253 0.714319 -0.0038 0
0.35253 0.714318 -0.0038 0
0.35253 0.714318 -0.0038 0
0.35253 0.714318 -0.0038 0
0.352529 0.714316 -0.0038 0
0.352652 0.714292 -0.0044 0
0.352528 0.714316 -0.0044 0
0.352529 0.714315 -0.0044 0
0.352528 0.714314 -0.0039 0
0.352648 0.714288 -0.0045 0
0.352655 0.714287 -0.0045 0
0.3528 0.714263 -0.0045 0
0.353446 0.714143 0.0095 0
0.353671 0.71409 0.046 0
0.354015 0.714012 0.046 0
0.354295 0.712934 -0.0038 0
0.354327 0.71291 -0.0038 0
0.354358 0.71289 0.0315 0
0.354238 0.712912 0.0315 0
0.354092 0.71297 0.0315 0
0.353607 0.713109 0.0016 0
0.35347 0.713146 0.0067 0
0.35348 0.712155 0.0067 0
0.353466 0.712162 0.0067 0
0.353452 0.712175 -0.0071 0
0.353449 0.71218 -0.0051 0
0.353325 0.712208 -0.0051 0
0.353202 0.712231 -0.0047 0
0.353237 0.711232 -0.0047 0
0.352973 0.712278 0.0015 0
0.352889 0.711298 0.0015 0
0.352639 0.711339 0.008 0
0.352482 0.712355 0.008 0
0.352506 0.711349 -0.0026 0
0.352012 0.711429 -0.0026 0
0.351986 0.712417 0.0029 0
0.35187 0.71243 0.0029 0
0.35188 0.712425 -0.0022 0
0.35191 0.711433 -0.0022 0
0.351909 0.711443 -0.0031 0
0.35191 0.711452 -0.0031 0
0.351911 0.711456 0.0014 0
0.351908 0.71146 0.0014 0
0.351908 0.71146 -0.0021 0
0.351909 0.711459 -0.0021 0
0.35191 0.711458 -0.0012 0
0.351913 0.71146 -0.0012 0
0.351915 0.711461 0.0018 0
0.351916 0.711461 0.0018 0
0.351919 0.711459 -0.000599997 0
0.35192 0.711457 -0.000599997 0
0.35189 0.712458 -0.000999997 0
0.351922 0.711459 -0.000999997 0
0.351921 0.71146 0.0014 0
0.35192 0.711461 0.0014 0
0.351917 0.711461 0.0014 0
0.351884 0.712461 -0.000899997 0
0.351912 0.711462 -0.000899997 0
0.351914 0.711465 -0.0036 0
0.351916 0.711468 -0.0036 0
0.351914 0.711468 0.0011 0
0.351917 0.711467 0.0011 0
0.351919 0.711465 -0.000599997 0
0.35192 0.711462 -0.000599997 0
