ply
format ascii 1.0
element vertex 1671
property float x
property float y
property float z
property float intensity
end_header
-0.357565 -1.24315 -0.0057 0
-0.357565 -1.24315 -0.0057 0
-0.357564 -1.24315 -0.0063 0
-0.357562 -1.24315 -0.006 0
-0.357561 -1.24315 -0.006 0
-0.35756 -1.24314 -0.006 0
-0.357559 -1.24314 -0.0062 0
-0.357558 -1.24314 -0.0062 0
-0.357601 -1.24303 -0.0062 0
-0.357601 -1.24303 -0.0061 0
-0.357555 -1.24314 -0.0057 0
-0.357553 -1.24314 -0.0057 0
-0.357553 -1.24314 -0.0052 0
-0.357551 -1.24314 -0.0052 0
-0.357551 -1.24314 -0.0052 0
-0.357551 -1.24314 -0.0065 0
-0.35755 -1.24314 -0.0065 0
-0.35755 -1.24314 -0.0064 0
-0.35755 -1.24314 -0.0064 0
-0.357549 -1.24314 -0.0051 0
-0.357549 -1.24314 -0.0051 0
-0.357549 -1.24314 -0.0063 0
-0.357549 -1.24314 -0.0063 0
-0.357547 -1.24314 -0.0063 0
-0.357546 -1.24314 -0.0059 0
-0.357544 -1.24314 -0.0059 0
-0.357542 -1.24313 -0.0061 0
-0.357541 -1.24313 -0.0061 0
-0.357539 -1.24313 -0.0061 0
-0.357536 -1.24313 -0.0062 0
-0.357534 -1.24313 -0.0062 0
-0.357533 -1.24313 -0.0063 0
-0.357532 -1.24313 -0.0063 0
-0.357531 -1.24313 -0.0063 0
-0.357529 -1.24313 -0.0059 0
-0.357528 -1.24313 -0.007 0
-0.357527 -1.24313 -0.007 0
-0.357526 -1.24313 -0.007 0
-0.357525 -1.24313 -0.0056 0
-0.357523 -1.24313 -0.0056 0
-0.357566 -1.24301 -0.006 0
-0.357566 -1.24301 -0.006 0
-0.357566 -1.24301 -0.006 0
-0.357565 -1.24301 -0.0062 0
-0.357564 -1.24301 -0.0062 0
-0.357563 -1.24301 -0.0059 0
-0.357563 -1.24301 -0.0059 0
-0.357561 -1.24301 -0.0059 0
-0.35756 -1.24301 -0.0064 0
-0.357559 -1.24301 -0.0064 0
-0.357559 -1.24301 -0.0063 0
-0.357557 -1.24301 -0.0063 0
-0.357557 -1.24301 -0.006 0
-0.357556 -1.24301 -0.006 0
-0.357512 -1.24312 -0.0064 0
-0.357511 -1.24312 -0.0064 0
-0.35751 -1.24312 -0.0064 0
-0.357508 -1.24312 -0.0058 0
-0.357507 -1.24312 -0.0058 0
-0.357506 -1.24312 -0.0058 0
-0.357505 -1.24312 -0.0058 0
-0.357503 -1.24312 -0.0058 0
-0.357502 -1.24312 -0.0062 0
-0.357502 -1.24312 -0.0062 0
-0.357501 -1.24312 -0.0063 0
-0.357501 -1.24312 -0.0063 0
-0.357545 -1.243 -0.0062 0
-0.357545 -1.243 -0.0062 0
-0.357544 -1.243 -0.0062 0
-0.357543 -1.243 -0.0061 0
-0.357543 -1.243 -0.0061 0
-0.357496 -1.24312 -0.0056 0
-0.357494 -1.24312 -0.0056 0
-0.357492 -1.24312 -0.006 0
-0.357535 -1.243 -0.006 0
-0.357534 -1.243 -0.0065 0
-0.357532 -1.243 -0.0065 0
-0.35753 -1.243 -0.0065 0
-0.357529 -1.24299 -0.0066 0
-0.357528 -1.24299 -0.0066 0
-0.357526 -1.24299 -0.006 0
-0.357525 -1.24299 -0.006 0
-0.357521 -1.24299 -0.0059 0
-0.35752 -1.24299 -0.0059 0
-0.357518 -1.24299 -0.0068 0
-0.357517 -1.24299 -0.0068 0
-0.357516 -1.24299 -0.0068 0
-0.357515 -1.24299 -0.0058 0
-0.357513 -1.24299 -0.0058 0
-0.357511 -1.24299 -0.0065 0
-0.357465 -1.24311 -0.0065 0
-0.357464 -1.24311 -0.006 0
-0.357507 -1.24299 -0.006 0
-0.357461 -1.24311 -0.0064 0
-0.35746 -1.24311 -0.0064 0
-0.357459 -1.24311 -0.0064 0
-0.357458 -1.24311 -0.0062 0
-0.357457 -1.24311 -0.0062 0
-0.357455 -1.24311 -0.0059 0
-0.357454 -1.2431 -0.0059 0
-0.357452 -1.2431 -0.0064 0
-0.357452 -1.2431 -0.0064 0
-0.35745 -1.2431 -0.0059 0
-0.357449 -1.2431 -0.0059 0
-0.357447 -1.2431 -0.006 0
-0.357446 -1.2431 -0.006 0
-0.357445 -1.2431 -0.006 0
-0.357444 -1.2431 -0.0063 0
-0.357442 -1.2431 -0.0063 0
-0.357441 -1.2431 -0.0062 0
-0.357483 -1.24298 -0.0061 0
-0.354925 -1.24146 -0.0061 0
-0.357436 -1.2431 -0.0061 0
-0.357435 -1.2431 -0.0061 0
-0.357434 -1.2431 -0.0061 0
-0.357432 -1.2431 -0.0059 0
-0.357431 -1.2431 -0.0059 0
-0.35743 -1.2431 -0.0059 0
-0.357429 -1.2431 -0.0066 0
-0.357428 -1.2431 -0.0064 0
-0.357427 -1.24309 -0.0064 0
-0.357426 -1.24309 -0.0064 0
-0.357425 -1.24309 -0.0055 0
-0.357423 -1.24309 -0.0055 0
-0.357423 -1.24309 -0.0066 0
-0.357422 -1.24309 -0.0066 0
-0.357422 -1.24309 -0.0063 0
-0.357422 -1.24309 -0.0063 0
-0.357421 -1.24309 -0.0063 0
-0.357421 -1.24309 -0.0054 0
-0.35742 -1.24309 -0.0054 0
-0.35742 -1.24309 -0.0063 0
-0.357419 -1.24309 -0.0063 0
-0.357419 -1.24309 -0.006 0
-0.357418 -1.24309 -0.006 0
-0.357418 -1.24309 -0.0059 0
-0.357418 -1.24309 -0.0059 0
-0.357418 -1.24309 -0.0058 0
-0.357418 -1.24309 -0.0058 0
-0.357418 -1.24309 -0.0063 0
-0.357417 -1.24309 -0.0063 0
-0.357417 -1.24309 -0.006 0
-0.357416 -1.24309 -0.006 0
-0.357415 -1.24309 -0.0063 0
-0.356576 -1.24254 -0.0063 0
-0.357412 -1.24309 -0.0063 0
-0.35741 -1.24309 -0.0063 0
-0.357409 -1.24309 -0.0061 0
-0.357408 -1.24309 -0.0061 0
-0.357407 -1.24309 -0.0061 0
-0.357407 -1.24309 -0.0059 0
-0.357405 -1.24309 -0.0059 0
-0.357404 -1.24309 -0.0059 0
-0.357404 -1.24309 -0.0059 0
-0.357403 -1.24309 -0.0059 0
-0.357402 -1.24309 -0.0059 0
-0.357401 -1.24309 -0.006 0
-0.3574 -1.24309 -0.006 0
-0.357399 -1.24308 -0.0061 0
-0.357398 -1.24308 -0.0061 0
-0.357396 -1.24308 -0.0061 0
-0.357395 -1.24308 -0.0065 0
-0.357394 -1.24308 -0.0065 0
-0.357393 -1.24308 -0.0059 0
-0.357392 -1.24308 -0.0059 0
-0.35739 -1.24308 -0.0063 0
-0.357389 -1.24308 -0.0063 0
-0.357389 -1.24308 -0.0057 0
-0.357388 -1.24308 -0.0057 0
-0.357387 -1.24308 -0.0057 0
-0.356549 -1.24253 -0.006 0
-0.357385 -1.24308 -0.006 0
-0.357385 -1.24308 -0.0064 0
-0.357384 -1.24308 -0.0064 0
-0.357428 -1.24296 -0.0059 0
-0.357427 -1.24296 -0.0059 0
-0.357425 -1.24296 -0.0058 0
-0.357425 -1.24296 -0.0058 0
-0.357423 -1.24296 -0.0058 0
-0.357423 -1.24296 -0.0062 0
-0.357422 -1.24296 -0.0062 0
-0.35742 -1.24295 -0.0059 0
-0.35742 -1.24295 -0.0059 0
-0.35742 -1.24295 -0.0062 0
-0.357419 -1.24295 -0.0062 0
-0.357418 -1.24295 -0.0062 0
-0.357417 -1.24295 -0.0063 0
-0.355741 -1.24186 -0.0063 0
-0.357414 -1.24295 -0.0059 0
-0.357413 -1.24295 -0.0064 0
-0.357413 -1.24295 -0.0064 0
-0.357412 -1.24295 -0.0064 0
-0.357411 -1.24295 -0.0057 0
-0.357409 -1.24295 -0.0057 0
-0.357408 -1.24295 -0.0062 0
-0.357405 -1.24295 -0.0062 0
-0.357404 -1.24295 -0.0061 0
-0.357405 -1.24295 -0.0061 0
-0.357404 -1.24295 -0.0061 0
-0.357403 -1.24295 -0.0061 0
-0.357402 -1.24295 -0.0061 0
-0.357402 -1.24295 -0.0064 0
-0.3574 -1.24295 -0.0064 0
-0.357355 -1.24307 -0.0057 0
-0.357354 -1.24307 -0.0057 0
-0.357353 -1.24306 -0.0057 0
-0.356516 -1.24252 -0.0063 0
-0.357352 -1.24306 -0.0063 0
-0.357352 -1.24306 -0.005 0
-0.356514 -1.24252 -0.005 0
-0.357351 -1.24306 -0.005 0
-0.357351 -1.24306 -0.0068 0
-0.35735 -1.24306 -0.0068 0
-0.357349 -1.24306 -0.0063 0
-0.357348 -1.24306 -0.0063 0
-0.357348 -1.24306 -0.0062 0
-0.357347 -1.24306 -0.0062 0
-0.357346 -1.24306 -0.0061 0
-0.357344 -1.24305 -0.0061 0
-0.357343 -1.24305 -0.0054 0
-0.357343 -1.24305 -0.0054 0
-0.357342 -1.24305 -0.0056 0
-0.357341 -1.24305 -0.0056 0
-0.35734 -1.24305 -0.0056 0
-0.35734 -1.24305 -0.0066 0
-0.357339 -1.24305 -0.0066 0
-0.357339 -1.24305 -0.0066 0
-0.357338 -1.24305 -0.0065 0
-0.357336 -1.24305 -0.0063 0
-0.357336 -1.24305 -0.0063 0
-0.357335 -1.24305 -0.0059 0
-0.357334 -1.24305 -0.0059 0
-0.357333 -1.24305 -0.0059 0
-0.357332 -1.24305 -0.0059 0
-0.357331 -1.24305 -0.0062 0
-0.35733 -1.24305 -0.0062 0
-0.357329 -1.24305 -0.0062 0
-0.357328 -1.24305 -0.0066 0
-0.357328 -1.24305 -0.0066 0
-0.357328 -1.24305 -0.0061 0
-0.357327 -1.24305 -0.0061 0
-0.357326 -1.24305 -0.0061 0
-0.357325 -1.24305 -0.006 0
-0.357323 -1.24305 -0.006 0
-0.357322 -1.24305 -0.0056 0
-0.357322 -1.24305 -0.0056 0
-0.357322 -1.24305 -0.006 0
-0.357321 -1.24305 -0.006 0
-0.356483 -1.2425 -0.0058 0
-0.357319 -1.24305 -0.0058 0
-0.357318 -1.24305 -0.0058 0
-0.357317 -1.24305 -0.0062 0
-0.357316 -1.24305 -0.0062 0
-0.357315 -1.24305 -0.0058 0
-0.357313 -1.24305 -0.0058 0
-0.357313 -1.24305 -0.0057 0
-0.357312 -1.24305 -0.0057 0
-0.357311 -1.24305 -0.0061 0
-0.355636 -1.24195 -0.0061 0
-0.35731 -1.24305 -0.0061 0
-0.35731 -1.24305 -0.0062 0
-0.357308 -1.24305 -0.0062 0
-0.357306 -1.24305 -0.006 0
-0.357306 -1.24305 -0.006 0
-0.357306 -1.24305 -0.0062 0
-0.357305 -1.24305 -0.0062 0
-0.357304 -1.24305 -0.0057 0
-0.357303 -1.24305 -0.0057 0
-0.357303 -1.24305 -0.0059 0
-0.357302 -1.24305 -0.0059 0
-0.357301 -1.24305 -0.0064 0
-0.3573 -1.24305 -0.0064 0
-0.357344 -1.24293 -0.006 0
-0.357343 -1.24293 -0.006 0
-0.35483 -1.24129 -0.0061 0
-0.357296 -1.24305 -0.0061 0
-0.357295 -1.24305 -0.0061 0
-0.357339 -1.24293 -0.0061 0
-0.357337 -1.24293 -0.0057 0
-0.357337 -1.24293 -0.0057 0
-0.357336 -1.24293 -0.0057 0
-0.357334 -1.24292 -0.0063 0
-0.357333 -1.24292 -0.0059 0
-0.357332 -1.24292 -0.0059 0
-0.357331 -1.24292 -0.0059 0
-0.35733 -1.24292 -0.0062 0
-0.35733 -1.24292 -0.0062 0
-0.357329 -1.24292 -0.006 0
-0.357328 -1.24292 -0.006 0
-0.357326 -1.24292 -0.0061 0
-0.357325 -1.24292 -0.0061 0
-0.357325 -1.24291 -0.0059 0
-0.357324 -1.24291 -0.0059 0
-0.357323 -1.24291 -0.006 0
-0.357322 -1.24291 -0.006 0
-0.357322 -1.24291 -0.0063 0
-0.357321 -1.24291 -0.0063 0
-0.357319 -1.24291 -0.0066 0
-0.357317 -1.24291 -0.0066 0
-0.357317 -1.24291 -0.0062 0
-0.357315 -1.2429 -0.0062 0
-0.357314 -1.2429 -0.006 0
-0.357314 -1.2429 -0.006 0
-0.357314 -1.2429 -0.0061 0
-0.357267 -1.24302 -0.0061 0
-0.357265 -1.24302 -0.0061 0
-0.357264 -1.24302 -0.0061 0
-0.357263 -1.24302 -0.0064 0
-0.357261 -1.24301 -0.0064 0
-0.35726 -1.24301 -0.0062 0
-0.357259 -1.24301 -0.0062 0
-0.357258 -1.24301 -0.0062 0
-0.357255 -1.24301 -0.006 0
-0.357255 -1.24301 -0.0057 0
-0.357253 -1.24301 -0.0057 0
-0.357252 -1.24301 -0.006 0
-0.357251 -1.24301 -0.006 0
-0.357251 -1.24301 -0.006 0
-0.35725 -1.24301 -0.006 0
-0.35725 -1.24301 -0.006 0
-0.35725 -1.24301 -0.0059 0
-0.35725 -1.24301 -0.0059 0
-0.357248 -1.24301 -0.0059 0
-0.357247 -1.24301 -0.0058 0
-0.35729 -1.24289 -0.0058 0
-0.357245 -1.24301 -0.0063 0
-0.357245 -1.24301 -0.0063 0
-0.357245 -1.24301 -0.0062 0
-0.357245 -1.24301 -0.0062 0
-0.357245 -1.243 -0.0063 0
-0.357289 -1.24289 -0.0063 0
-0.357289 -1.24289 -0.0063 0
-0.357289 -1.24289 -0.0062 0
-0.357244 -1.243 -0.0062 0
-0.357244 -1.24301 -0.0062 0
-0.357244 -1.24301 -0.0062 0
-0.357244 -1.24301 -0.0063 0
-0.357288 -1.24289 -0.0063 0
-0.357288 -1.24289 -0.0059 0
-0.357287 -1.24289 -0.0059 0
-0.357287 -1.24289 -0.0059 0
-0.357287 -1.24288 -0.0062 0
-0.356449 -1.24234 -0.0062 0
-0.357286 -1.24288 -0.0058 0
-0.357285 -1.24288 -0.0058 0
-0.357283 -1.24288 -0.0059 0
-0.357282 -1.24288 -0.0064 0
-0.357282 -1.24288 -0.0064 0
-0.357238 -1.243 -0.0055 0
-0.357237 -1.24299 -0.0055 0
-0.357237 -1.24299 -0.0055 0
-0.357235 -1.24299 -0.006 0
-0.357233 -1.24299 -0.0064 0
-0.357232 -1.24299 -0.0064 0
-0.357231 -1.24299 -0.0062 0
-0.357274 -1.24288 -0.0062 0
-0.357271 -1.24288 -0.0063 0
-0.356433 -1.24233 -0.0063 0
-0.35727 -1.24288 -0.0063 0
-0.357267 -1.24287 -0.0063 0
-0.357266 -1.24287 -0.0062 0
-0.357264 -1.24287 -0.0062 0
-0.357262 -1.24287 -0.0059 0
-0.35726 -1.24287 -0.0059 0
-0.357256 -1.24287 -0.006 0
-0.357254 -1.24287 -0.006 0
-0.357252 -1.24287 -0.0059 0
-0.357249 -1.24287 -0.0059 0
-0.357248 -1.24287 -0.0058 0
-0.357246 -1.24287 -0.0058 0
-0.357245 -1.24287 -0.0057 0
-0.357243 -1.24287 -0.0057 0
-0.357242 -1.24287 -0.0057 0
-0.357196 -1.24298 -0.0058 0
-0.357192 -1.24298 -0.0058 0
-0.357191 -1.24298 -0.006 0
-0.357188 -1.24298 -0.006 0
-0.357186 -1.24298 -0.0061 0
-0.357185 -1.24298 -0.0061 0
-0.357226 -1.24286 -0.0062 0
-0.357226 -1.24286 -0.0062 0
-0.357225 -1.24286 -0.0059 0
-0.357223 -1.24286 -0.0059 0
-0.357222 -1.24286 -0.0053 0
-0.357222 -1.24286 -0.0053 0
-0.357221 -1.24286 -0.0061 0
-0.35722 -1.24286 -0.0061 0
-0.357219 -1.24286 -0.0062 0
-0.357219 -1.24286 -0.0062 0
-0.357174 -1.24297 -0.0058 0
-0.357173 -1.24297 -0.006 0
-0.357173 -1.24297 -0.006 0
-0.357172 -1.24297 -0.006 0
-0.35717 -1.24297 -0.0063 0
-0.357214 -1.24285 -0.006 0
-0.357213 -1.24285 -0.006 0
-0.357212 -1.24285 -0.006 0
-0.357211 -1.24285 -0.0062 0
-0.35721 -1.24285 -0.0062 0
-0.357209 -1.24285 -0.0062 0
-0.357207 -1.24285 -0.0062 0
-0.357207 -1.24285 -0.0062 0
-0.357206 -1.24285 -0.006 0
-0.357205 -1.24285 -0.006 0
-0.357204 -1.24285 -0.006 0
-0.357203 -1.24285 -0.0059 0
-0.357203 -1.24285 -0.0059 0
-0.357202 -1.24285 -0.0059 0
-0.357201 -1.24285 -0.0062 0
-0.3572 -1.24285 -0.0062 0
-0.357199 -1.24285 -0.0062 0
-0.357198 -1.24284 -0.0062 0
-0.357195 -1.24284 -0.0059 0
-0.357194 -1.24284 -0.0059 0
-0.357194 -1.24284 -0.0063 0
-0.357193 -1.24284 -0.0063 0
-0.357193 -1.24284 -0.0055 0
-0.357192 -1.24284 -0.0055 0
-0.357191 -1.24284 -0.0055 0
-0.35719 -1.24284 -0.0058 0
-0.35719 -1.24284 -0.0058 0
-0.357189 -1.24284 -0.0059 0
-0.357188 -1.24284 -0.0059 0
-0.357186 -1.24284 -0.0063 0
-0.357185 -1.24284 -0.0063 0
-0.357184 -1.24284 -0.0063 0
-0.357184 -1.24284 -0.0061 0
-0.357183 -1.24284 -0.0061 0
-0.357181 -1.24284 -0.0061 0
-0.357179 -1.24284 -0.0061 0
-0.357178 -1.24284 -0.0059 0
-0.357177 -1.24284 -0.0059 0
-0.357176 -1.24284 -0.0058 0
-0.357175 -1.24284 -0.0058 0
-0.357173 -1.24285 -0.0063 0
-0.357172 -1.24285 -0.0063 0
-0.35717 -1.24285 -0.0061 0
-0.35717 -1.24285 -0.0061 0
-0.357168 -1.24285 -0.0061 0
-0.357167 -1.24285 -0.0061 0
-0.357167 -1.24284 -0.006 0
-0.35712 -1.24296 -0.0057 0
-0.357118 -1.24296 -0.0057 0
-0.357116 -1.24296 -0.0057 0
-0.347904 -1.23695 -0.0063 0
-0.357114 -1.24296 -0.0063 0
-0.357114 -1.24296 -0.0063 0
-0.357112 -1.24296 -0.0064 0
-0.357111 -1.24296 -0.0064 0
-0.35711 -1.24296 -0.0058 0
-0.357109 -1.24296 -0.0058 0
-0.357108 -1.24296 -0.0063 0
-0.357108 -1.24296 -0.0063 0
-0.357108 -1.24296 -0.0067 0
-0.357107 -1.24296 -0.0067 0
-0.357106 -1.24296 -0.006 0
-0.357104 -1.24296 -0.006 0
-0.357103 -1.24296 -0.006 0
-0.357102 -1.24296 -0.0061 0
-0.357103 -1.24295 -0.0061 0
-0.357105 -1.24295 -0.0069 0
-0.357105 -1.24295 -0.0069 0
-0.357104 -1.24295 -0.0058 0
-0.357104 -1.24295 -0.0058 0
-0.357104 -1.24295 -0.0058 0
-0.357103 -1.24295 -0.0058 0
-0.357145 -1.24283 -0.0056 0
-0.357145 -1.24283 -0.0056 0
-0.357144 -1.24283 -0.0056 0
-0.357143 -1.24283 -0.0065 0
-0.357143 -1.24283 -0.0065 0
-0.357142 -1.24283 -0.0062 0
-0.357141 -1.24283 -0.0062 0
-0.357096 -1.24295 -0.0057 0
-0.357095 -1.24295 -0.0057 0
-0.357095 -1.24295 -0.0061 0
-0.357095 -1.24295 -0.0061 0
-0.357095 -1.24295 -0.0061 0
-0.357095 -1.24295 -0.0059 0
-0.357094 -1.24295 -0.0059 0
-0.357093 -1.24295 -0.0065 0
-0.357136 -1.24283 -0.006 0
-0.357135 -1.24283 -0.006 0
-0.357089 -1.24294 -0.006 0
-0.357089 -1.24294 -0.0058 0
-0.357088 -1.24294 -0.0058 0
-0.357087 -1.24294 -0.0064 0
-0.357085 -1.24294 -0.0064 0
-0.357084 -1.24294 -0.006 0
-0.357083 -1.24294 -0.006 0
-0.357082 -1.24294 -0.006 0
-0.357081 -1.24293 -0.006 0
-0.357125 -1.24282 -0.006 0
-0.357081 -1.24293 -0.0066 0
-0.357962 -1.24336 -0.0066 0
-0.35708 -1.24293 -0.0066 0
-0.357124 -1.24282 -0.0065 0
-0.357123 -1.24281 -0.0065 0
-0.357121 -1.24281 -0.0063 0
-0.357121 -1.24281 -0.0059 0
-0.355445 -1.24172 -0.0059 0
-0.357119 -1.24281 -0.0059 0
-0.357119 -1.24281 -0.0059 0
-0.357117 -1.24281 -0.0059 0
-0.357072 -1.24293 -0.0059 0
-0.357116 -1.24281 -0.0061 0
-0.357116 -1.24281 -0.0062 0
-0.35707 -1.24293 -0.0062 0
-0.357069 -1.24293 -0.0062 0
-0.357068 -1.24293 -0.0058 0
-0.357065 -1.24292 -0.0064 0
-0.357108 -1.24281 -0.0064 0
-0.357107 -1.2428 -0.0056 0
-0.357107 -1.2428 -0.0056 0
-0.357107 -1.2428 -0.0056 0
-0.357106 -1.2428 -0.0068 0
-0.357105 -1.2428 -0.0068 0
-0.357104 -1.2428 -0.0062 0
-0.3571 -1.2428 -0.0062 0
-0.357099 -1.2428 -0.006 0
-0.357099 -1.2428 -0.006 0
-0.357099 -1.2428 -0.0064 0
-0.357098 -1.2428 -0.0064 0
-0.357053 -1.24292 -0.0064 0
-0.357052 -1.24292 -0.0059 0
-0.357049 -1.24292 -0.0059 0
-0.357048 -1.24292 -0.006 0
-0.357047 -1.24292 -0.006 0
-0.357047 -1.24292 -0.0064 0
-0.357047 -1.24292 -0.0064 0
-0.357047 -1.24292 -0.0064 0
-0.357047 -1.24292 -0.006 0
-0.357046 -1.24292 -0.0062 0
-0.357045 -1.24292 -0.0062 0
-0.357044 -1.24291 -0.0062 0
-0.357043 -1.24291 -0.0058 0
-0.357042 -1.24291 -0.0058 0
-0.35704 -1.24291 -0.0062 0
-0.357039 -1.24291 -0.0063 0
-0.357037 -1.24291 -0.0063 0
-0.357036 -1.24291 -0.0061 0
-0.357035 -1.24291 -0.0061 0
-0.357034 -1.24291 -0.006 0
-0.357032 -1.24291 -0.006 0
-0.357031 -1.24291 -0.0057 0
-0.35703 -1.24291 -0.0057 0
-0.35703 -1.24291 -0.0061 0
-0.357028 -1.24291 -0.0061 0
-0.357027 -1.2429 -0.0061 0
-0.357026 -1.2429 -0.0061 0
-0.357025 -1.2429 -0.0057 0
-0.357024 -1.2429 -0.0057 0
-0.357024 -1.2429 -0.0058 0
-0.357023 -1.2429 -0.0058 0
-0.357022 -1.2429 -0.0061 0
-0.357021 -1.2429 -0.0061 0
-0.357021 -1.2429 -0.0058 0
-0.357021 -1.2429 -0.0058 0
-0.35702 -1.2429 -0.0063 0
-0.35702 -1.2429 -0.0063 0
-0.357019 -1.2429 -0.0057 0
-0.357019 -1.2429 -0.0057 0
-0.357018 -1.2429 -0.0057 0
-0.357018 -1.2429 -0.0057 0
-0.357018 -1.2429 -0.0062 0
-0.357018 -1.2429 -0.0062 0
-0.357017 -1.2429 -0.0062 0
-0.357017 -1.2429 -0.0061 0
-0.357016 -1.2429 -0.0061 0
-0.357015 -1.2429 -0.0057 0
-0.357012 -1.2429 -0.0057 0
-0.357011 -1.24289 -0.0059 0
-0.357011 -1.24289 -0.0059 0
-0.35701 -1.24289 -0.0059 0
-0.357009 -1.24289 -0.0058 0
-0.357009 -1.24289 -0.0058 0
-0.357008 -1.24289 -0.0058 0
-0.357007 -1.24289 -0.0062 0
-0.354493 -1.24125 -0.0062 0
-0.357005 -1.24289 -0.0062 0
-0.357005 -1.24289 -0.0062 0
-0.357004 -1.24289 -0.0061 0
-0.357003 -1.24289 -0.0061 0
-0.357003 -1.24289 -0.0061 0
-0.357003 -1.24288 -0.0064 0
-0.357001 -1.24288 -0.0064 0
-0.357001 -1.24288 -0.0058 0
-0.357 -1.24288 -0.0064 0
-0.356999 -1.24288 -0.0064 0
-0.356999 -1.24288 -0.0064 0
-0.356999 -1.24288 -0.0065 0
-0.356998 -1.24288 -0.0065 0
-0.356998 -1.24288 -0.0065 0
-0.356997 -1.24288 -0.0061 0
-0.356996 -1.24288 -0.0061 0
-0.356994 -1.24288 -0.0059 0
-0.356993 -1.24288 -0.0059 0
-0.356993 -1.24288 -0.0062 0
-0.356993 -1.24288 -0.0062 0
-0.356992 -1.24288 -0.0058 0
-0.356991 -1.24288 -0.0058 0
-0.356991 -1.24288 -0.0065 0
-0.35699 -1.24288 -0.0065 0
-0.35699 -1.24288 -0.0065 0
-0.356989 -1.24288 -0.0059 0
-0.356989 -1.24288 -0.0059 0
-0.356989 -1.24288 -0.0061 0
-0.356989 -1.24288 -0.0061 0
-0.356988 -1.24288 -0.0061 0
-0.356987 -1.24288 -0.0062 0
-0.356987 -1.24288 -0.0062 0
-0.356987 -1.24288 -0.006 0
-0.356986 -1.24287 -0.006 0
-0.356986 -1.24287 -0.006 0
-0.356985 -1.24287 -0.0056 0
-0.356985 -1.24287 -0.006 0
-0.356985 -1.24287 -0.006 0
-0.356985 -1.24287 -0.006 0
-0.354472 -1.24123 -0.0059 0
-0.356984 -1.24287 -0.0059 0
-0.356984 -1.24287 -0.0059 0
-0.356984 -1.24287 -0.0059 0
-0.356984 -1.24287 -0.0059 0
-0.356983 -1.24287 -0.006 0
-0.356982 -1.24287 -0.006 0
-0.356981 -1.24286 -0.0057 0
-0.35698 -1.24286 -0.0057 0
-0.356979 -1.24286 -0.0055 0
-0.356978 -1.24286 -0.0055 0
-0.356979 -1.24286 -0.0058 0
-0.356979 -1.24286 -0.0058 0
-0.356978 -1.24286 -0.0058 0
-0.356977 -1.24286 -0.0061 0
-0.356975 -1.24286 -0.0058 0
-0.356974 -1.24286 -0.0058 0
-0.356973 -1.24286 -0.0058 0
-0.356135 -1.24231 -0.0061 0
-0.356972 -1.24286 -0.0061 0
-0.356972 -1.24286 -0.0059 0
-0.356972 -1.24286 -0.0059 0
-0.356972 -1.24286 -0.0061 0
-0.356972 -1.24285 -0.0061 0
-0.356971 -1.24285 -0.006 0
-0.356971 -1.24285 -0.006 0
-0.35697 -1.24285 -0.006 0
-0.356969 -1.24285 -0.0058 0
-0.356967 -1.24286 -0.0065 0
-0.356966 -1.24286 -0.0065 0
-0.356965 -1.24286 -0.0065 0
-0.356964 -1.24285 -0.0059 0
-0.356963 -1.24285 -0.0059 0
-0.356963 -1.24285 -0.0064 0
-0.354451 -1.24121 -0.0064 0
-0.356963 -1.24285 -0.0064 0
-0.356962 -1.24285 -0.0061 0
-0.356961 -1.24285 -0.0061 0
-0.356959 -1.24285 -0.0061 0
-0.356957 -1.24285 -0.0062 0
-0.356956 -1.24285 -0.0059 0
-0.356954 -1.24285 -0.0059 0
-0.356952 -1.24285 -0.0063 0
-0.356951 -1.24285 -0.0063 0
-0.35695 -1.24285 -0.006 0
-0.356949 -1.24285 -0.006 0
-0.356947 -1.24285 -0.0061 0
-0.356946 -1.24285 -0.0061 0
-0.356945 -1.24285 -0.0064 0
-0.356944 -1.24285 -0.0064 0
-0.356943 -1.24285 -0.006 0
-0.356942 -1.24285 -0.006 0
-0.35694 -1.24285 -0.006 0
-0.355264 -1.24176 -0.0066 0
-0.356939 -1.24285 -0.0066 0
-0.355264 -1.24176 -0.0063 0
-0.356938 -1.24285 -0.0063 0
-0.356937 -1.24285 -0.006 0
-0.356936 -1.24285 -0.006 0
-0.356934 -1.24285 -0.0065 0
-0.356933 -1.24285 -0.0065 0
-0.356931 -1.24285 -0.0065 0
-0.356974 -1.24273 -0.0056 0
-0.356973 -1.24273 -0.006 0
-0.356973 -1.24273 -0.006 0
-0.356973 -1.24273 -0.006 0
-0.356929 -1.24285 -0.0061 0
-0.356927 -1.24284 -0.006 0
-0.356971 -1.24273 -0.006 0
-0.35697 -1.24273 -0.006 0
-0.356924 -1.24284 -0.0059 0
-0.356924 -1.24284 -0.006 0
-0.356924 -1.24284 -0.006 0
-0.391257 -1.26525 -0.006 0
-0.356924 -1.24284 -0.0062 0
-0.356087 -1.24229 -0.0062 0
-0.356923 -1.24284 -0.0062 0
-0.356923 -1.24284 -0.0062 0
-0.356966 -1.24272 -0.0059 0
-0.356966 -1.24272 -0.0059 0
-0.356964 -1.24272 -0.0061 0
-0.356963 -1.24272 -0.0061 0
-0.356963 -1.24272 -0.0059 0
-0.356963 -1.24272 -0.0059 0
-0.356963 -1.24272 -0.0062 0
-0.356962 -1.24272 -0.0062 0
-0.356961 -1.24272 -0.0057 0
-0.35696 -1.24272 -0.0057 0
-0.356959 -1.24272 -0.0057 0
-0.356957 -1.24271 -0.0062 0
-0.356956 -1.24271 -0.0061 0
-0.356954 -1.24271 -0.0061 0
-0.356954 -1.24271 -0.0061 0
-0.356952 -1.24271 -0.0057 0
-0.356952 -1.24271 -0.0057 0
-0.356951 -1.24271 -0.0063 0
-0.356949 -1.24271 -0.0062 0
-0.35695 -1.24271 -0.0062 0
-0.35695 -1.24271 -0.0062 0
-0.356949 -1.24271 -0.0063 0
-0.356948 -1.24271 -0.0063 0
-0.356947 -1.24271 -0.0059 0
-0.356947 -1.24271 -0.0059 0
-0.356946 -1.24271 -0.0059 0
-0.356945 -1.24271 -0.0058 0
-0.356945 -1.24271 -0.0058 0
-0.356944 -1.24271 -0.006 0
-0.356943 -1.24271 -0.006 0
-0.356941 -1.24271 -0.0059 0
-0.356941 -1.24271 -0.0059 0
-0.35694 -1.24271 -0.0057 0
-0.35694 -1.2427 -0.0057 0
-0.35694 -1.2427 -0.0057 0
-0.35694 -1.2427 -0.0063 0
-0.356939 -1.2427 -0.0063 0
-0.356937 -1.2427 -0.006 0
-0.356936 -1.2427 -0.006 0
-0.356935 -1.2427 -0.0065 0
-0.356933 -1.2427 -0.0065 0
-0.356888 -1.24282 -0.0065 0
-0.356885 -1.24282 -0.0061 0
-0.355209 -1.24172 -0.0061 0
-0.356883 -1.24281 -0.0061 0
-0.356881 -1.24281 -0.0063 0
-0.35688 -1.24281 -0.0063 0
-0.356879 -1.24281 -0.0063 0
-0.356878 -1.24281 -0.006 0
-0.356876 -1.24281 -0.006 0
-0.356875 -1.24281 -0.0062 0
-0.356918 -1.24269 -0.0062 0
-0.356872 -1.24281 -0.0062 0
-0.355196 -1.24172 -0.0062 0
-0.356914 -1.24269 -0.0062 0
-0.356869 -1.24281 -0.0059 0
-0.356867 -1.24281 -0.0059 0
-0.356866 -1.24281 -0.0057 0
-0.356865 -1.24281 -0.0057 0
-0.356863 -1.24281 -0.0062 0
-0.356863 -1.24281 -0.0062 0
-0.356862 -1.24281 -0.0058 0
-0.356861 -1.24281 -0.0058 0
-0.356904 -1.24269 -0.0058 0
-0.355184 -1.24171 -0.0058 0
-0.356858 -1.2428 -0.0058 0
-0.356857 -1.2428 -0.0062 0
-0.356899 -1.24268 -0.0062 0
-0.356898 -1.24268 -0.006 0
-0.356897 -1.24268 -0.006 0
-0.356896 -1.24268 -0.0061 0
-0.356895 -1.24268 -0.0061 0
-0.356894 -1.24268 -0.0061 0
-0.356893 -1.24268 -0.0056 0
-0.356892 -1.24268 -0.0056 0
-0.356892 -1.24268 -0.0061 0
-0.356892 -1.24268 -0.0061 0
-0.356891 -1.24268 -0.0064 0
-0.356891 -1.24268 -0.0064 0
-0.35689 -1.24268 -0.0057 0
-0.356889 -1.24268 -0.0057 0
-0.356888 -1.24268 -0.0065 0
-0.356889 -1.24268 -0.0065 0
-0.356889 -1.24268 -0.0061 0
-0.356889 -1.24268 -0.0061 0
-0.356888 -1.24268 -0.0065 0
-0.356887 -1.24268 -0.0065 0
-0.356887 -1.24268 -0.0059 0
-0.356885 -1.24268 -0.0063 0
-0.356884 -1.24268 -0.0063 0
-0.356883 -1.24268 -0.0063 0
-0.356881 -1.24268 -0.0063 0
-0.356878 -1.24268 -0.0063 0
-0.356877 -1.24267 -0.0056 0
-0.356876 -1.24267 -0.0056 0
-0.356874 -1.24267 -0.006 0
-0.356872 -1.24267 -0.0061 0
-0.356871 -1.24267 -0.0061 0
-0.35687 -1.24267 -0.0061 0
-0.356869 -1.24267 -0.0062 0
-0.356867 -1.24267 -0.0062 0
-0.356865 -1.24267 -0.0058 0
-0.356864 -1.24267 -0.0058 0
-0.356862 -1.24267 -0.0063 0
-0.356861 -1.24267 -0.0063 0
-0.35686 -1.24267 -0.0063 0
-0.356859 -1.24267 -0.0063 0
-0.356857 -1.24267 -0.0057 0
-0.356855 -1.24267 -0.0057 0
-0.356854 -1.24267 -0.0063 0
-0.356853 -1.24267 -0.0063 0
-0.356852 -1.24267 -0.0057 0
-0.356849 -1.24266 -0.0062 0
-0.356848 -1.24266 -0.0062 0
-0.356847 -1.24266 -0.0062 0
-0.356844 -1.24266 -0.0061 0
-0.356843 -1.24266 -0.0061 0
-0.356842 -1.24266 -0.0061 0
-0.356841 -1.24266 -0.0061 0
-0.35684 -1.24266 -0.0063 0
-0.356839 -1.24266 -0.0063 0
-0.356838 -1.24266 -0.0063 0
-0.356837 -1.24266 -0.0066 0
-0.356836 -1.24266 -0.0066 0
-0.356836 -1.24266 -0.0061 0
-0.356835 -1.24266 -0.0061 0
-0.356834 -1.24266 -0.006 0
-0.356833 -1.24266 -0.006 0
-0.356831 -1.24266 -0.0065 0
-0.356829 -1.24266 -0.0065 0
-0.356827 -1.24266 -0.0062 0
-0.356824 -1.24266 -0.0062 0
-0.356824 -1.24266 -0.0065 0
-0.356824 -1.24266 -0.0065 0
-0.356823 -1.24266 -0.006 0
-0.356823 -1.24266 -0.006 0
-0.356823 -1.24265 -0.006 0
-0.356822 -1.24265 -0.006 0
-0.356822 -1.24265 -0.0059 0
-0.35682 -1.24265 -0.0059 0
-0.356819 -1.24265 -0.0059 0
-0.356818 -1.24265 -0.0062 0
-0.356816 -1.24265 -0.0062 0
-0.356814 -1.24265 -0.0066 0
-0.356814 -1.24265 -0.0066 0
-0.356814 -1.24265 -0.006 0
-0.356813 -1.24265 -0.006 0
-0.356813 -1.24265 -0.0061 0
-0.356813 -1.24265 -0.0061 0
-0.356812 -1.24265 -0.0061 0
-0.356812 -1.24265 -0.006 0
-0.356812 -1.24265 -0.006 0
-0.356811 -1.24265 -0.006 0
-0.356811 -1.24265 -0.0053 0
-0.356808 -1.24264 -0.0057 0
-0.356807 -1.24264 -0.0057 0
-0.356806 -1.24264 -0.0058 0
-0.356806 -1.24264 -0.0058 0
-0.356805 -1.24264 -0.0058 0
-0.356804 -1.24264 -0.006 0
-0.356803 -1.24264 -0.006 0
-0.356803 -1.24264 -0.0059 0
-0.356803 -1.24264 -0.0059 0
-0.356803 -1.24263 -0.0059 0
-0.356802 -1.24263 -0.0064 0
-0.356801 -1.24263 -0.0064 0
-0.3568 -1.24263 -0.0062 0
-0.356797 -1.24263 -0.0062 0
-0.356795 -1.24263 -0.0062 0
-0.356795 -1.24263 -0.0062 0
-0.356794 -1.24263 -0.0062 0
-0.356792 -1.24263 -0.0061 0
-0.356791 -1.24263 -0.0061 0
-0.35679 -1.24263 -0.0062 0
-0.356789 -1.24263 -0.0062 0
-0.356789 -1.24263 -0.0062 0
-0.356787 -1.24263 -0.0057 0
-0.356786 -1.24263 -0.0061 0
-0.356785 -1.24263 -0.0061 0
-0.356784 -1.24263 -0.0062 0
-0.356783 -1.24263 -0.0062 0
-0.356781 -1.24263 -0.0062 0
-0.356779 -1.24263 -0.0065 0
-0.356775 -1.24263 -0.0065 0
-0.356773 -1.24263 -0.006 0
-0.356772 -1.24263 -0.006 0
-0.35677 -1.24263 -0.006 0
-0.356769 -1.24263 -0.006 0
-0.356768 -1.24263 -0.006 0
-0.356766 -1.24263 -0.006 0
-0.356764 -1.24263 -0.0062 0
-0.356762 -1.24263 -0.0062 0
-0.35676 -1.24263 -0.0062 0
-0.356758 -1.24263 -0.0062 0
-0.356756 -1.24263 -0.0062 0
-0.356756 -1.24263 -0.0055 0
-0.356755 -1.24263 -0.0055 0
-0.356755 -1.24263 -0.0059 0
-0.356754 -1.24263 -0.0059 0
-0.355915 -1.24208 -0.0059 0
-0.356751 -1.24262 -0.0061 0
-0.35675 -1.24262 -0.0061 0
-0.356749 -1.24262 -0.0061 0
-0.356748 -1.24262 -0.0061 0
-0.356747 -1.24262 -0.0063 0
-0.356746 -1.24262 -0.0063 0
-0.356745 -1.24262 -0.0061 0
-0.356743 -1.24262 -0.0061 0
-0.356741 -1.24262 -0.0061 0
-0.35674 -1.24262 -0.0061 0
-0.35674 -1.24262 -0.0055 0
-0.356739 -1.24262 -0.0055 0
-0.356738 -1.24262 -0.0055 0
-0.355062 -1.24153 -0.0061 0
-0.356736 -1.24262 -0.0061 0
-0.356735 -1.24262 -0.006 0
-0.356734 -1.24262 -0.006 0
-0.356733 -1.24262 -0.006 0
-0.356732 -1.24262 -0.0062 0
-0.356732 -1.24262 -0.0062 0
-0.356731 -1.24262 -0.0056 0
-0.356729 -1.24262 -0.0056 0
-0.356729 -1.24262 -0.0058 0
-0.356729 -1.24262 -0.0058 0
-0.356728 -1.24262 -0.0057 0
-0.356727 -1.24262 -0.0057 0
-0.356726 -1.24262 -0.0057 0
-0.356726 -1.24262 -0.0062 0
-0.356725 -1.24262 -0.0062 0
-0.355887 -1.24207 -0.0058 0
-0.355886 -1.24207 -0.0058 0
-0.356723 -1.24261 -0.0058 0
-0.356722 -1.24261 -0.0059 0
-0.346671 -1.23606 -0.0063 0
-0.356719 -1.24261 -0.0063 0
-0.356718 -1.24261 -0.0063 0
-0.356717 -1.24261 -0.0058 0
-0.356717 -1.24261 -0.0058 0
-0.356716 -1.24261 -0.0062 0
-0.356715 -1.24261 -0.0062 0
-0.356714 -1.24261 -0.006 0
-0.356669 -1.24273 -0.006 0
-0.356669 -1.24273 -0.0056 0
-0.356668 -1.24273 -0.0056 0
-0.356668 -1.24273 -0.0056 0
-0.356667 -1.24273 -0.0062 0
-0.356667 -1.24273 -0.0062 0
-0.356667 -1.24273 -0.0056 0
-0.356666 -1.24273 -0.0056 0
-0.356666 -1.24273 -0.0057 0
-0.356665 -1.24273 -0.0057 0
-0.356664 -1.24273 -0.0059 0
-0.356663 -1.24273 -0.0059 0
-0.356707 -1.24261 -0.0059 0
-0.356706 -1.24261 -0.0062 0
-0.356706 -1.24261 -0.0062 0
-0.356704 -1.24261 -0.0064 0
-0.356657 -1.24273 -0.0064 0
-0.356656 -1.24273 -0.0061 0
-0.356699 -1.24261 -0.0061 0
-0.356698 -1.24261 -0.0062 0
-0.354185 -1.24097 -0.0062 0
-0.356697 -1.24261 -0.0062 0
-0.356695 -1.24261 -0.0062 0
-0.356694 -1.24261 -0.0068 0
-0.356692 -1.24261 -0.0068 0
-0.356691 -1.24261 -0.0066 0
-0.356689 -1.24261 -0.0056 0
-0.356689 -1.24261 -0.0056 0
-0.356688 -1.24261 -0.0056 0
-0.356687 -1.24261 -0.0062 0
-0.356686 -1.2426 -0.0064 0
-0.356686 -1.2426 -0.0064 0
-0.356685 -1.2426 -0.0064 0
-0.356684 -1.2426 -0.0062 0
-0.356682 -1.2426 -0.0061 0
-0.356682 -1.2426 -0.0061 0
-0.356681 -1.2426 -0.0064 0
-0.356681 -1.2426 -0.0064 0
-0.35668 -1.2426 -0.0058 0
-0.35668 -1.2426 -0.0058 0
-0.35668 -1.24259 -0.0058 0
-0.356678 -1.24259 -0.0065 0
-0.356678 -1.24259 -0.006 0
-0.356677 -1.24259 -0.006 0
-0.356677 -1.24259 -0.006 0
-0.356631 -1.24271 -0.0058 0
-0.35663 -1.24271 -0.0059 0
-0.356629 -1.24271 -0.0059 0
-0.356629 -1.24271 -0.0062 0
-0.356629 -1.24271 -0.0062 0
-0.356629 -1.24271 -0.0058 0
-0.356629 -1.24271 -0.0058 0
-0.35663 -1.24271 -0.0061 0
-0.35663 -1.24271 -0.006 0
-0.35663 -1.24271 -0.006 0
-0.356629 -1.2427 -0.006 0
-0.356627 -1.2427 -0.006 0
-0.356625 -1.2427 -0.006 0
-0.356624 -1.2427 -0.006 0
-0.323128 -1.22084 -0.006 0
-0.356624 -1.2427 -0.0059 0
-0.356623 -1.2427 -0.0059 0
-0.356623 -1.2427 -0.0063 0
-0.356622 -1.2427 -0.0063 0
-0.35662 -1.2427 -0.0063 0
-0.35662 -1.2427 -0.006 0
-0.356619 -1.2427 -0.006 0
-0.356618 -1.2427 -0.0064 0
-0.356617 -1.2427 -0.0064 0
-0.356616 -1.2427 -0.0059 0
-0.356615 -1.2427 -0.0059 0
-0.356615 -1.2427 -0.0061 0
-0.356612 -1.2427 -0.0061 0
-0.35661 -1.2427 -0.0061 0
-0.356608 -1.2427 -0.0061 0
-0.356606 -1.2427 -0.006 0
-0.356605 -1.2427 -0.006 0
-0.356604 -1.2427 -0.006 0
-0.356603 -1.24269 -0.006 0
-0.356602 -1.24269 -0.006 0
-0.356601 -1.24269 -0.0061 0
-0.3566 -1.24269 -0.0061 0
-0.356599 -1.24269 -0.0061 0
-0.356598 -1.24269 -0.0061 0
-0.356597 -1.24269 -0.0062 0
-0.356597 -1.24269 -0.0062 0
-0.356595 -1.24269 -0.0062 0
-0.356594 -1.24269 -0.0055 0
-0.356593 -1.24269 -0.0055 0
-0.356592 -1.24269 -0.0063 0
-0.356592 -1.24269 -0.0063 0
-0.356591 -1.24268 -0.0063 0
-0.356591 -1.24269 -0.0058 0
-0.35659 -1.24268 -0.0058 0
-0.35659 -1.24268 -0.0059 0
-0.356587 -1.24268 -0.0059 0
-0.356586 -1.24268 -0.0059 0
-0.356584 -1.24268 -0.0059 0
-0.356583 -1.24268 -0.0063 0
-0.356582 -1.24267 -0.0063 0
-0.356581 -1.24267 -0.0063 0
-0.356579 -1.24267 -0.0061 0
-0.356578 -1.24267 -0.0056 0
-0.356577 -1.24267 -0.0056 0
-0.356577 -1.24267 -0.006 0
-0.356576 -1.24267 -0.006 0
-0.356576 -1.24267 -0.006 0
-0.356575 -1.24267 -0.006 0
-0.356575 -1.24267 -0.0059 0
-0.354063 -1.24103 -0.0059 0
-0.356575 -1.24267 -0.0064 0
-0.356572 -1.24266 -0.0064 0
-0.356571 -1.24266 -0.0059 0
-0.356571 -1.24266 -0.0059 0
-0.354896 -1.24157 -0.0063 0
-0.356568 -1.24266 -0.0063 0
-0.356568 -1.24266 -0.0062 0
-0.356567 -1.24266 -0.0062 0
-0.356567 -1.24266 -0.0054 0
-0.356566 -1.24266 -0.0054 0
-0.356565 -1.24266 -0.006 0
-0.356564 -1.24266 -0.006 0
-0.356606 -1.24254 -0.0061 0
-0.356603 -1.24254 -0.0061 0
-0.356602 -1.24254 -0.0063 0
-0.356601 -1.24254 -0.0063 0
-0.3566 -1.24254 -0.0063 0
-0.356554 -1.24266 -0.0063 0
-0.356551 -1.24266 -0.0059 0
-0.35655 -1.24266 -0.0059 0
-0.356548 -1.24266 -0.0062 0
-0.356546 -1.24266 -0.0062 0
-0.354032 -1.24102 -0.0061 0
-0.356544 -1.24266 -0.0061 0
-0.356543 -1.24265 -0.006 0
-0.356543 -1.24265 -0.006 0
-0.356543 -1.24265 -0.006 0
-0.346495 -1.23609 -0.0061 0
-0.356543 -1.24265 -0.0061 0
-0.356586 -1.24253 -0.0062 0
-0.356586 -1.24253 -0.0062 0
-0.35654 -1.24265 -0.0062 0
-0.356539 -1.24265 -0.0059 0
-0.356538 -1.24265 -0.0059 0
-0.356538 -1.24265 -0.0059 0
-0.356537 -1.24265 -0.0059 0
-0.356536 -1.24265 -0.0062 0
-0.356535 -1.24265 -0.0062 0
-0.356533 -1.24265 -0.0057 0
-0.356532 -1.24265 -0.0057 0
-0.356531 -1.24265 -0.0058 0
-0.35653 -1.24265 -0.0058 0
-0.356528 -1.24265 -0.006 0
-0.356528 -1.24265 -0.006 0
-0.356527 -1.24265 -0.0055 0
-0.356526 -1.24265 -0.0055 0
-0.356567 -1.24253 -0.0061 0
-0.356566 -1.24253 -0.0061 0
-0.356565 -1.24253 -0.0061 0
-0.356565 -1.24253 -0.0061 0
-0.356519 -1.24264 -0.0057 0
-0.356563 -1.24252 -0.0057 0
-0.356562 -1.24252 -0.0062 0
-0.35656 -1.24252 -0.0062 0
-0.356559 -1.24252 -0.0062 0
-0.356514 -1.24264 -0.0062 0
-0.356513 -1.24264 -0.0059 0
-0.356511 -1.24264 -0.0062 0
-0.356509 -1.24264 -0.0062 0
-0.356508 -1.24264 -0.0062 0
-0.356507 -1.24263 -0.0057 0
-0.356506 -1.24263 -0.006 0
-0.356505 -1.24263 -0.006 0
-0.356504 -1.24263 -0.006 0
-0.356502 -1.24263 -0.0063 0
-0.356502 -1.24263 -0.006 0
-0.356502 -1.24263 -0.006 0
-0.356502 -1.24263 -0.006 0
-0.356545 -1.24251 -0.006 0
-0.356542 -1.24251 -0.0061 0
-0.356542 -1.24251 -0.0061 0
-0.356541 -1.24251 -0.0064 0
-0.35654 -1.24251 -0.0058 0
-0.356538 -1.24251 -0.0058 0
-0.356537 -1.24251 -0.0058 0
-0.356537 -1.24251 -0.0063 0
-0.356536 -1.24251 -0.0063 0
-0.356535 -1.2425 -0.006 0
-0.356533 -1.2425 -0.006 0
-0.356532 -1.2425 -0.0065 0
-0.35653 -1.2425 -0.0065 0
-0.356528 -1.2425 -0.0061 0
-0.356482 -1.24262 -0.0061 0
-0.356481 -1.24262 -0.0061 0
-0.356479 -1.24262 -0.0059 0
-0.356478 -1.24262 -0.0058 0
-0.356478 -1.24262 -0.0058 0
-0.356477 -1.24261 -0.0058 0
-0.356474 -1.24261 -0.0059 0
-0.356472 -1.24261 -0.0066 0
-0.356471 -1.24261 -0.0066 0
-0.35647 -1.24261 -0.0066 0
-0.356469 -1.24261 -0.0064 0
-0.356468 -1.24261 -0.0062 0
-0.356468 -1.24261 -0.0062 0
-0.356467 -1.24261 -0.0062 0
-0.356467 -1.24261 -0.0057 0
-0.356466 -1.24261 -0.0056 0
-0.356466 -1.24261 -0.0056 0
-0.356466 -1.24261 -0.0056 0
-0.356466 -1.24261 -0.0058 0
-0.356465 -1.24261 -0.0061 0
-0.356465 -1.24261 -0.0061 0
-0.356465 -1.24261 -0.0061 0
-0.356462 -1.24261 -0.0066 0
-0.356461 -1.24261 -0.0061 0
-0.35646 -1.24261 -0.0061 0
-0.356502 -1.24249 -0.0059 0
-0.356501 -1.24249 -0.0059 0
-0.3565 -1.24249 -0.0057 0
-0.356499 -1.24249 -0.0057 0
-0.356498 -1.24249 -0.0062 0
-0.356497 -1.24249 -0.0062 0
-0.356496 -1.24249 -0.0056 0
-0.356496 -1.24249 -0.0056 0
-0.356494 -1.24249 -0.0063 0
-0.354818 -1.2414 -0.0063 0
-0.356492 -1.24249 -0.0063 0
-0.356491 -1.24249 -0.0063 0
-0.356488 -1.24249 -0.0055 0
-0.356489 -1.24248 -0.0055 0
-0.356489 -1.24248 -0.0057 0
-0.356488 -1.24248 -0.0057 0
-0.356442 -1.2426 -0.0063 0
-0.356441 -1.2426 -0.0063 0
-0.35644 -1.2426 -0.0065 0
-0.35644 -1.2426 -0.0065 0
-0.35644 -1.2426 -0.0065 0
-0.35644 -1.2426 -0.0061 0
-0.356439 -1.2426 -0.0061 0
-0.356438 -1.2426 -0.0064 0
-0.356437 -1.2426 -0.0064 0
-0.356437 -1.2426 -0.0066 0
-0.356436 -1.2426 -0.0066 0
-0.356435 -1.2426 -0.0061 0
-0.356435 -1.2426 -0.0061 0
-0.356478 -1.24248 -0.0061 0
-0.356431 -1.24259 -0.006 0
-0.356431 -1.24259 -0.0065 0
-0.35643 -1.24259 -0.0065 0
-0.35643 -1.24259 -0.0065 0
-0.35643 -1.24259 -0.0061 0
-0.356429 -1.24259 -0.0061 0
-0.356428 -1.24259 -0.0064 0
-0.356427 -1.24259 -0.0064 0
-0.356426 -1.24259 -0.0064 0
-0.356469 -1.24247 -0.0063 0
-0.356468 -1.24247 -0.006 0
-0.356467 -1.24247 -0.006 0
-0.356466 -1.24247 -0.006 0
-0.356464 -1.24247 -0.0063 0
-0.356461 -1.24247 -0.0058 0
-0.35646 -1.24247 -0.0058 0
-0.35646 -1.24247 -0.0058 0
-0.356459 -1.24247 -0.0059 0
-0.356459 -1.24247 -0.0059 0
-0.356458 -1.24247 -0.0063 0
-0.356457 -1.24247 -0.0063 0
-0.356456 -1.24247 -0.0063 0
-0.356455 -1.24247 -0.0061 0
-0.356454 -1.24246 -0.0061 0
-0.356453 -1.24246 -0.0061 0
-0.35394 -1.24083 -0.0061 0
-0.356452 -1.24246 -0.0061 0
-0.356452 -1.24246 -0.0059 0
-0.356451 -1.24246 -0.0059 0
-0.35645 -1.24246 -0.0063 0
-0.356446 -1.24246 -0.0063 0
-0.354769 -1.24137 -0.0059 0
-0.356443 -1.24246 -0.0059 0
-0.35644 -1.24246 -0.0061 0
-0.356439 -1.24246 -0.0061 0
-0.356438 -1.24246 -0.0059 0
-0.356437 -1.24246 -0.0059 0
-0.356436 -1.24246 -0.0061 0
-0.356434 -1.24246 -0.0061 0
-0.346341 -1.23602 -0.0061 0
-0.356388 -1.24258 -0.0061 0
-0.356387 -1.24258 -0.0065 0
-0.356386 -1.24258 -0.0065 0
-0.356385 -1.24258 -0.0062 0
-0.356384 -1.24258 -0.0062 0
-0.356428 -1.24246 -0.0058 0
-0.356427 -1.24246 -0.0058 0
-0.356381 -1.24258 -0.0067 0
-0.35638 -1.24258 -0.0067 0
-0.356378 -1.24258 -0.0054 0
-0.356376 -1.24258 -0.0054 0
-0.356375 -1.24258 -0.0059 0
-0.356374 -1.24257 -0.0061 0
-0.356373 -1.24257 -0.0061 0
-0.356373 -1.24257 -0.0061 0
-0.356372 -1.24257 -0.006 0
-0.356371 -1.24257 -0.0058 0
-0.356369 -1.24257 -0.0058 0
-0.356369 -1.24257 -0.0058 0
-0.356367 -1.24257 -0.006 0
-0.356366 -1.24257 -0.0056 0
-0.356365 -1.24257 -0.0056 0
-0.356408 -1.24245 -0.0056 0
-0.356407 -1.24245 -0.0064 0
-0.356361 -1.24257 -0.0064 0
-0.35636 -1.24257 -0.0058 0
-0.357195 -1.24311 -0.0058 0
-0.356401 -1.24245 -0.0058 0
-0.356399 -1.24245 -0.0061 0
-0.356398 -1.24245 -0.0063 0
-0.356397 -1.24245 -0.0063 0
-0.356396 -1.24245 -0.0063 0
-0.356395 -1.24245 -0.006 0
-0.356394 -1.24244 -0.006 0
-0.356391 -1.24244 -0.0063 0
-0.35639 -1.24244 -0.0063 0
-0.35639 -1.24244 -0.006 0
-0.35639 -1.24244 -0.006 0
-0.356391 -1.24244 -0.0065 0
-0.356391 -1.24244 -0.0065 0
-0.35639 -1.24244 -0.0065 0
-0.356389 -1.24244 -0.0057 0
-0.356389 -1.24244 -0.0057 0
-0.356389 -1.24244 -0.0057 0
-0.356389 -1.24244 -0.0062 0
-0.356388 -1.24244 -0.0062 0
-0.356386 -1.24243 -0.0059 0
-0.356385 -1.24243 -0.0059 0
-0.356384 -1.24243 -0.0061 0
-0.355546 -1.24188 -0.006 0
-0.356382 -1.24243 -0.006 0
-0.356381 -1.24243 -0.006 0
-0.35638 -1.24243 -0.0064 0
-0.356379 -1.24243 -0.0064 0
-0.356378 -1.24243 -0.006 0
-0.356377 -1.24243 -0.006 0
-0.356377 -1.24243 -0.006 0
-0.356376 -1.24243 -0.0059 0
-0.356373 -1.24243 -0.0059 0
-0.356371 -1.24243 -0.0059 0
-0.35637 -1.24242 -0.0059 0
-0.356369 -1.24242 -0.0057 0
-0.356368 -1.24242 -0.0057 0
-0.356369 -1.24242 -0.0062 0
-0.356369 -1.24242 -0.0062 0
-0.356368 -1.24242 -0.0056 0
-0.356367 -1.24242 -0.0056 0
-0.356366 -1.24242 -0.0057 0
-0.356367 -1.24242 -0.0057 0
-0.356367 -1.24242 -0.0057 0
-0.356365 -1.24242 -0.0067 0
-0.356364 -1.24242 -0.0056 0
-0.355526 -1.24187 -0.0056 0
-0.356362 -1.24242 -0.0056 0
-0.356361 -1.24242 -0.0062 0
-0.35636 -1.24242 -0.0062 0
-0.356358 -1.24241 -0.0057 0
-0.356357 -1.24241 -0.0057 0
-0.35468 -1.24132 -0.0057 0
-0.356353 -1.24241 -0.0057 0
-0.356352 -1.24241 -0.0057 0
-0.355514 -1.24186 -0.0057 0
-0.35635 -1.24241 -0.0057 0
-0.356348 -1.24241 -0.0061 0
-0.356347 -1.24241 -0.0064 0
-0.390684 -1.26481 -0.0064 0
-0.356347 -1.24241 -0.0064 0
-0.356347 -1.24241 -0.0058 0
-0.356346 -1.24241 -0.0058 0
-0.356346 -1.24241 -0.0059 0
-0.356345 -1.24241 -0.0059 0
-0.356345 -1.24241 -0.0059 0
-0.356344 -1.24241 -0.006 0
-0.356343 -1.24241 -0.0063 0
-0.356342 -1.24241 -0.0063 0
-0.356341 -1.24241 -0.0063 0
-0.35634 -1.24241 -0.0059 0
-0.356339 -1.24241 -0.0059 0
-0.356338 -1.24241 -0.006 0
-0.356292 -1.24252 -0.006 0
-0.356291 -1.24252 -0.0063 0
-0.356291 -1.24252 -0.0063 0
-0.390622 -1.26493 -0.0065 0
-0.356287 -1.24252 -0.0065 0
-0.356286 -1.24252 -0.0059 0
-0.356285 -1.24252 -0.0059 0
-0.356283 -1.24252 -0.006 0
-0.356282 -1.24252 -0.006 0
-0.356282 -1.24252 -0.0065 0
-0.354606 -1.24142 -0.0065 0
-0.356279 -1.24252 -0.0058 0
-0.356278 -1.24252 -0.0058 0
-0.356277 -1.24252 -0.0059 0
-0.356321 -1.2424 -0.0059 0
-0.35632 -1.2424 -0.0068 0
-0.35632 -1.2424 -0.0068 0
-0.356319 -1.2424 -0.0068 0
-0.356318 -1.2424 -0.0065 0
-0.356317 -1.2424 -0.0065 0
-0.356316 -1.2424 -0.0059 0
-0.356314 -1.2424 -0.0059 0
-0.356313 -1.2424 -0.0058 0
-0.356312 -1.2424 -0.0058 0
-0.356311 -1.2424 -0.0062 0
-0.35631 -1.2424 -0.0062 0
-0.356309 -1.2424 -0.0062 0
-0.356308 -1.2424 -0.0055 0
-0.356307 -1.2424 -0.0055 0
-0.355467 -1.24185 -0.0059 0
-0.356303 -1.2424 -0.0059 0
-0.356302 -1.2424 -0.0068 0
-0.356301 -1.2424 -0.0068 0
-0.3563 -1.2424 -0.0053 0
-0.3563 -1.2424 -0.0053 0
-0.356298 -1.2424 -0.0059 0
-0.356297 -1.2424 -0.0059 0
-0.356296 -1.2424 -0.0064 0
-0.356295 -1.2424 -0.0064 0
-0.356292 -1.2424 -0.0059 0
-0.356291 -1.2424 -0.0059 0
-0.35629 -1.2424 -0.0054 0
-0.35629 -1.2424 -0.0054 0
-0.356243 -1.24251 -0.0058 0
-0.356286 -1.24239 -0.0058 0
-0.356286 -1.24239 -0.0067 0
-0.35624 -1.24251 -0.0067 0
-0.356239 -1.24251 -0.0057 0
-0.356239 -1.24251 -0.0057 0
-0.35624 -1.24251 -0.0059 0
-0.356239 -1.24251 -0.0059 0
-0.353726 -1.24087 -0.006 0
-0.356238 -1.24251 -0.006 0
-0.356237 -1.24251 -0.0059 0
-0.355399 -1.24196 -0.0059 0
-0.356236 -1.2425 -0.0059 0
-0.356235 -1.2425 -0.0062 0
-0.356236 -1.2425 -0.0062 0
-0.356237 -1.2425 -0.0058 0
-0.356237 -1.2425 -0.0058 0
-0.356236 -1.2425 -0.0058 0
-0.356235 -1.2425 -0.0058 0
-0.356235 -1.2425 -0.0062 0
-0.356234 -1.2425 -0.0062 0
-0.356232 -1.2425 -0.0062 0
-0.356276 -1.24238 -0.0057 0
-0.356275 -1.24238 -0.0057 0
-0.356273 -1.24238 -0.0059 0
-0.356272 -1.24238 -0.0059 0
-0.356272 -1.24237 -0.0063 0
-0.355434 -1.24183 -0.0063 0
-0.356271 -1.24237 -0.0064 0
-0.35627 -1.24237 -0.0064 0
-0.356269 -1.24237 -0.0064 0
-0.356268 -1.24237 -0.0062 0
-0.356267 -1.24237 -0.0062 0
-0.356266 -1.24237 -0.0062 0
-0.356265 -1.24237 -0.0062 0
-0.356264 -1.24237 -0.0062 0
-0.356264 -1.24237 -0.0062 0
-0.356264 -1.24237 -0.006 0
-0.356263 -1.24237 -0.006 0
-0.356262 -1.24237 -0.006 0
-0.35626 -1.24237 -0.0064 0
-0.35626 -1.24237 -0.0057 0
-0.35626 -1.24237 -0.0057 0
-0.356259 -1.24237 -0.0057 0
-0.356214 -1.24249 -0.0064 0
-0.356214 -1.24249 -0.0057 0
-0.356214 -1.24249 -0.0057 0
-0.356214 -1.24249 -0.0057 0
-0.356213 -1.24249 -0.0062 0
-0.356212 -1.24249 -0.0059 0
-0.356256 -1.24237 -0.0059 0
-0.356255 -1.24237 -0.0059 0
-0.356211 -1.24249 -0.0061 0
-0.35621 -1.24249 -0.0062 0
-0.356209 -1.24249 -0.0062 0
-0.356208 -1.24249 -0.006 0
-0.356207 -1.24249 -0.006 0
-0.356251 -1.24237 -0.0062 0
-0.35625 -1.24237 -0.0062 0
-0.356249 -1.24237 -0.0059 0
-0.356248 -1.24237 -0.0059 0
-0.356203 -1.24249 -0.0056 0
-0.356246 -1.24237 -0.0056 0
-0.356245 -1.24238 -0.0062 0
-0.356244 -1.24238 -0.0062 0
-0.356244 -1.24238 -0.0062 0
-0.356242 -1.24238 -0.0062 0
-0.356241 -1.24238 -0.0062 0
-0.353727 -1.24074 -0.0062 0
-0.356239 -1.24237 -0.0062 0
-0.356239 -1.24237 -0.0058 0
-0.356239 -1.24237 -0.0058 0
-0.356238 -1.24237 -0.0065 0
-0.356237 -1.24237 -0.0065 0
-0.356236 -1.24237 -0.0054 0
-0.356236 -1.24237 -0.0054 0
-0.356234 -1.24237 -0.006 0
-0.356233 -1.24237 -0.006 0
-0.356233 -1.24237 -0.0066 0
-0.356232 -1.24237 -0.0066 0
-0.356231 -1.24237 -0.0066 0
-0.35623 -1.24237 -0.0056 0
-0.356229 -1.24237 -0.0064 0
-0.356229 -1.24237 -0.0064 0
-0.356229 -1.24237 -0.0064 0
-0.356228 -1.24237 -0.0063 0
-0.356182 -1.24248 -0.0063 0
-0.356181 -1.24248 -0.0059 0
-0.356179 -1.24248 -0.0059 0
-0.356177 -1.24248 -0.0059 0
-0.356176 -1.24248 -0.0062 0
-0.356175 -1.24248 -0.0058 0
-0.356174 -1.24248 -0.0058 0
-0.356173 -1.24248 -0.0058 0
-0.356171 -1.24248 -0.006 0
-0.35617 -1.24248 -0.006 0
-0.356169 -1.24248 -0.0059 0
-0.356168 -1.24248 -0.0059 0
-0.356167 -1.24248 -0.006 0
-0.356166 -1.24248 -0.006 0
-0.356165 -1.24247 -0.0063 0
-0.356164 -1.24247 -0.0063 0
-0.356163 -1.24247 -0.0063 0
-0.35365 -1.24083 -0.0057 0
-0.356161 -1.24247 -0.0057 0
-0.35616 -1.24247 -0.0061 0
-0.356159 -1.24247 -0.0061 0
-0.356158 -1.24247 -0.0063 0
-0.356157 -1.24247 -0.0063 0
-0.356157 -1.24247 -0.0061 0
-0.356156 -1.24247 -0.0061 0
-0.356155 -1.24247 -0.0061 0
-0.356199 -1.24235 -0.0064 0
-0.355361 -1.2418 -0.0056 0
-0.356198 -1.24235 -0.0056 0
-0.356196 -1.24235 -0.0056 0
-0.356195 -1.24235 -0.0064 0
-0.356193 -1.24235 -0.0064 0
-0.356192 -1.24235 -0.006 0
-0.35619 -1.24235 -0.006 0
-0.356145 -1.24246 -0.006 0
-0.356144 -1.24246 -0.0063 0
-0.356188 -1.24234 -0.0062 0
-0.356187 -1.24234 -0.0062 0
-0.356187 -1.24234 -0.0062 0
-0.356186 -1.24234 -0.0059 0
-0.356186 -1.24234 -0.0059 0
-0.353672 -1.2407 -0.0061 0
-0.356183 -1.24234 -0.0061 0
-0.356181 -1.24234 -0.0062 0
-0.35618 -1.24234 -0.0062 0
-0.356179 -1.24234 -0.0059 0
-0.356178 -1.24234 -0.0059 0
-0.356177 -1.24234 -0.0065 0
-0.356176 -1.24234 -0.0065 0
-0.356175 -1.24234 -0.0059 0
-0.356174 -1.24233 -0.0059 0
-0.356172 -1.24233 -0.0059 0
-0.356171 -1.24233 -0.0058 0
-0.356169 -1.24233 -0.0062 0
-0.356168 -1.24233 -0.0062 0
-0.356167 -1.24233 -0.0062 0
-0.356166 -1.24233 -0.0059 0
-0.356165 -1.24233 -0.0059 0
-0.356165 -1.24233 -0.0064 0
-0.356164 -1.24233 -0.0064 0
-0.356164 -1.24233 -0.006 0
-0.356163 -1.24233 -0.006 0
-0.356162 -1.24233 -0.006 0
-0.356162 -1.24233 -0.006 0
-0.356161 -1.24233 -0.006 0
-0.35616 -1.24233 -0.006 0
-0.356159 -1.24233 -0.006 0
-0.356158 -1.24233 -0.0062 0
-0.356157 -1.24233 -0.0062 0
-0.356156 -1.24233 -0.0061 0
-0.356155 -1.24233 -0.0061 0
-0.356155 -1.24233 -0.0061 0
-0.356154 -1.24233 -0.0061 0
-0.356152 -1.24233 -0.0061 0
-0.356151 -1.24233 -0.0062 0
-0.35615 -1.24233 -0.0062 0
-0.356148 -1.24233 -0.0059 0
-0.356148 -1.24233 -0.0059 0
-0.356146 -1.24233 -0.0058 0
-0.356145 -1.24233 -0.0058 0
-0.356144 -1.24233 -0.0068 0
-0.356142 -1.24233 -0.0068 0
-0.356142 -1.24233 -0.0062 0
-0.35614 -1.24233 -0.0062 0
-0.356138 -1.24233 -0.0059 0
-0.356137 -1.24233 -0.0059 0
-0.356137 -1.24233 -0.0062 0
-0.356136 -1.24233 -0.0062 0
-0.35358 -1.2408 -0.0056 0
-0.356092 -1.24244 -0.0056 0
-0.356135 -1.24233 -0.0061 0
-0.356135 -1.24233 -0.0061 0
-0.356134 -1.24233 -0.006 0
-0.356133 -1.24233 -0.006 0
-0.356132 -1.24232 -0.006 0
-0.356131 -1.24232 -0.0063 0
-0.356131 -1.24232 -0.0063 0
-0.356131 -1.24232 -0.0061 0
-0.35613 -1.24232 -0.0061 0
-0.356129 -1.24232 -0.0059 0
-0.356128 -1.24232 -0.0059 0
-0.356126 -1.24232 -0.0062 0
-0.356125 -1.24232 -0.0062 0
-0.356124 -1.24232 -0.0059 0
-0.356124 -1.24232 -0.0059 0
-0.356123 -1.24232 -0.0063 0
-0.356122 -1.24232 -0.0063 0
-0.356122 -1.24232 -0.006 0
-0.35612 -1.24232 -0.0062 0
-0.35612 -1.24232 -0.0062 0
-0.35612 -1.24232 -0.0062 0
-0.356119 -1.24232 -0.0057 0
-0.356119 -1.24232 -0.0057 0
-0.356119 -1.24232 -0.0058 0
-0.356118 -1.24232 -0.0063 0
-0.356118 -1.24232 -0.0063 0
-0.353604 -1.24068 -0.0063 0
-0.356113 -1.24231 -0.0062 0
-0.356112 -1.24231 -0.0062 0
-0.356111 -1.24231 -0.0055 0
-0.356111 -1.24231 -0.0055 0
-0.35611 -1.24231 -0.0063 0
-0.356108 -1.24231 -0.0063 0
-0.356107 -1.24231 -0.0059 0
-0.356106 -1.24231 -0.0059 0
-0.356106 -1.24231 -0.0065 0
-0.356106 -1.24231 -0.0065 0
-0.356105 -1.24231 -0.0065 0
-0.356104 -1.24231 -0.0056 0
-0.356104 -1.24231 -0.0056 0
-0.356101 -1.24231 -0.0062 0
-0.3561 -1.24231 -0.0062 0
-0.356098 -1.2423 -0.0058 0
-0.356097 -1.2423 -0.0058 0
-0.356096 -1.2423 -0.0059 0
-0.356094 -1.2423 -0.0059 0
-0.356091 -1.2423 -0.0062 0
-0.356089 -1.2423 -0.0062 0
-0.356088 -1.2423 -0.0061 0
-0.356086 -1.2423 -0.0061 0
-0.356085 -1.2423 -0.0062 0
-0.356084 -1.2423 -0.0062 0
-0.356083 -1.2423 -0.0059 0
-0.356083 -1.2423 -0.0059 0
-0.356082 -1.2423 -0.0059 0
-0.356082 -1.2423 -0.0063 0
-0.356082 -1.2423 -0.0063 0
-0.35608 -1.2423 -0.0057 0
-0.35608 -1.2423 -0.0057 0
-0.356079 -1.2423 -0.0063 0
-0.356079 -1.2423 -0.0063 0
-0.356079 -1.2423 -0.0058 0
-0.356078 -1.2423 -0.0058 0
-0.356078 -1.2423 -0.006 0
-0.356078 -1.2423 -0.006 0
-0.356078 -1.2423 -0.0059 0
-0.356077 -1.2423 -0.0059 0
-0.356077 -1.2423 -0.0059 0
-0.356076 -1.2423 -0.0059 0
-0.356075 -1.2423 -0.0059 0
-0.356074 -1.2423 -0.0059 0
-0.356073 -1.2423 -0.0059 0
-0.356071 -1.24229 -0.0059 0
-0.356069 -1.24229 -0.0058 0
-0.356068 -1.24229 -0.0058 0
-0.356067 -1.24229 -0.0058 0
-0.356021 -1.24241 -0.0062 0
-0.35602 -1.24241 -0.0062 0
-0.356019 -1.24241 -0.0062 0
-0.357692 -1.2435 -0.0058 0
-0.356017 -1.24241 -0.0058 0
-0.356016 -1.24241 -0.0058 0
-0.356015 -1.24241 -0.0058 0
-0.356015 -1.24241 -0.0058 0
-0.356013 -1.24241 -0.0058 0
-0.356057 -1.24229 -0.0064 0
-0.356013 -1.24241 -0.0064 0
-0.356012 -1.24241 -0.0064 0
-0.356011 -1.24241 -0.0059 0
-0.356051 -1.24229 -0.0065 0
-0.356054 -1.24229 -0.0065 0
-0.356109 -1.24215 -0.0065 0
-0.356344 -1.24153 0.0075 0
-0.356416 -1.24132 0.044 0
-0.356529 -1.24098 0.044 0
-0.355756 -1.24018 -0.0058 0
-0.355752 -1.24014 -0.0058 0
-0.355751 -1.2401 0.0295 0
-0.355707 -1.24022 0.0295 0
-0.35568 -1.24037 0.0295 0
-0.355546 -1.24086 -0.000400003 0
-0.355506 -1.241 0.0047 0
-0.354666 -1.24047 0.0047 0
-0.354665 -1.24048 0.0047 0
-0.354668 -1.2405 -0.0091 0
-0.354671 -1.24051 -0.0071 0
-0.35463 -1.24063 -0.0071 0
-0.354585 -1.24075 -0.0067 0
-0.353751 -1.24019 -0.0067 0
-0.354507 -1.24097 -0.000500001 0
-0.353627 -1.24053 -0.000500001 0
-0.353531 -1.24076 0.006 0
-0.354316 -1.24142 0.006 0
-0.35347 -1.24088 -0.0046 0
-0.353281 -1.24134 -0.0046 0
-0.35411 -1.24188 0.000899999 0
-0.35406 -1.24199 0.000899999 0
-0.354061 -1.24198 -0.0042 0
-0.35323 -1.24143 -0.0042 0
-0.353238 -1.24144 -0.0051 0
-0.353247 -1.24144 -0.0051 0
-0.353251 -1.24144 -0.000600001 0
-0.353253 -1.24145 -0.000600001 0
-0.353252 -1.24145 -0.0041 0
-0.353252 -1.24145 -0.0041 0
-0.353252 -1.24144 -0.0032 0
-0.353256 -1.24144 -0.0032 0
-0.353257 -1.24144 -0.000200002 0
-0.353258 -1.24144 -0.000200002 0
