ply
format ascii 1.0
element vertex 1723
property float x
property float y
property float z
property float intensity
end_header
-1.27031 0.268748 -0.0024 0
-1.27031 0.268747 -0.0024 0
-1.27031 0.268747 -0.0028 0
-1.27031 0.268746 -0.0028 0
-1.27031 0.268744 -0.0025 0
-1.27031 0.268744 -0.0025 0
-1.27031 0.268744 -0.0028 0
-1.27031 0.268743 -0.0028 0
-1.27031 0.268743 -0.0028 0
-1.27031 0.268742 -0.0029 0
-1.2691 0.267144 -0.0029 0
-1.2703 0.268738 -0.0025 0
-1.2703 0.268738 -0.003 0
-1.2703 0.268737 -0.003 0
-1.2703 0.268736 -0.003 0
-1.2703 0.268735 -0.0023 0
-1.2703 0.268734 -0.0023 0
-1.2703 0.268732 -0.0028 0
-1.2703 0.26873 -0.0028 0
-1.2703 0.268729 -0.0027 0
-1.2703 0.268729 -0.0027 0
-1.2703 0.268728 -0.0027 0
-1.2703 0.268727 -0.0027 0
-1.2703 0.268727 -0.0027 0
-1.2703 0.268726 -0.003 0
-1.2703 0.268725 -0.003 0
-1.27041 0.268672 -0.0023 0
-1.27041 0.268671 -0.0023 0
-1.27041 0.26867 -0.0023 0
-1.26981 0.267872 -0.0029 0
-1.27041 0.268669 -0.0029 0
-1.27041 0.268668 -0.0016 0
-1.26981 0.26787 -0.0016 0
-1.27041 0.268668 -0.0016 0
-1.27041 0.268668 -0.0034 0
-1.27041 0.268667 -0.0034 0
-1.27041 0.268666 -0.0029 0
-1.27041 0.268666 -0.0029 0
-1.2704 0.268665 -0.0028 0
-1.2704 0.268664 -0.0028 0
-1.2704 0.268663 -0.0027 0
-1.2704 0.268661 -0.0027 0
-1.2704 0.268661 -0.002 0
-1.2704 0.26866 -0.002 0
-1.2704 0.26866 -0.0022 0
-1.2704 0.268659 -0.0022 0
-1.2704 0.268658 -0.0022 0
-1.2704 0.268657 -0.0032 0
-1.2704 0.268657 -0.0032 0
-1.2704 0.268656 -0.0032 0
-1.2704 0.268656 -0.0031 0
-1.2704 0.268654 -0.0029 0
-1.2704 0.268654 -0.0029 0
-1.2704 0.268653 -0.0025 0
-1.2704 0.268652 -0.0025 0
-1.27039 0.268651 -0.0025 0
-1.2704 0.26865 -0.0025 0
-1.2704 0.268649 -0.0028 0
-1.2704 0.268648 -0.0028 0
-1.2704 0.268647 -0.0028 0
-1.2704 0.268646 -0.0032 0
-1.2704 0.268646 -0.0032 0
-1.2704 0.268645 -0.0027 0
-1.2704 0.268645 -0.0027 0
-1.2704 0.268644 -0.0027 0
-1.2704 0.268643 -0.0026 0
-1.27039 0.268641 -0.0026 0
-1.27039 0.26864 -0.0022 0
-1.27039 0.26864 -0.0022 0
-1.27039 0.26864 -0.0026 0
-1.27039 0.268639 -0.0026 0
-1.26979 0.26784 -0.0024 0
-1.27039 0.268637 -0.0024 0
-1.27039 0.268636 -0.0024 0
-1.27039 0.268635 -0.0028 0
-1.27039 0.268634 -0.0028 0
-1.27039 0.268633 -0.0024 0
-1.27039 0.268631 -0.0024 0
-1.27039 0.268631 -0.0023 0
-1.27039 0.26863 -0.0023 0
-1.27039 0.268629 -0.0027 0
-1.26919 0.267033 -0.0027 0
-1.27039 0.268628 -0.0027 0
-1.27039 0.268628 -0.0028 0
-1.27039 0.268626 -0.0028 0
-1.27039 0.268624 -0.0026 0
-1.27039 0.268624 -0.0026 0
-1.27039 0.268624 -0.0028 0
-1.27039 0.268623 -0.0028 0
-1.27039 0.268622 -0.0023 0
-1.27039 0.268621 -0.0023 0
-1.27039 0.268621 -0.0025 0
-1.27039 0.268621 -0.0025 0
-1.27039 0.268619 -0.003 0
-1.27039 0.268618 -0.003 0
-1.27028 0.26867 -0.0026 0
-1.27028 0.268669 -0.0026 0
-1.26847 0.266274 -0.0027 0
-1.27039 0.268614 -0.0027 0
-1.27039 0.268613 -0.0027 0
-1.27028 0.268665 -0.0027 0
-1.27027 0.268663 -0.0023 0
-1.27027 0.268663 -0.0023 0
-1.27027 0.268662 -0.0023 0
-1.27027 0.268661 -0.0029 0
-1.27027 0.268659 -0.0025 0
-1.27027 0.268658 -0.0025 0
-1.27027 0.268657 -0.0025 0
-1.27027 0.268657 -0.0028 0
-1.27027 0.268656 -0.0028 0
-1.27026 0.268656 -0.0026 0
-1.27026 0.268655 -0.0026 0
-1.27026 0.268653 -0.0027 0
-1.27026 0.268652 -0.0027 0
-1.27026 0.268652 -0.0025 0
-1.27026 0.268651 -0.0025 0
-1.27026 0.26865 -0.0026 0
-1.27026 0.26865 -0.0026 0
-1.27026 0.268649 -0.0029 0
-1.27025 0.268648 -0.0029 0
-1.27025 0.268647 -0.0032 0
-1.27025 0.268645 -0.0032 0
-1.27025 0.268644 -0.0028 0
-1.27025 0.268643 -0.0028 0
-1.27025 0.268642 -0.0026 0
-1.27025 0.268642 -0.0026 0
-1.27025 0.268642 -0.0027 0
-1.27036 0.268587 -0.0027 0
-1.27036 0.268585 -0.0027 0
-1.27036 0.268585 -0.0027 0
-1.27036 0.268583 -0.003 0
-1.27036 0.268581 -0.003 0
-1.27036 0.268581 -0.0028 0
-1.27036 0.26858 -0.0028 0
-1.27036 0.268579 -0.0028 0
-1.27035 0.268576 -0.0026 0
-1.27035 0.268575 -0.0023 0
-1.27035 0.268574 -0.0023 0
-1.27035 0.268573 -0.0026 0
-1.27035 0.268572 -0.0026 0
-1.27035 0.268572 -0.0026 0
-1.27035 0.268571 -0.0026 0
-1.27035 0.268571 -0.0026 0
-1.27035 0.268571 -0.0025 0
-1.27035 0.268571 -0.0025 0
-1.27035 0.268569 -0.0025 0
-1.27035 0.268568 -0.0024 0
-1.27023 0.268619 -0.0024 0
-1.27035 0.268566 -0.0029 0
-1.27035 0.268566 -0.0029 0
-1.27035 0.268566 -0.0028 0
-1.27035 0.268567 -0.0028 0
-1.27035 0.268566 -0.0029 0
-1.27023 0.268618 -0.0029 0
-1.27023 0.268618 -0.0029 0
-1.27023 0.268618 -0.0028 0
-1.27035 0.268565 -0.0028 0
-1.27035 0.268565 -0.0028 0
-1.27035 0.268565 -0.0028 0
-1.27035 0.268565 -0.0029 0
-1.27023 0.268617 -0.0029 0
-1.27023 0.268617 -0.0025 0
-1.27023 0.268617 -0.0025 0
-1.27023 0.268616 -0.0025 0
-1.27023 0.268616 -0.0028 0
-1.26962 0.267817 -0.0028 0
-1.27023 0.268615 -0.0024 0
-1.27023 0.268615 -0.0024 0
-1.27023 0.268613 -0.0025 0
-1.27022 0.268612 -0.003 0
-1.27022 0.268611 -0.003 0
-1.27034 0.268559 -0.0021 0
-1.27033 0.268559 -0.0021 0
-1.27033 0.268558 -0.0021 0
-1.27033 0.268557 -0.0026 0
-1.27033 0.268555 -0.003 0
-1.27033 0.268554 -0.003 0
-1.27033 0.268553 -0.0028 0
-1.27022 0.268604 -0.0028 0
-1.27022 0.268601 -0.0029 0
-1.26962 0.267802 -0.0029 0
-1.27022 0.268599 -0.0029 0
-1.27022 0.268597 -0.0029 0
-1.27022 0.268596 -0.0028 0
-1.27022 0.268594 -0.0028 0
-1.27021 0.268592 -0.0025 0
-1.27021 0.26859 -0.0025 0
-1.27021 0.268586 -0.0026 0
-1.27021 0.268584 -0.0026 0
-1.27021 0.268582 -0.0025 0
-1.27021 0.26858 -0.0025 0
-1.27021 0.268578 -0.0024 0
-1.27021 0.268577 -0.0024 0
-1.27021 0.268575 -0.0023 0
-1.27021 0.268574 -0.0023 0
-1.27021 0.268572 -0.0023 0
-1.27032 0.268518 -0.0024 0
-1.27032 0.268515 -0.0024 0
-1.27032 0.268513 -0.0026 0
-1.27032 0.268511 -0.0026 0
-1.27032 0.268509 -0.0027 0
-1.27032 0.268508 -0.0027 0
-1.2702 0.268557 -0.0028 0
-1.2702 0.268557 -0.0028 0
-1.2702 0.268556 -0.0025 0
-1.2702 0.268555 -0.0025 0
-1.2702 0.268554 -0.0019 0
-1.2702 0.268553 -0.0019 0
-1.2702 0.268552 -0.0027 0
-1.2702 0.268552 -0.0027 0
-1.2702 0.268551 -0.0028 0
-1.2702 0.268551 -0.0028 0
-1.27031 0.268498 -0.0024 0
-1.27031 0.268497 -0.0026 0
-1.27031 0.268496 -0.0026 0
-1.27031 0.268496 -0.0026 0
-1.27031 0.268494 -0.0029 0
-1.27019 0.268546 -0.0026 0
-1.27019 0.268545 -0.0026 0
-1.27019 0.268544 -0.0026 0
-1.27019 0.268543 -0.0028 0
-1.27019 0.268542 -0.0028 0
-1.27019 0.26854 -0.0028 0
-1.27019 0.268539 -0.0028 0
-1.27019 0.268539 -0.0028 0
-1.27019 0.268538 -0.0026 0
-1.27019 0.268537 -0.0026 0
-1.27019 0.268536 -0.0026 0
-1.27018 0.268535 -0.0025 0
-1.27018 0.268535 -0.0025 0
-1.27018 0.268534 -0.0025 0
-1.27018 0.268533 -0.0028 0
-1.27018 0.268533 -0.0028 0
-1.27018 0.268531 -0.0028 0
-1.27018 0.26853 -0.0028 0
-1.27018 0.268527 -0.0025 0
-1.27018 0.268527 -0.0025 0
-1.27018 0.268526 -0.0029 0
-1.27018 0.268526 -0.0029 0
-1.27018 0.268525 -0.0021 0
-1.27018 0.268524 -0.0021 0
-1.27018 0.268523 -0.0021 0
-1.27018 0.268523 -0.0024 0
-1.27018 0.268522 -0.0024 0
-1.27018 0.268521 -0.0025 0
-1.27018 0.26852 -0.0025 0
-1.27018 0.268519 -0.0029 0
-1.27018 0.268517 -0.0029 0
-1.27018 0.268517 -0.0029 0
-1.27018 0.268516 -0.0027 0
-1.27018 0.268515 -0.0027 0
-1.27018 0.268513 -0.0027 0
-1.27018 0.268511 -0.0027 0
-1.27018 0.268511 -0.0025 0
-1.27018 0.26851 -0.0025 0
-1.27018 0.268508 -0.0024 0
-1.27018 0.268507 -0.0024 0
-1.27018 0.268505 -0.0029 0
-1.27018 0.268504 -0.0029 0
-1.27018 0.268502 -0.0027 0
-1.27018 0.268502 -0.0027 0
-1.27018 0.2685 -0.0027 0
-1.27018 0.2685 -0.0027 0
-1.27018 0.268499 -0.0026 0
-1.2703 0.268444 -0.0023 0
-1.2703 0.268442 -0.0023 0
-1.2703 0.26844 -0.0023 0
-1.26367 0.259662 -0.0029 0
-1.27029 0.268439 -0.0029 0
-1.27029 0.268438 -0.0029 0
-1.27029 0.268437 -0.003 0
-1.27029 0.268436 -0.003 0
-1.27029 0.268435 -0.0024 0
-1.27029 0.268434 -0.0024 0
-1.27029 0.268433 -0.0029 0
-1.27029 0.268432 -0.0029 0
-1.27029 0.268432 -0.0033 0
-1.27029 0.268431 -0.0033 0
-1.27029 0.26843 -0.0026 0
-1.27029 0.268428 -0.0026 0
-1.27029 0.268428 -0.0026 0
-1.27029 0.268427 -0.0027 0
-1.27029 0.268428 -0.0027 0
-1.27029 0.268429 -0.0035 0
-1.27028 0.26843 -0.0035 0
-1.27028 0.268429 -0.0024 0
-1.27028 0.268429 -0.0024 0
-1.27028 0.268429 -0.0024 0
-1.27028 0.268429 -0.0024 0
-1.27017 0.268479 -0.0022 0
-1.27017 0.268478 -0.0022 0
-1.27017 0.268477 -0.0022 0
-1.27017 0.268476 -0.0031 0
-1.27017 0.268476 -0.0031 0
-1.27017 0.268475 -0.0028 0
-1.27017 0.268474 -0.0028 0
-1.27028 0.268422 -0.0023 0
-1.27028 0.26842 -0.0023 0
-1.27028 0.268421 -0.0027 0
-1.27028 0.26842 -0.0027 0
-1.27028 0.26842 -0.0027 0
-1.27028 0.26842 -0.0025 0
-1.27028 0.268419 -0.0025 0
-1.27028 0.268419 -0.0031 0
-1.27016 0.268469 -0.0026 0
-1.27016 0.268468 -0.0026 0
-1.27027 0.268415 -0.0026 0
-1.27027 0.268414 -0.0024 0
-1.27027 0.268414 -0.0024 0
-1.27027 0.268413 -0.003 0
-1.27027 0.268411 -0.003 0
-1.27027 0.26841 -0.0026 0
-1.27027 0.268409 -0.0026 0
-1.27027 0.268408 -0.0026 0
-1.27026 0.268407 -0.0026 0
-1.27015 0.268459 -0.0026 0
-1.27026 0.268407 -0.0032 0
-1.27075 0.269257 -0.0032 0
-1.27026 0.268406 -0.0032 0
-1.27015 0.268458 -0.0031 0
-1.27015 0.268457 -0.0031 0
-1.27015 0.268456 -0.0029 0
-1.27015 0.268455 -0.0025 0
-1.26894 0.266858 -0.0025 0
-1.27015 0.268454 -0.0025 0
-1.27014 0.268453 -0.0025 0
-1.27014 0.268452 -0.0025 0
-1.27026 0.268399 -0.0025 0
-1.27014 0.268451 -0.0027 0
-1.27014 0.26845 -0.0028 0
-1.27026 0.268397 -0.0028 0
-1.27026 0.268396 -0.0028 0
-1.27026 0.268395 -0.0024 0
-1.27025 0.268392 -0.003 0
-1.27014 0.268443 -0.003 0
-1.27014 0.268443 -0.0022 0
-1.27014 0.268442 -0.0022 0
-1.27013 0.268442 -0.0022 0
-1.27013 0.268441 -0.0034 0
-1.27013 0.26844 -0.0034 0
-1.27013 0.268439 -0.0028 0
-1.27013 0.268436 -0.0028 0
-1.27013 0.268435 -0.0026 0
-1.27013 0.268434 -0.0026 0
-1.27013 0.268434 -0.003 0
-1.27013 0.268434 -0.003 0
-1.27025 0.26838 -0.003 0
-1.27025 0.268379 -0.0025 0
-1.27025 0.268377 -0.0025 0
-1.27025 0.268376 -0.0026 0
-1.27025 0.268375 -0.0026 0
-1.27025 0.268374 -0.003 0
-1.27024 0.268374 -0.003 0
-1.27024 0.268374 -0.003 0
-1.27024 0.268374 -0.0026 0
-1.27024 0.268374 -0.0028 0
-1.27024 0.268373 -0.0028 0
-1.27024 0.268372 -0.0028 0
-1.27024 0.268371 -0.0024 0
-1.27024 0.26837 -0.0024 0
-1.27024 0.268368 -0.0028 0
-1.27024 0.268367 -0.0029 0
-1.27024 0.268365 -0.0029 0
-1.27024 0.268364 -0.0027 0
-1.27024 0.268363 -0.0027 0
-1.27024 0.268362 -0.0026 0
-1.27023 0.26836 -0.0026 0
-1.27023 0.268359 -0.0023 0
-1.27023 0.268358 -0.0023 0
-1.27023 0.268358 -0.0027 0
-1.27023 0.268356 -0.0027 0
-1.27023 0.268355 -0.0027 0
-1.27023 0.268354 -0.0027 0
-1.27023 0.268353 -0.0023 0
-1.27023 0.268353 -0.0023 0
-1.27023 0.268352 -0.0024 0
-1.27023 0.268352 -0.0024 0
-1.27023 0.26835 -0.0027 0
-1.27023 0.26835 -0.0027 0
-1.27023 0.26835 -0.0024 0
-1.27023 0.268349 -0.0024 0
-1.27023 0.268349 -0.0029 0
-1.27023 0.268349 -0.0029 0
-1.27023 0.268348 -0.0023 0
-1.27023 0.268347 -0.0023 0
-1.27023 0.268347 -0.0023 0
-1.27023 0.268347 -0.0023 0
-1.27023 0.268347 -0.0028 0
-1.27022 0.268347 -0.0028 0
-1.27022 0.268346 -0.0028 0
-1.27022 0.268345 -0.0027 0
-1.27022 0.268345 -0.0027 0
-1.27022 0.268344 -0.0023 0
-1.27022 0.268342 -0.0023 0
-1.27022 0.26834 -0.0025 0
-1.27022 0.26834 -0.0025 0
-1.27022 0.268339 -0.0025 0
-1.27022 0.268338 -0.0024 0
-1.27022 0.268338 -0.0024 0
-1.27022 0.268337 -0.0024 0
-1.27022 0.268337 -0.0028 0
-1.26841 0.265941 -0.0028 0
-1.27021 0.268335 -0.0028 0
-1.27021 0.268335 -0.0028 0
-1.27021 0.268334 -0.0027 0
-1.27021 0.268333 -0.0027 0
-1.27021 0.268333 -0.0027 0
-1.27021 0.268332 -0.003 0
-1.27021 0.268331 -0.003 0
-1.27021 0.268331 -0.0024 0
-1.27021 0.26833 -0.003 0
-1.27021 0.26833 -0.003 0
-1.27021 0.26833 -0.003 0
-1.27021 0.268329 -0.0031 0
-1.27021 0.268329 -0.0031 0
-1.27021 0.268328 -0.0031 0
-1.27021 0.268327 -0.0027 0
-1.2702 0.268326 -0.0027 0
-1.2702 0.268324 -0.0025 0
-1.2702 0.268324 -0.0025 0
-1.2702 0.268323 -0.0028 0
-1.2702 0.268323 -0.0028 0
-1.2702 0.268322 -0.0024 0
-1.2702 0.268321 -0.0024 0
-1.2702 0.268321 -0.0031 0
-1.2702 0.268321 -0.0031 0
-1.2702 0.26832 -0.0031 0
-1.2702 0.26832 -0.0025 0
-1.2702 0.26832 -0.0025 0
-1.2702 0.268319 -0.0027 0
-1.2702 0.268319 -0.0027 0
-1.2702 0.268318 -0.0027 0
-1.2702 0.268317 -0.0028 0
-1.2702 0.268317 -0.0028 0
-1.2702 0.268317 -0.0026 0
-1.2702 0.268317 -0.0026 0
-1.2702 0.268317 -0.0026 0
-1.2702 0.268316 -0.0022 0
-1.2702 0.268316 -0.0026 0
-1.27019 0.268316 -0.0026 0
-1.27019 0.268316 -0.0026 0
-1.26839 0.265922 -0.0025 0
-1.27019 0.268315 -0.0025 0
-1.27019 0.268315 -0.0025 0
-1.27019 0.268315 -0.0025 0
-1.27019 0.268315 -0.0025 0
-1.27019 0.268314 -0.0026 0
-1.27019 0.268313 -0.0026 0
-1.27019 0.268312 -0.0023 0
-1.27019 0.268311 -0.0023 0
-1.27019 0.26831 -0.0021 0
-1.27019 0.26831 -0.0021 0
-1.27019 0.26831 -0.0024 0
-1.27019 0.26831 -0.0024 0
-1.27019 0.26831 -0.0024 0
-1.27018 0.268308 -0.0027 0
-1.27018 0.268307 -0.0024 0
-1.27018 0.268306 -0.0024 0
-1.27018 0.268305 -0.0024 0
-1.26958 0.267506 -0.0027 0
-1.27018 0.268304 -0.0027 0
-1.27018 0.268304 -0.0025 0
-1.27018 0.268304 -0.0025 0
-1.27018 0.268304 -0.0027 0
-1.27018 0.268304 -0.0027 0
-1.27018 0.268303 -0.0026 0
-1.27018 0.268303 -0.0026 0
-1.27018 0.268302 -0.0026 0
-1.27018 0.268301 -0.0024 0
-1.27018 0.268299 -0.0031 0
-1.27018 0.268298 -0.0031 0
-1.27018 0.268297 -0.0031 0
-1.27018 0.268296 -0.0025 0
-1.27018 0.268295 -0.0025 0
-1.27018 0.268295 -0.003 0
-1.26837 0.265901 -0.003 0
-1.27018 0.268295 -0.003 0
-1.27017 0.268294 -0.0027 0
-1.27017 0.268293 -0.0027 0
-1.27017 0.268292 -0.0027 0
-1.27017 0.26829 -0.0028 0
-1.27017 0.268288 -0.0025 0
-1.27017 0.268286 -0.0025 0
-1.27017 0.268285 -0.0029 0
-1.27017 0.268283 -0.0029 0
-1.27017 0.268282 -0.0026 0
-1.27017 0.268281 -0.0026 0
-1.27017 0.268279 -0.0027 0
-1.27017 0.268279 -0.0027 0
-1.27017 0.268277 -0.003 0
-1.27017 0.268276 -0.003 0
-1.27017 0.268275 -0.0026 0
-1.27017 0.268274 -0.0026 0
-1.27017 0.268273 -0.0026 0
-1.26897 0.266676 -0.0032 0
-1.27017 0.268271 -0.0032 0
-1.26897 0.266675 -0.0029 0
-1.27017 0.26827 -0.0029 0
-1.27017 0.268269 -0.0026 0
-1.27017 0.268268 -0.0026 0
-1.27017 0.268266 -0.0031 0
-1.27017 0.268265 -0.0031 0
-1.27017 0.268264 -0.0031 0
-1.27005 0.268314 -0.0022 0
-1.27005 0.268314 -0.0026 0
-1.27005 0.268314 -0.0026 0
-1.27005 0.268314 -0.0026 0
-1.27017 0.268262 -0.0027 0
-1.27016 0.26826 -0.0026 0
-1.27005 0.268311 -0.0026 0
-1.27005 0.268311 -0.0026 0
-1.27016 0.268257 -0.0025 0
-1.27016 0.268257 -0.0026 0
-1.27016 0.268257 -0.0026 0
-1.29487 0.300973 -0.0026 0
-1.27016 0.268257 -0.0028 0
-1.26955 0.267459 -0.0028 0
-1.27016 0.268256 -0.0028 0
-1.27016 0.268256 -0.0028 0
-1.27004 0.268308 -0.0025 0
-1.27004 0.268307 -0.0025 0
-1.27004 0.268305 -0.0027 0
-1.27004 0.268304 -0.0027 0
-1.27004 0.268304 -0.0025 0
-1.27004 0.268304 -0.0025 0
-1.27004 0.268304 -0.0028 0
-1.27004 0.268304 -0.0028 0
-1.27004 0.268302 -0.0023 0
-1.27004 0.268302 -0.0023 0
-1.27004 0.268301 -0.0023 0
-1.27004 0.268298 -0.0028 0
-1.27004 0.268297 -0.0027 0
-1.27004 0.268296 -0.0027 0
-1.27004 0.268295 -0.0027 0
-1.27004 0.268294 -0.0023 0
-1.27003 0.268293 -0.0023 0
-1.27003 0.268292 -0.0029 0
-1.27003 0.268291 -0.0028 0
-1.27003 0.268292 -0.0028 0
-1.27003 0.268292 -0.0028 0
-1.27003 0.268291 -0.0029 0
-1.27003 0.26829 -0.0029 0
-1.27003 0.268289 -0.0025 0
-1.27003 0.268289 -0.0025 0
-1.27003 0.268288 -0.0025 0
-1.27003 0.268288 -0.0024 0
-1.27003 0.268287 -0.0024 0
-1.27003 0.268286 -0.0026 0
-1.27003 0.268285 -0.0026 0
-1.27003 0.268283 -0.0025 0
-1.27003 0.268283 -0.0025 0
-1.27003 0.268282 -0.0023 0
-1.27003 0.268282 -0.0023 0
-1.27003 0.268282 -0.0023 0
-1.27003 0.268282 -0.0029 0
-1.27002 0.268282 -0.0029 0
-1.27002 0.26828 -0.0026 0
-1.27002 0.268278 -0.0026 0
-1.27002 0.268277 -0.0031 0
-1.27002 0.268276 -0.0031 0
-1.27014 0.268223 -0.0031 0
-1.27013 0.26822 -0.0027 0
-1.26893 0.266623 -0.0027 0
-1.27013 0.268218 -0.0027 0
-1.27013 0.268216 -0.0029 0
-1.27013 0.268215 -0.0029 0
-1.27013 0.268214 -0.0029 0
-1.27013 0.268213 -0.0026 0
-1.27013 0.268211 -0.0026 0
-1.27013 0.26821 -0.0028 0
-1.27001 0.268261 -0.0028 0
-1.27013 0.268207 -0.0028 0
-1.26892 0.266611 -0.0028 0
-1.27001 0.268258 -0.0028 0
-1.27012 0.268204 -0.0025 0
-1.27012 0.268203 -0.0025 0
-1.27012 0.268201 -0.0023 0
-1.27012 0.268201 -0.0023 0
-1.27012 0.268198 -0.0028 0
-1.27012 0.268199 -0.0028 0
-1.27012 0.268198 -0.0024 0
-1.27012 0.268196 -0.0024 0
-1.27001 0.268248 -0.0024 0
-1.26892 0.266599 -0.0024 0
-1.27012 0.268194 -0.0024 0
-1.27012 0.268193 -0.0028 0
-1.27 0.268243 -0.0028 0
-1.27 0.268241 -0.0026 0
-1.27 0.268241 -0.0026 0
-1.27 0.26824 -0.0027 0
-1.27 0.268239 -0.0027 0
-1.27 0.268238 -0.0027 0
-1.27 0.268237 -0.0022 0
-1.27 0.268237 -0.0022 0
-1.27 0.268236 -0.0027 0
-1.26999 0.268236 -0.0027 0
-1.26999 0.268236 -0.003 0
-1.26999 0.268235 -0.003 0
-1.26999 0.268234 -0.0023 0
-1.26999 0.268233 -0.0023 0
-1.26999 0.268233 -0.0031 0
-1.27 0.268233 -0.0031 0
-1.27 0.268233 -0.0027 0
-1.27 0.268233 -0.0027 0
-1.27 0.268232 -0.0031 0
-1.27 0.268231 -0.0031 0
-1.27 0.268231 -0.0025 0
-1.27 0.268229 -0.0029 0
-1.27 0.268228 -0.0029 0
-1.26999 0.268227 -0.0029 0
-1.26999 0.268226 -0.0029 0
-1.26999 0.268223 -0.0029 0
-1.26999 0.268221 -0.0022 0
-1.26999 0.26822 -0.0022 0
-1.26999 0.268219 -0.0026 0
-1.26999 0.268217 -0.0027 0
-1.26999 0.268216 -0.0027 0
-1.26999 0.268215 -0.0027 0
-1.26999 0.268214 -0.0028 0
-1.26998 0.268212 -0.0028 0
-1.26998 0.268211 -0.0024 0
-1.26998 0.26821 -0.0024 0
-1.26998 0.268207 -0.0029 0
-1.26998 0.268207 -0.0029 0
-1.26998 0.268205 -0.0029 0
-1.26998 0.268204 -0.0029 0
-1.26998 0.268202 -0.0023 0
-1.26998 0.268201 -0.0023 0
-1.26998 0.268199 -0.0029 0
-1.26998 0.268198 -0.0029 0
-1.26998 0.268197 -0.0023 0
-1.26998 0.268195 -0.0028 0
-1.26998 0.268193 -0.0028 0
-1.26998 0.268192 -0.0028 0
-1.26998 0.26819 -0.0027 0
-1.26998 0.268189 -0.0027 0
-1.26998 0.268187 -0.0027 0
-1.26998 0.268186 -0.0027 0
-1.26998 0.268185 -0.0029 0
-1.26998 0.268184 -0.0029 0
-1.26998 0.268183 -0.0029 0
-1.26998 0.268182 -0.0032 0
-1.26998 0.268182 -0.0032 0
-1.26997 0.268181 -0.0027 0
-1.26998 0.26818 -0.0027 0
-1.26998 0.26818 -0.0026 0
-1.26998 0.268179 -0.0026 0
-1.26997 0.268177 -0.0031 0
-1.26997 0.268175 -0.0031 0
-1.26997 0.268173 -0.0028 0
-1.26997 0.26817 -0.0028 0
-1.26997 0.26817 -0.0031 0
-1.26997 0.26817 -0.0031 0
-1.26997 0.268169 -0.0026 0
-1.26997 0.268169 -0.0026 0
-1.26997 0.268169 -0.0026 0
-1.26997 0.268168 -0.0026 0
-1.26997 0.268168 -0.0025 0
-1.26997 0.268167 -0.0025 0
-1.26996 0.268165 -0.0025 0
-1.26996 0.268164 -0.0028 0
-1.26996 0.268163 -0.0028 0
-1.26996 0.268161 -0.0032 0
-1.26996 0.26816 -0.0032 0
-1.26996 0.26816 -0.0026 0
-1.26996 0.26816 -0.0026 0
-1.26996 0.26816 -0.0027 0
-1.26996 0.26816 -0.0027 0
-1.26996 0.268159 -0.0027 0
-1.26996 0.268159 -0.0026 0
-1.26996 0.268158 -0.0026 0
-1.26996 0.268158 -0.0026 0
-1.26996 0.268157 -0.0019 0
-1.26996 0.268155 -0.0023 0
-1.26995 0.268154 -0.0023 0
-1.26995 0.268153 -0.0024 0
-1.26995 0.268153 -0.0024 0
-1.26995 0.268152 -0.0024 0
-1.26995 0.268152 -0.0026 0
-1.26995 0.268151 -0.0026 0
-1.26995 0.268151 -0.0025 0
-1.26995 0.26815 -0.0025 0
-1.26995 0.26815 -0.0025 0
-1.26995 0.268149 -0.003 0
-1.26995 0.268149 -0.003 0
-1.26994 0.268147 -0.0028 0
-1.26994 0.268144 -0.0028 0
-1.26994 0.268143 -0.0028 0
-1.26994 0.268142 -0.0028 0
-1.26994 0.268142 -0.0028 0
-1.26994 0.26814 -0.0027 0
-1.26994 0.268139 -0.0027 0
-1.26994 0.268138 -0.0028 0
-1.26994 0.268137 -0.0028 0
-1.26994 0.268137 -0.0028 0
-1.26994 0.268135 -0.0023 0
-1.26994 0.268134 -0.0027 0
-1.26994 0.268133 -0.0027 0
-1.26994 0.268132 -0.0028 0
-1.26994 0.268131 -0.0028 0
-1.26994 0.26813 -0.0028 0
-1.26994 0.268127 -0.0031 0
-1.26994 0.268124 -0.0031 0
-1.26994 0.268122 -0.0026 0
-1.26994 0.26812 -0.0026 0
-1.26993 0.268119 -0.0026 0
-1.26994 0.268118 -0.0026 0
-1.26994 0.268116 -0.0026 0
-1.26994 0.268114 -0.0026 0
-1.26993 0.268112 -0.0028 0
-1.26993 0.26811 -0.0028 0
-1.26993 0.268108 -0.0028 0
-1.26993 0.268106 -0.0028 0
-1.26993 0.268105 -0.0028 0
-1.26993 0.268104 -0.0021 0
-1.26993 0.268103 -0.0021 0
-1.26993 0.268103 -0.0025 0
-1.26993 0.268102 -0.0025 0
-1.26933 0.267303 -0.0025 0
-1.26993 0.268099 -0.0027 0
-1.26993 0.268099 -0.0027 0
-1.26993 0.268098 -0.0027 0
-1.26993 0.268097 -0.0027 0
-1.26993 0.268095 -0.0029 0
-1.26993 0.268094 -0.0029 0
-1.26993 0.268093 -0.0027 0
-1.26993 0.268092 -0.0027 0
-1.26993 0.268089 -0.0027 0
-1.26993 0.268089 -0.0027 0
-1.26993 0.268089 -0.0021 0
-1.26993 0.268088 -0.0021 0
-1.26993 0.268087 -0.0021 0
-1.26872 0.266489 -0.0027 0
-1.26993 0.268084 -0.0027 0
-1.26993 0.268084 -0.0026 0
-1.26993 0.268083 -0.0026 0
-1.26993 0.268082 -0.0026 0
-1.26993 0.268081 -0.0028 0
-1.26992 0.26808 -0.0028 0
-1.26992 0.26808 -0.0022 0
-1.26992 0.268078 -0.0022 0
-1.26992 0.268078 -0.0024 0
-1.26992 0.268077 -0.0024 0
-1.26992 0.268077 -0.0023 0
-1.26992 0.268076 -0.0023 0
-1.26992 0.268075 -0.0023 0
-1.26992 0.268075 -0.0028 0
-1.26992 0.268074 -0.0028 0
-1.26932 0.267275 -0.0024 0
-1.26932 0.267274 -0.0024 0
-1.26992 0.268072 -0.0024 0
-1.26992 0.268071 -0.0025 0
-1.26269 0.258493 -0.0029 0
-1.26992 0.268069 -0.0029 0
-1.26992 0.268067 -0.0029 0
-1.26992 0.268067 -0.0024 0
-1.26992 0.268066 -0.0024 0
-1.26992 0.268065 -0.0028 0
-1.26992 0.268064 -0.0028 0
-1.26992 0.268063 -0.0026 0
-1.27003 0.26801 -0.0026 0
-1.27003 0.26801 -0.0022 0
-1.27003 0.268009 -0.0022 0
-1.27003 0.268009 -0.0022 0
-1.27003 0.268008 -0.0028 0
-1.27003 0.268008 -0.0028 0
-1.27003 0.268008 -0.0022 0
-1.27003 0.268007 -0.0022 0
-1.27003 0.268007 -0.0023 0
-1.27003 0.268006 -0.0023 0
-1.27003 0.268005 -0.0025 0
-1.27003 0.268005 -0.0025 0
-1.26992 0.268056 -0.0025 0
-1.26991 0.268056 -0.0028 0
-1.26992 0.268055 -0.0028 0
-1.26992 0.268054 -0.003 0
-1.27003 0.267999 -0.003 0
-1.27003 0.267997 -0.0027 0
-1.26991 0.268049 -0.0027 0
-1.26991 0.268048 -0.0028 0
-1.2681 0.265653 -0.0028 0
-1.26991 0.268046 -0.0028 0
-1.26991 0.268044 -0.0028 0
-1.26991 0.268043 -0.0034 0
-1.26991 0.268041 -0.0034 0
-1.26991 0.26804 -0.0032 0
-1.26991 0.268039 -0.0022 0
-1.26991 0.268038 -0.0022 0
-1.26991 0.268038 -0.0022 0
-1.26991 0.268037 -0.0028 0
-1.26991 0.268036 -0.003 0
-1.26991 0.268036 -0.003 0
-1.26991 0.268035 -0.003 0
-1.26991 0.268034 -0.0028 0
-1.2699 0.268032 -0.0027 0
-1.2699 0.268032 -0.0027 0
-1.2699 0.268031 -0.003 0
-1.2699 0.268031 -0.003 0
-1.2699 0.268031 -0.0024 0
-1.2699 0.26803 -0.0024 0
-1.2699 0.26803 -0.0024 0
-1.2699 0.268029 -0.0031 0
-1.2699 0.268028 -0.0026 0
-1.26989 0.268028 -0.0026 0
-1.26989 0.268028 -0.0026 0
-1.27001 0.267974 -0.0024 0
-1.27001 0.267973 -0.0025 0
-1.27001 0.267972 -0.0025 0
-1.27001 0.267972 -0.0028 0
-1.27001 0.267972 -0.0028 0
-1.27001 0.267972 -0.0024 0
-1.27001 0.267972 -0.0024 0
-1.27001 0.267973 -0.0027 0
-1.27001 0.267973 -0.0026 0
-1.27 0.267973 -0.0026 0
-1.27 0.267972 -0.0026 0
-1.27 0.26797 -0.0026 0
-1.27 0.267968 -0.0026 0
-1.27 0.267967 -0.0026 0
-1.24589 0.236049 -0.0026 0
-1.27 0.267967 -0.0025 0
-1.27 0.267967 -0.0025 0
-1.27 0.267966 -0.0029 0
-1.27 0.267965 -0.0029 0
-1.27 0.267964 -0.0029 0
-1.27 0.267963 -0.0026 0
-1.27 0.267963 -0.0026 0
-1.27 0.267962 -0.003 0
-1.27 0.267961 -0.003 0
-1.27 0.26796 -0.0025 0
-1.26999 0.267959 -0.0025 0
-1.26999 0.267958 -0.0027 0
-1.26999 0.267955 -0.0027 0
-1.26999 0.267954 -0.0027 0
-1.26999 0.267952 -0.0027 0
-1.26999 0.26795 -0.0026 0
-1.26999 0.267948 -0.0026 0
-1.26999 0.267947 -0.0026 0
-1.26999 0.267947 -0.0026 0
-1.26999 0.267946 -0.0026 0
-1.26999 0.267945 -0.0027 0
-1.26999 0.267944 -0.0027 0
-1.26999 0.267943 -0.0027 0
-1.26999 0.267942 -0.0027 0
-1.26998 0.267942 -0.0028 0
-1.26998 0.267941 -0.0028 0
-1.26998 0.26794 -0.0028 0
-1.26998 0.267938 -0.0021 0
-1.26998 0.267938 -0.0021 0
-1.26998 0.267937 -0.0029 0
-1.26998 0.267936 -0.0029 0
-1.26998 0.267936 -0.0029 0
-1.26998 0.267935 -0.0024 0
-1.26998 0.267935 -0.0024 0
-1.26998 0.267934 -0.0025 0
-1.26998 0.267932 -0.0025 0
-1.26998 0.267931 -0.0025 0
-1.26997 0.267929 -0.0025 0
-1.26997 0.267928 -0.0029 0
-1.26997 0.267928 -0.0029 0
-1.26997 0.267926 -0.0029 0
-1.26997 0.267924 -0.0027 0
-1.26997 0.267924 -0.0022 0
-1.26997 0.267923 -0.0022 0
-1.26997 0.267922 -0.0026 0
-1.26996 0.267922 -0.0026 0
-1.26996 0.267921 -0.0026 0
-1.26996 0.267921 -0.0026 0
-1.26996 0.267921 -0.0025 0
-1.26815 0.265527 -0.0025 0
-1.26996 0.267921 -0.003 0
-1.26996 0.267918 -0.003 0
-1.26996 0.267917 -0.0025 0
-1.26996 0.267917 -0.0025 0
-1.26875 0.266321 -0.0029 0
-1.26996 0.267915 -0.0029 0
-1.26996 0.267914 -0.0028 0
-1.26996 0.267914 -0.0028 0
-1.26996 0.267913 -0.002 0
-1.26996 0.267912 -0.002 0
-1.26996 0.267911 -0.0026 0
-1.26996 0.26791 -0.0026 0
-1.26984 0.267961 -0.0027 0
-1.26984 0.267957 -0.0027 0
-1.26984 0.267956 -0.0029 0
-1.26984 0.267956 -0.0029 0
-1.26984 0.267954 -0.0029 0
-1.26995 0.2679 -0.0029 0
-1.26995 0.267897 -0.0025 0
-1.26995 0.267896 -0.0025 0
-1.26995 0.267895 -0.0028 0
-1.26995 0.267892 -0.0028 0
-1.26814 0.265497 -0.0027 0
-1.26995 0.26789 -0.0027 0
-1.26995 0.26789 -0.0026 0
-1.26995 0.26789 -0.0026 0
-1.26995 0.26789 -0.0026 0
-1.26271 0.258315 -0.0027 0
-1.26995 0.26789 -0.0027 0
-1.26983 0.267941 -0.0028 0
-1.26983 0.267941 -0.0028 0
-1.26994 0.267887 -0.0028 0
-1.26994 0.267886 -0.0025 0
-1.26994 0.267885 -0.0025 0
-1.26994 0.267885 -0.0025 0
-1.26994 0.267884 -0.0025 0
-1.26994 0.267883 -0.0028 0
-1.26994 0.267882 -0.0028 0
-1.26994 0.26788 -0.0023 0
-1.26994 0.267879 -0.0023 0
-1.26994 0.267878 -0.0024 0
-1.26994 0.267877 -0.0024 0
-1.26994 0.267876 -0.0026 0
-1.26994 0.267875 -0.0026 0
-1.26994 0.267874 -0.0021 0
-1.26994 0.267873 -0.0021 0
-1.26982 0.267923 -0.0027 0
-1.26982 0.267921 -0.0027 0
-1.26982 0.26792 -0.0027 0
-1.26982 0.26792 -0.0027 0
-1.26993 0.267866 -0.0023 0
-1.26982 0.267918 -0.0023 0
-1.26982 0.267917 -0.0028 0
-1.26982 0.267916 -0.0028 0
-1.26982 0.267915 -0.0028 0
-1.26993 0.267862 -0.0028 0
-1.26993 0.267861 -0.0025 0
-1.26993 0.267859 -0.0028 0
-1.26993 0.267857 -0.0028 0
-1.26993 0.267856 -0.0028 0
-1.26993 0.267855 -0.0023 0
-1.26992 0.267854 -0.0026 0
-1.26992 0.267853 -0.0026 0
-1.26992 0.267852 -0.0026 0
-1.26992 0.267851 -0.0029 0
-1.26992 0.267851 -0.0026 0
-1.26992 0.26785 -0.0026 0
-1.26992 0.267851 -0.0026 0
-1.26981 0.267902 -0.0026 0
-1.2698 0.267899 -0.0027 0
-1.2698 0.267898 -0.0027 0
-1.2698 0.267897 -0.003 0
-1.2698 0.267896 -0.0024 0
-1.2698 0.267895 -0.0024 0
-1.2698 0.267894 -0.0024 0
-1.2698 0.267894 -0.0029 0
-1.2698 0.267893 -0.0029 0
-1.2698 0.267892 -0.0026 0
-1.2698 0.267891 -0.0026 0
-1.26979 0.267889 -0.0031 0
-1.26979 0.267888 -0.0031 0
-1.26979 0.267886 -0.0027 0
-1.26991 0.267832 -0.0027 0
-1.26991 0.267831 -0.0027 0
-1.26991 0.267829 -0.0025 0
-1.2699 0.267828 -0.0024 0
-1.2699 0.267827 -0.0024 0
-1.2699 0.267827 -0.0024 0
-1.2699 0.267824 -0.0025 0
-1.2699 0.267822 -0.0032 0
-1.2699 0.26782 -0.0032 0
-1.2699 0.267819 -0.0032 0
-1.2699 0.267819 -0.003 0
-1.2699 0.267818 -0.0028 0
-1.2699 0.267817 -0.0028 0
-1.2699 0.267817 -0.0028 0
-1.2699 0.267817 -0.0023 0
-1.2699 0.267816 -0.0022 0
-1.2699 0.267816 -0.0022 0
-1.2699 0.267816 -0.0022 0
-1.2699 0.267816 -0.0024 0
-1.2699 0.267815 -0.0027 0
-1.2699 0.267815 -0.0027 0
-1.2699 0.267815 -0.0027 0
-1.2699 0.267812 -0.0032 0
-1.2699 0.267811 -0.0027 0
-1.2699 0.26781 -0.0027 0
-1.26978 0.26786 -0.0025 0
-1.26978 0.267859 -0.0025 0
-1.26978 0.267858 -0.0023 0
-1.26978 0.267857 -0.0023 0
-1.26978 0.267856 -0.0028 0
-1.26978 0.267855 -0.0028 0
-1.26978 0.267854 -0.0022 0
-1.26978 0.267854 -0.0022 0
-1.26978 0.267852 -0.0029 0
-1.26857 0.266255 -0.0029 0
-1.26978 0.26785 -0.0029 0
-1.26978 0.267849 -0.0029 0
-1.26978 0.267847 -0.0021 0
-1.26978 0.267847 -0.0021 0
-1.26978 0.267847 -0.0023 0
-1.26977 0.267846 -0.0023 0
-1.26989 0.267792 -0.0029 0
-1.26989 0.267792 -0.0029 0
-1.26989 0.267791 -0.0031 0
-1.26989 0.267791 -0.0031 0
-1.26989 0.267791 -0.0031 0
-1.26989 0.26779 -0.0027 0
-1.26989 0.26779 -0.0027 0
-1.26989 0.267789 -0.003 0
-1.26988 0.267788 -0.003 0
-1.26988 0.267787 -0.0032 0
-1.26988 0.267787 -0.0032 0
-1.26988 0.267786 -0.0027 0
-1.26988 0.267786 -0.0027 0
-1.26977 0.267837 -0.0027 0
-1.26988 0.267783 -0.0026 0
-1.26988 0.267782 -0.0031 0
-1.26988 0.267782 -0.0031 0
-1.26988 0.267781 -0.0031 0
-1.26988 0.267781 -0.0027 0
-1.26988 0.26778 -0.0027 0
-1.26988 0.267779 -0.003 0
-1.26988 0.267779 -0.003 0
-1.26987 0.267778 -0.003 0
-1.26976 0.267828 -0.0029 0
-1.26976 0.267828 -0.0026 0
-1.26976 0.267827 -0.0026 0
-1.26976 0.267825 -0.0026 0
-1.26976 0.267824 -0.0029 0
-1.26976 0.267821 -0.0024 0
-1.26976 0.26782 -0.0024 0
-1.26976 0.267819 -0.0024 0
-1.26976 0.267819 -0.0025 0
-1.26976 0.267819 -0.0025 0
-1.26975 0.267818 -0.0029 0
-1.26975 0.267817 -0.0029 0
-1.26975 0.267816 -0.0029 0
-1.26975 0.267815 -0.0027 0
-1.26975 0.267814 -0.0027 0
-1.26975 0.267813 -0.0027 0
-1.26794 0.265418 -0.0027 0
-1.26975 0.267812 -0.0027 0
-1.26975 0.267812 -0.0025 0
-1.26975 0.267811 -0.0025 0
-1.26975 0.26781 -0.0029 0
-1.26975 0.267806 -0.0029 0
-1.26855 0.266208 -0.0025 0
-1.26975 0.267803 -0.0025 0
-1.26975 0.2678 -0.0027 0
-1.26975 0.267799 -0.0027 0
-1.26975 0.267798 -0.0025 0
-1.26975 0.267797 -0.0025 0
-1.26975 0.267796 -0.0027 0
-1.26975 0.267794 -0.0027 0
-1.26263 0.258166 -0.0027 0
-1.26986 0.267741 -0.0027 0
-1.26986 0.267739 -0.0031 0
-1.26986 0.267739 -0.0031 0
-1.26986 0.267737 -0.0028 0
-1.26986 0.267737 -0.0028 0
-1.26975 0.267788 -0.0024 0
-1.26975 0.267787 -0.0024 0
-1.26986 0.267734 -0.0033 0
-1.26986 0.267733 -0.0033 0
-1.26986 0.26773 -0.002 0
-1.26986 0.267729 -0.002 0
-1.26986 0.267728 -0.0025 0
-1.26986 0.267727 -0.0027 0
-1.26986 0.267726 -0.0027 0
-1.26986 0.267725 -0.0027 0
-1.26985 0.267725 -0.0026 0
-1.26985 0.267724 -0.0024 0
-1.26985 0.267722 -0.0024 0
-1.26985 0.267721 -0.0024 0
-1.26985 0.26772 -0.0026 0
-1.26985 0.267719 -0.0022 0
-1.26985 0.267718 -0.0022 0
-1.26974 0.267769 -0.0022 0
-1.26973 0.267768 -0.003 0
-1.26985 0.267714 -0.003 0
-1.26985 0.267713 -0.0024 0
-1.27045 0.268509 -0.0024 0
-1.26973 0.267762 -0.0024 0
-1.26973 0.267761 -0.0027 0
-1.26973 0.267759 -0.0029 0
-1.26973 0.267758 -0.0029 0
-1.26973 0.267757 -0.0029 0
-1.26973 0.267756 -0.0026 0
-1.26973 0.267755 -0.0026 0
-1.26973 0.267753 -0.0029 0
-1.26973 0.267752 -0.0029 0
-1.26972 0.267752 -0.0026 0
-1.26972 0.267752 -0.0026 0
-1.26972 0.267752 -0.0031 0
-1.26972 0.267753 -0.0031 0
-1.26972 0.267752 -0.0031 0
-1.26972 0.267751 -0.0023 0
-1.26972 0.267751 -0.0023 0
-1.26972 0.267751 -0.0023 0
-1.26972 0.267751 -0.0028 0
-1.26972 0.26775 -0.0028 0
-1.26972 0.267748 -0.0025 0
-1.26972 0.267747 -0.0025 0
-1.26972 0.267746 -0.0027 0
-1.26911 0.266947 -0.0026 0
-1.26971 0.267745 -0.0026 0
-1.26971 0.267744 -0.0026 0
-1.26971 0.267743 -0.003 0
-1.26971 0.267742 -0.003 0
-1.26971 0.26774 -0.0026 0
-1.26971 0.26774 -0.0026 0
-1.26971 0.267739 -0.0026 0
-1.26971 0.267738 -0.0025 0
-1.26971 0.267736 -0.0025 0
-1.26971 0.267734 -0.0025 0
-1.26971 0.267733 -0.0025 0
-1.26971 0.267732 -0.0023 0
-1.2697 0.267731 -0.0023 0
-1.2697 0.267732 -0.0028 0
-1.2697 0.267732 -0.0028 0
-1.2697 0.267731 -0.0022 0
-1.2697 0.26773 -0.0022 0
-1.2697 0.267729 -0.0023 0
-1.2697 0.26773 -0.0023 0
-1.2697 0.26773 -0.0023 0
-1.2697 0.267729 -0.0033 0
-1.2697 0.267728 -0.0022 0
-1.2691 0.266929 -0.0022 0
-1.2697 0.267726 -0.0022 0
-1.2697 0.267725 -0.0028 0
-1.2697 0.267724 -0.0028 0
-1.2697 0.267721 -0.0023 0
-1.2697 0.26772 -0.0023 0
-1.26849 0.266122 -0.0023 0
-1.26969 0.267717 -0.0023 0
-1.26969 0.267716 -0.0023 0
-1.26909 0.266917 -0.0023 0
-1.26969 0.267714 -0.0023 0
-1.26969 0.267712 -0.0027 0
-1.26969 0.267712 -0.003 0
-1.29439 0.300431 -0.003 0
-1.26969 0.267711 -0.003 0
-1.26969 0.267711 -0.0024 0
-1.26969 0.26771 -0.0024 0
-1.26969 0.26771 -0.0025 0
-1.26969 0.267709 -0.0025 0
-1.26969 0.267709 -0.0025 0
-1.26969 0.267708 -0.0026 0
-1.26969 0.267707 -0.0029 0
-1.26969 0.267706 -0.0029 0
-1.26969 0.267705 -0.0029 0
-1.26969 0.267704 -0.0025 0
-1.26969 0.267704 -0.0025 0
-1.26969 0.267703 -0.0026 0
-1.2698 0.267648 -0.0026 0
-1.2698 0.267647 -0.0029 0
-1.2698 0.267647 -0.0029 0
-1.29451 0.300362 -0.0031 0
-1.2698 0.267644 -0.0031 0
-1.2698 0.267643 -0.0025 0
-1.2698 0.267642 -0.0025 0
-1.26979 0.26764 -0.0026 0
-1.26979 0.267639 -0.0026 0
-1.26979 0.267638 -0.0031 0
-1.26859 0.266042 -0.0031 0
-1.26979 0.267635 -0.0024 0
-1.26979 0.267634 -0.0024 0
-1.26979 0.267634 -0.0025 0
-1.26968 0.267686 -0.0025 0
-1.26968 0.267685 -0.0034 0
-1.26968 0.267684 -0.0034 0
-1.26968 0.267684 -0.0034 0
-1.26968 0.267683 -0.0031 0
-1.26968 0.267682 -0.0031 0
-1.26968 0.26768 -0.0025 0
-1.26968 0.267679 -0.0025 0
-1.26968 0.267678 -0.0024 0
-1.26968 0.267677 -0.0024 0
-1.26968 0.267676 -0.0028 0
-1.26968 0.267675 -0.0028 0
-1.26968 0.267674 -0.0028 0
-1.26968 0.267673 -0.0021 0
-1.26968 0.267671 -0.0021 0
-1.26907 0.266872 -0.0025 0
-1.26968 0.267668 -0.0025 0
-1.26968 0.267667 -0.0034 0
-1.26968 0.267666 -0.0034 0
-1.26968 0.267665 -0.0019 0
-1.26968 0.267664 -0.0019 0
-1.26968 0.267662 -0.0025 0
-1.26968 0.267662 -0.0025 0
-1.26967 0.267661 -0.003 0
-1.26967 0.26766 -0.003 0
-1.26967 0.267657 -0.0025 0
-1.26967 0.267656 -0.0025 0
-1.26967 0.267656 -0.002 0
-1.26967 0.267655 -0.002 0
-1.26979 0.267601 -0.0024 0
-1.26967 0.267652 -0.0024 0
-1.26967 0.267651 -0.0033 0
-1.26978 0.267597 -0.0033 0
-1.26978 0.267597 -0.0023 0
-1.26978 0.267597 -0.0023 0
-1.26978 0.267597 -0.0025 0
-1.26978 0.267597 -0.0025 0
-1.26797 0.265202 -0.0026 0
-1.26978 0.267595 -0.0026 0
-1.26978 0.267595 -0.0025 0
-1.26918 0.266796 -0.0025 0
-1.26978 0.267594 -0.0025 0
-1.26978 0.267593 -0.0028 0
-1.26978 0.267594 -0.0028 0
-1.26978 0.267595 -0.0024 0
-1.26977 0.267595 -0.0024 0
-1.26977 0.267594 -0.0024 0
-1.26977 0.267593 -0.0024 0
-1.26977 0.267593 -0.0028 0
-1.26977 0.267592 -0.0028 0
-1.26977 0.26759 -0.0028 0
-1.26965 0.267642 -0.0023 0
-1.26965 0.267641 -0.0023 0
-1.26965 0.26764 -0.0025 0
-1.26965 0.267639 -0.0025 0
-1.26965 0.267639 -0.0029 0
-1.26905 0.26684 -0.0029 0
-1.26965 0.267637 -0.003 0
-1.26965 0.267637 -0.003 0
-1.26965 0.267636 -0.003 0
-1.26965 0.267635 -0.0028 0
-1.26965 0.267634 -0.0028 0
-1.26965 0.267633 -0.0028 0
-1.26965 0.267632 -0.0028 0
-1.26965 0.267631 -0.0028 0
-1.26965 0.267631 -0.0028 0
-1.26965 0.267631 -0.0026 0
-1.26965 0.26763 -0.0026 0
-1.26965 0.267629 -0.0026 0
-1.26965 0.267627 -0.003 0
-1.26965 0.267627 -0.0023 0
-1.26965 0.267627 -0.0023 0
-1.26965 0.267626 -0.0023 0
-1.26976 0.267572 -0.003 0
-1.26976 0.267573 -0.0023 0
-1.26976 0.267573 -0.0023 0
-1.26976 0.267573 -0.0023 0
-1.26976 0.267572 -0.0028 0
-1.26976 0.267571 -0.0025 0
-1.26965 0.267622 -0.0025 0
-1.26965 0.267622 -0.0025 0
-1.26976 0.267569 -0.0027 0
-1.26976 0.267568 -0.0028 0
-1.26976 0.267567 -0.0028 0
-1.26976 0.267567 -0.0026 0
-1.26976 0.267566 -0.0026 0
-1.26965 0.267617 -0.0028 0
-1.26965 0.267617 -0.0028 0
-1.26965 0.267616 -0.0025 0
-1.26965 0.267615 -0.0025 0
-1.26976 0.267561 -0.0022 0
-1.26965 0.267612 -0.0022 0
-1.26965 0.267612 -0.0028 0
-1.26965 0.267611 -0.0028 0
-1.26965 0.26761 -0.0028 0
-1.26965 0.267609 -0.0028 0
-1.26965 0.267607 -0.0028 0
-1.26784 0.265212 -0.0028 0
-1.26965 0.267606 -0.0028 0
-1.26965 0.267606 -0.0024 0
-1.26964 0.267606 -0.0024 0
-1.26964 0.267605 -0.0031 0
-1.26964 0.267604 -0.0031 0
-1.26964 0.267604 -0.002 0
-1.26964 0.267603 -0.002 0
-1.26964 0.267601 -0.0026 0
-1.26964 0.2676 -0.0026 0
-1.26964 0.2676 -0.0032 0
-1.26964 0.267599 -0.0032 0
-1.26964 0.267598 -0.0032 0
-1.26964 0.267597 -0.0022 0
-1.26964 0.267596 -0.003 0
-1.26964 0.267596 -0.003 0
-1.26964 0.267596 -0.003 0
-1.26964 0.267595 -0.0029 0
-1.26975 0.267542 -0.0029 0
-1.26975 0.26754 -0.0025 0
-1.26975 0.267538 -0.0025 0
-1.26975 0.267537 -0.0025 0
-1.26975 0.267536 -0.0028 0
-1.26975 0.267534 -0.0024 0
-1.26975 0.267534 -0.0024 0
-1.26975 0.267532 -0.0024 0
-1.26975 0.267531 -0.0026 0
-1.26975 0.26753 -0.0026 0
-1.26975 0.267529 -0.0025 0
-1.26974 0.267528 -0.0025 0
-1.26974 0.267527 -0.0026 0
-1.26974 0.267526 -0.0026 0
-1.26974 0.267525 -0.0029 0
-1.26974 0.267524 -0.0029 0
-1.26974 0.267523 -0.0029 0
-1.26793 0.265128 -0.0023 0
-1.26974 0.267521 -0.0023 0
-1.26974 0.26752 -0.0027 0
-1.26974 0.267519 -0.0027 0
-1.26974 0.267519 -0.0029 0
-1.26974 0.267518 -0.0029 0
-1.26974 0.267517 -0.0027 0
-1.26974 0.267516 -0.0027 0
-1.26974 0.267515 -0.0027 0
-1.26962 0.267568 -0.003 0
-1.26902 0.266769 -0.0022 0
-1.26962 0.267566 -0.0022 0
-1.26962 0.267564 -0.0022 0
-1.26962 0.267563 -0.003 0
-1.26962 0.267562 -0.003 0
-1.26962 0.26756 -0.0026 0
-1.26962 0.267559 -0.0026 0
-1.26973 0.267506 -0.0026 0
-1.26973 0.267505 -0.0029 0
-1.26961 0.267557 -0.0028 0
-1.26961 0.267556 -0.0028 0
-1.26961 0.267556 -0.0028 0
-1.26961 0.267555 -0.0025 0
-1.26961 0.267555 -0.0025 0
-1.2678 0.26516 -0.0027 0
-1.26961 0.267552 -0.0027 0
-1.26961 0.26755 -0.0028 0
-1.26961 0.267549 -0.0028 0
-1.26961 0.267548 -0.0025 0
-1.26961 0.267548 -0.0025 0
-1.26961 0.267547 -0.0031 0
-1.26961 0.267546 -0.0031 0
-1.26961 0.267545 -0.0025 0
-1.2696 0.267543 -0.0025 0
-1.2696 0.267542 -0.0025 0
-1.2696 0.267541 -0.0024 0
-1.2696 0.267539 -0.0028 0
-1.2696 0.267538 -0.0028 0
-1.2696 0.267537 -0.0028 0
-1.2696 0.267535 -0.0025 0
-1.2696 0.267535 -0.0025 0
-1.2696 0.267535 -0.003 0
-1.2696 0.267534 -0.003 0
-1.2696 0.267533 -0.0026 0
-1.2696 0.267533 -0.0026 0
-1.2696 0.267532 -0.0026 0
-1.2696 0.267531 -0.0026 0
-1.2696 0.26753 -0.0026 0
-1.2696 0.26753 -0.0026 0
-1.2696 0.267529 -0.0026 0
-1.2696 0.267528 -0.0028 0
-1.2696 0.267526 -0.0028 0
-1.2696 0.267525 -0.0027 0
-1.2696 0.267525 -0.0027 0
-1.2696 0.267524 -0.0027 0
-1.2696 0.267523 -0.0027 0
-1.2696 0.267522 -0.0027 0
-1.2696 0.26752 -0.0028 0
-1.2696 0.267519 -0.0028 0
-1.2696 0.267518 -0.0025 0
-1.2696 0.267517 -0.0025 0
-1.2696 0.267516 -0.0024 0
-1.2696 0.267515 -0.0024 0
-1.2696 0.267514 -0.0034 0
-1.2696 0.267512 -0.0034 0
-1.2696 0.267512 -0.0028 0
-1.2696 0.26751 -0.0028 0
-1.2696 0.267508 -0.0025 0
-1.2696 0.267507 -0.0025 0
-1.26959 0.267507 -0.0028 0
-1.26959 0.267506 -0.0028 0
-1.2679 0.26506 -0.0022 0
-1.26971 0.267454 -0.0022 0
-1.26959 0.267506 -0.0027 0
-1.26959 0.267506 -0.0027 0
-1.26959 0.267505 -0.0026 0
-1.26959 0.267503 -0.0026 0
-1.26959 0.267502 -0.0026 0
-1.26959 0.267502 -0.0029 0
-1.26959 0.267502 -0.0029 0
-1.26959 0.267501 -0.0027 0
-1.26959 0.2675 -0.0027 0
-1.26959 0.267499 -0.0025 0
-1.26959 0.267498 -0.0025 0
-1.26959 0.267496 -0.0028 0
-1.26959 0.267495 -0.0028 0
-1.26959 0.267495 -0.0025 0
-1.26959 0.267495 -0.0025 0
-1.26959 0.267494 -0.0029 0
-1.26959 0.267493 -0.0029 0
-1.26959 0.267492 -0.0026 0
-1.26959 0.267491 -0.0028 0
-1.26959 0.267491 -0.0028 0
-1.26958 0.26749 -0.0028 0
-1.26958 0.26749 -0.0023 0
-1.26958 0.267489 -0.0023 0
-1.26958 0.267489 -0.0024 0
-1.26958 0.267489 -0.0029 0
-1.26958 0.267489 -0.0029 0
-1.26777 0.265093 -0.0029 0
-1.26958 0.267484 -0.0028 0
-1.26958 0.267483 -0.0028 0
-1.26958 0.267482 -0.0021 0
-1.26958 0.267482 -0.0021 0
-1.26958 0.267482 -0.0029 0
-1.26957 0.26748 -0.0029 0
-1.26957 0.267479 -0.0025 0
-1.26957 0.267478 -0.0025 0
-1.26957 0.267477 -0.0031 0
-1.26957 0.267477 -0.0031 0
-1.26957 0.267476 -0.0031 0
-1.26957 0.267476 -0.0022 0
-1.26957 0.267475 -0.0022 0
-1.26957 0.267473 -0.0028 0
-1.26957 0.267472 -0.0028 0
-1.26957 0.26747 -0.0024 0
-1.26957 0.267469 -0.0024 0
-1.26957 0.267467 -0.0025 0
-1.26957 0.267466 -0.0025 0
-1.26957 0.267463 -0.0028 0
-1.26957 0.267461 -0.0028 0
-1.26957 0.26746 -0.0027 0
-1.26957 0.267458 -0.0027 0
-1.26957 0.267457 -0.0028 0
-1.26957 0.267456 -0.0028 0
-1.26957 0.267455 -0.0025 0
-1.26957 0.267455 -0.0025 0
-1.26957 0.267454 -0.0025 0
-1.26957 0.267454 -0.0029 0
-1.26957 0.267453 -0.0029 0
-1.26956 0.267452 -0.0023 0
-1.26956 0.267452 -0.0023 0
-1.26956 0.267451 -0.0029 0
-1.26956 0.267451 -0.0029 0
-1.26956 0.267451 -0.0024 0
-1.26956 0.26745 -0.0024 0
-1.26956 0.26745 -0.0026 0
-1.26956 0.26745 -0.0026 0
-1.26956 0.26745 -0.0025 0
-1.26956 0.267449 -0.0025 0
-1.26956 0.267449 -0.0025 0
-1.26956 0.267449 -0.0025 0
-1.26956 0.267447 -0.0025 0
-1.26956 0.267447 -0.0025 0
-1.26956 0.267446 -0.0025 0
-1.26956 0.267443 -0.0025 0
-1.26955 0.267442 -0.0024 0
-1.26956 0.267441 -0.0024 0
-1.26955 0.26744 -0.0024 0
-1.26967 0.267386 -0.0028 0
-1.26967 0.267385 -0.0028 0
-1.26967 0.267384 -0.0028 0
-1.27087 0.268978 -0.0024 0
-1.26967 0.267381 -0.0024 0
-1.26967 0.267381 -0.0024 0
-1.26967 0.26738 -0.0024 0
-1.26967 0.26738 -0.0024 0
-1.26967 0.267378 -0.0024 0
-1.26955 0.26743 -0.003 0
-1.26967 0.267377 -0.003 0
-1.26967 0.267377 -0.003 0
-1.26967 0.267375 -0.0025 0
-1.26955 0.267424 -0.0031 0
-1.26955 0.267427 -0.0031 0
-1.26941 0.267492 -0.0031 0
-1.26882 0.267768 0.0109 0
-1.2686 0.267855 0.0474 0
-1.26828 0.26799 0.0474 0
-1.26743 0.267274 -0.0024 0
-1.26739 0.267273 -0.0024 0
-1.26735 0.267274 0.0329 0
-1.26746 0.267223 0.0329 0
-1.26761 0.267185 0.0329 0
-1.26809 0.267018 0.003 0
-1.26822 0.266969 0.0081 0
-1.26764 0.266167 0.0081 0
-1.26765 0.266165 0.0081 0
-1.26767 0.266167 -0.0057 0
-1.26768 0.266169 -0.0037 0
-1.2678 0.26612 -0.0037 0
-1.26791 0.266067 -0.0033 0
-1.2673 0.265273 -0.0033 0
-1.26812 0.265974 0.0029 0
-1.26762 0.265126 0.0029 0
-1.26785 0.265014 0.0094 0
-1.26857 0.265752 0.0094 0
-1.26797 0.264945 -0.0012 0
-1.26842 0.264725 -0.0012 0
-1.26901 0.265516 0.0043 0
-1.26911 0.265458 0.0043 0
-1.2691 0.26546 -0.000800001 0
-1.2685 0.264669 -0.000800001 0
-1.26851 0.264676 -0.0017 0
-1.26851 0.264684 -0.0017 0
-1.26851 0.264688 0.0028 0
-1.26852 0.26469 0.0028 0
-1.26852 0.26469 -0.000700002 0
-1.26852 0.26469 -0.000700002 0
-1.26852 0.264689 0.000199998 0
-1.26851 0.264693 0.000199998 0
-1.26851 0.264694 0.0032 0
-1.26851 0.264695 0.0032 0
-1.26851 0.264695 0.000799998 0
-1.26851 0.264694 0.000799998 0
-1.26911 0.265493 0.000399998 0
-1.26851 0.264697 0.000399998 0
-1.26851 0.264697 0.0028 0
-1.26851 0.264698 0.0028 0
-1.26851 0.264696 0.0028 0
-1.26912 0.265492 0.000499998 0
-1.26852 0.264694 0.000499998 0
-1.26852 0.264697 -0.0022 0
-1.26852 0.264701 -0.0022 0
-1.26852 0.2647 0.0025 0
-1.26852 0.264701 0.0025 0
-1.26851 0.264701 0.000799998 0
-1.26851 0.264699 0.000799998 0
-1.26851 0.264699 0.000799998 0
-1.26851 0.264695 0.000899998 0
-1.26851 0.264694 0.003 0
-1.26851 0.264693 0.003 0
-1.26851 0.264691 0.003 0
-1.2685 0.264689 -0.0029 0
-1.26851 0.26469 -2.09548e-09 0
-1.26851 0.264691 -2.09548e-09 0
-1.26851 0.264691 -2.09548e-09 0
-1.2685 0.264691 -0.0012 0
-1.2685 0.264689 -0.0017 0
-1.2685 0.264688 -0.0017 0
-1.2685 0.264688 -0.0017 0
-1.2685 0.264688 0.0027 0
-1.2685 0.264689 -0.000200002 0
-1.2685 0.26469 -0.000200002 0
-1.2685 0.264689 -0.000200002 0
-1.2691 0.265487 -0.000500002 0
-1.26849 0.264689 -0.000500002 0
-1.26849 0.264688 0.000899998 0
-1.26849 0.264687 0.000899998 0
-1.26849 0.264687 -0.0016 0
-1.26849 0.264687 -0.0016 0
-1.26849 0.264686 0.000999998 0
-1.26849 0.264687 0.000999998 0
-1.26849 0.264686 0.0013 0
-1.26849 0.264685 0.0013 0
-1.26849 0.264685 -0.000100002 0
-1.26849 0.264683 -0.000100002 0
-1.26849 0.264683 -0.000800002 0
-1.26849 0.264681 -0.000800002 0
-1.26849 0.264679 -0.000300002 0
-1.26849 0.264682 -0.000300002 0
-1.26849 0.264684 -0.0016 0
-1.26849 0.264681 0.0013 0
-1.26849 0.264678 0.0013 0
-1.2691 0.265469 0.0013 0
-1.26849 0.264669 0.0024 0
-1.26849 0.264668 0.0024 0
-1.26848 0.264674 0.000799998 0
-1.26909 0.265472 0.000799998 0
-1.26848 0.264675 -0.0012 0
-1.26909 0.265468 0.0029 0
-1.26848 0.264671 0.0029 0
-1.26848 0.264668 0.0029 0
-1.26848 0.264666 0.0017 0
-1.26909 0.265462 0.0017 0
-1.26908 0.26546 -0.0019 0
-1.26848 0.264662 -0.0019 0
-1.26848 0.264662 0.0015 0
-1.26908 0.265459 0.0015 0
-1.26908 0.265457 0.000899998 0
-1.26727 0.263066 0.000899998 0
-1.26848 0.264658 0.000299998 0
-1.26848 0.264657 0.000299998 0
-1.26908 0.265452 -0.0018 0
-1.26848 0.264654 -0.0018 0
-1.26859 0.264601 -0.0025 0
-1.26848 0.264653 -0.0025 0
-1.26908 0.26545 0.0028 0
-1.26848 0.264655 0.0028 0
-1.26847 0.264657 0.0028 0
-1.26847 0.264662 0.0012 0
-1.26847 0.264662 -0.001 0
-1.26847 0.264662 -0.001 0
-1.26847 0.264657 0.000399997 0
-1.26847 0.264657 0.000399997 0
-1.26847 0.264655 -0.000500003 0
-1.26847 0.264654 -0.000500003 0
-1.26847 0.264651 0.0026 0
-1.26907 0.265449 0.0026 0
-1.26847 0.264651 -0.0015 0
-1.26847 0.26465 -0.0015 0
-1.26847 0.26465 0.0044 0
-1.26847 0.264649 0.0044 0
-1.26847 0.264648 -0.000400003 0
-1.26847 0.264643 -0.000400003 0
-1.26847 0.264643 0.0011 0
-1.26847 0.264643 0.0011 0
-1.26847 0.264642 -0.000300003 0
-1.26907 0.265439 -0.000300003 0
-1.26847 0.264641 0.0029 0
-1.26847 0.264639 0.0029 0
-1.26847 0.264639 0.0023 0
-1.26907 0.265433 0.0023 0
-1.16587 0.12909 0.0023 0
-1.26847 0.264634 0.0036 0
-1.26847 0.264632 0.0036 0
-1.26847 0.264631 0.0021 0
-1.26846 0.264631 0.0021 0
-1.26846 0.26463 0.000599998 0
-1.26846 0.264632 0.000599998 0
-1.26846 0.264634 -0.0011 0
-1.26725 0.26304 -0.0011 0
-1.26846 0.264634 -0.0011 0
-1.26846 0.264634 -0.000400002 0
-1.26846 0.264636 -0.000400002 0
-1.26846 0.264636 0.000299998 0
-1.26846 0.264635 0.000299998 0
-1.26846 0.264634 0.000299998 0
-1.26846 0.264631 -0.0018 0
-1.26846 0.264628 -0.0018 0
-1.26846 0.264625 0.0015 0
-1.26846 0.264623 0.0015 0
-1.26846 0.264623 0.0015 0
-1.26846 0.264621 0.0039 0
-1.26846 0.264619 0.0039 0
-1.26846 0.26462 -0.000800002 0
-1.26846 0.264619 -0.000800002 0
-1.26845 0.264621 0.0016 0
-1.26845 0.264618 0.0016 0
-1.26846 0.264611 0.0011 0
-1.24312 0.231117 0.0011 0
-1.26847 0.2646 0.0011 0
-1.26852 0.264563 0.0013 0
-1.26922 0.265283 0.0013 0
-1.26874 0.264392 -0.0021 0
-1.2695 0.265072 -0.0021 0
-1.26909 0.26412 -0.0021 0
-1.26962 0.263746 -2.56114e-09 0
-1.26986 0.263562 -0.0016 0
-1.27012 0.263362 -0.0016 0
-1.26375 0.25439 -0.0016 0
-1.27066 0.262953 -0.0022 0
-1.27007 0.260987 -0.0022 0
-1.2717 0.262297 -0.0018 0
-1.27214 0.261995 -0.0018 0
-1.27294 0.261417 0.000399997 0
-1.27364 0.260988 0.000399997 0
-1.274 0.260711 -0.0016 0
-1.2745 0.260367 -0.0016 0
-1.27553 0.259661 -0.0012 0
-1.27545 0.258498 -0.0012 0
-1.27659 0.258922 -0.0026 0
-1.27713 0.258551 -0.0026 0
-1.2772 0.257323 -0.0026 0
-1.2787 0.256375 0.003 0
-1.2793 0.255962 0.0018 0
-1.27943 0.254679 0.0018 0
-1.28006 0.254226 0.0018 0
-1.28075 0.252509 0.0019 0
-1.28203 0.252819 -0.0026 0
-1.28272 0.25232 -0.0026 0
-1.2827 0.251072 -0.0026 0
-1.2822 0.248963 0.0027 0
-1.28467 0.249575 0.000499997 0
-1.28532 0.249082 0.000499997 0
-1.28634 0.248411 0.000499997 0
-1.26515 0.216956 0.0021 0
-1.26546 0.215528 0.0053 0
-1.26568 0.214136 0.0053 0
-1.26722 0.211923 0.002 0
-1.26821 0.211231 0.002 0
-1.26921 0.21053 -0.0016 0
-1.27114 0.209127 -0.0016 0
-1.27144 0.207651 -0.0011 0
-1.27229 0.20698 -0.0011 0
-1.27327 0.20625 0.000199997 0
-1.27457 0.204 0.000199997 0
-1.27499 0.202444 0.000999997 0
-1.27655 0.2025 0.000999997 0
-1.27788 0.200197 0.0027 0
-1.2789 0.19941 0.0027 0
-1.27951 0.197748 0.0024 0
-1.28013 0.19608 0.0024 0
-1.28255 0.194329 0.0025 0
-1.28384 0.193397 0.0025 0
-1.28466 0.191602 0.0014 0
-1.28723 0.189694 -0.0019 0
-1.28798 0.187905 -0.0019 0
-1.28924 0.186943 -0.0019 0
-1.29053 0.185959 -0.0015 0
-1.29111 0.184213 -0.0015 0
-1.29238 0.183238 -0.0034 0
-1.29359 0.182278 -0.0034 0
-1.29469 0.181371 -0.0034 0
-1.29683 0.179557 0.0022 0
-1.29776 0.178705 0.005 0
-1.29872 0.177839 0.005 0
-1.30039 0.176188 0.0025 0
-1.30183 0.176145 0.0025 0
-1.30216 0.174462 0.0015 0
-1.3036 0.174422 0.0015 0
-1.30494 0.172856 0.000899997 0
-1.30707 0.173548 0.000899997 0
-1.30823 0.172546 0.0025 0
-1.30941 0.171532 0.0025 0
-1.30977 0.170899 0.0025 0
-1.31203 0.168924 -0.0036 0
-1.31379 0.168712 -0.0046 0
-1.31506 0.167649 -0.0046 0
-1.31618 0.166671 -0.0046 0
-1.31878 0.164501 0.0011 0
-1.32016 0.163401 -0.0048 0
-1.32103 0.161444 -0.0048 0
-1.32302 0.16111 -0.0048 0
-1.32595 0.158736 -0.001 0
-1.32726 0.157598 0.000999997 0
-1.32851 0.156473 0.000999997 0
-1.33085 0.155947 0.000999997 0
-1.35552 0.1844 0.0026 0
-1.35801 0.184869 0.003 0
-1.35992 0.184521 0.003 0
-1.36238 0.182277 -0.002 0
-1.36315 0.180292 -0.002 0
-1.36512 0.179915 0.000599996 0
-1.3665 0.178724 0.000599996 0
-1.36936 0.176296 -0.0029 0
-1.37088 0.175055 -0.0029 0
-1.37317 0.17452 -0.0038 0
-1.37478 0.173205 -0.0038 0
-1.37563 0.171174 -0.0038 0
-1.33217 0.107473 0.0037 0
-1.37904 0.168446 0.0037 0
