ply
format ascii 1.0
element vertex 1731
property float x
property float y
property float z
property float intensity
end_header
0.163814 0.705266 -0.0036 0
0.163814 0.705265 -0.003 0
0.163814 0.705263 -0.003 0
0.163814 0.705259 -0.0029 0
0.163813 0.705257 -0.0029 0
0.163813 0.705256 -0.0038 0
0.163812 0.705255 -0.0038 0
0.163811 0.705254 -0.0038 0
0.163811 0.705253 -0.0028 0
0.163811 0.705251 -0.0028 0
0.16381 0.705249 -0.0035 0
0.163686 0.705275 -0.0035 0
0.163685 0.705274 -0.003 0
0.163807 0.705245 -0.003 0
0.163684 0.705272 -0.0034 0
0.163683 0.705271 -0.0034 0
0.163683 0.70527 -0.0034 0
0.163682 0.705269 -0.0032 0
0.163682 0.705269 -0.0032 0
0.163681 0.705266 -0.0029 0
0.163681 0.705265 -0.0029 0
0.163681 0.705264 -0.0034 0
0.163681 0.705263 -0.0034 0
0.163681 0.705261 -0.0029 0
0.163681 0.70526 -0.0029 0
0.163681 0.705258 -0.003 0
0.163681 0.705256 -0.003 0
0.163681 0.705255 -0.003 0
0.16368 0.705254 -0.0033 0
0.163679 0.705253 -0.0033 0
0.163678 0.705252 -0.0032 0
0.1638 0.705222 -0.0031 0
0.163666 0.702249 -0.0031 0
0.163677 0.705247 -0.0031 0
0.163676 0.705246 -0.0031 0
0.163675 0.705245 -0.0031 0
0.163675 0.705243 -0.0029 0
0.163674 0.705242 -0.0029 0
0.163674 0.705241 -0.0029 0
0.163674 0.705239 -0.0036 0
0.163675 0.705238 -0.0034 0
0.163675 0.705238 -0.0034 0
0.163674 0.705236 -0.0034 0
0.163674 0.705235 -0.0025 0
0.163674 0.705234 -0.0025 0
0.163674 0.705233 -0.0036 0
0.163674 0.705232 -0.0036 0
0.163674 0.705232 -0.0033 0
0.163673 0.705232 -0.0033 0
0.163674 0.705231 -0.0033 0
0.163674 0.705231 -0.0024 0
0.163673 0.705231 -0.0024 0
0.163672 0.705231 -0.0033 0
0.163673 0.705229 -0.0033 0
0.163673 0.705228 -0.003 0
0.163673 0.705228 -0.003 0
0.163674 0.705227 -0.0029 0
0.163675 0.705226 -0.0029 0
0.163675 0.705226 -0.0028 0
0.163675 0.705227 -0.0028 0
0.163675 0.705226 -0.0033 0
0.163674 0.705226 -0.0033 0
0.163674 0.705226 -0.003 0
0.163673 0.705225 -0.003 0
0.163672 0.705224 -0.0033 0
0.163668 0.704223 -0.0033 0
0.163671 0.705222 -0.0033 0
0.163671 0.70522 -0.0033 0
0.163671 0.705219 -0.0031 0
0.16367 0.705217 -0.0031 0
0.16367 0.705216 -0.0029 0
0.163669 0.705216 -0.0029 0
0.163669 0.705215 -0.0029 0
0.163669 0.705214 -0.0029 0
0.163669 0.705214 -0.0029 0
0.163668 0.705213 -0.0029 0
0.163668 0.705212 -0.0029 0
0.163667 0.705211 -0.003 0
0.163668 0.705209 -0.003 0
0.163668 0.705208 -0.0031 0
0.163668 0.705207 -0.0031 0
0.163667 0.705206 -0.0031 0
0.163667 0.705204 -0.0035 0
0.163667 0.705203 -0.0035 0
0.163667 0.705202 -0.0029 0
0.163667 0.705201 -0.0029 0
0.163666 0.705199 -0.0033 0
0.163666 0.705197 -0.0033 0
0.163667 0.705197 -0.0027 0
0.163667 0.705196 -0.0027 0
0.163667 0.705195 -0.0027 0
0.163663 0.704194 -0.003 0
0.163666 0.705193 -0.003 0
0.163666 0.705193 -0.0034 0
0.163666 0.705192 -0.0034 0
0.16379 0.705163 -0.0029 0
0.163789 0.705162 -0.0029 0
0.163789 0.70516 -0.0028 0
0.163789 0.70516 -0.0028 0
0.163788 0.705159 -0.0028 0
0.163788 0.705157 -0.0032 0
0.163788 0.705157 -0.0032 0
0.163789 0.705154 -0.0029 0
0.163789 0.705154 -0.0029 0
0.163789 0.705153 -0.0032 0
0.163789 0.705152 -0.0032 0
0.163789 0.705152 -0.0032 0
0.163788 0.705151 -0.0033 0
0.16378 0.70315 -0.0033 0
0.163787 0.705148 -0.0029 0
0.163787 0.705147 -0.0029 0
0.163787 0.705147 -0.0034 0
0.163786 0.705146 -0.0034 0
0.163785 0.705145 -0.0027 0
0.163785 0.705144 -0.0027 0
0.163784 0.705142 -0.0032 0
0.163783 0.705141 -0.0032 0
0.163782 0.70514 -0.0031 0
0.163783 0.705139 -0.0031 0
0.163783 0.705138 -0.0031 0
0.163783 0.705137 -0.0031 0
0.163783 0.705136 -0.0031 0
0.163783 0.705136 -0.0034 0
0.163782 0.705135 -0.0034 0
0.16366 0.705161 -0.0027 0
0.163659 0.705161 -0.0027 0
0.163659 0.705159 -0.0027 0
0.163656 0.704159 -0.0033 0
0.163659 0.705158 -0.0033 0
0.16366 0.705157 -0.002 0
0.163656 0.704157 -0.002 0
0.16366 0.705155 -0.002 0
0.163662 0.705155 -0.0038 0
0.163662 0.705153 -0.0038 0
0.163663 0.705151 -0.0033 0
0.163663 0.705151 -0.0033 0
0.163663 0.70515 -0.0032 0
0.163663 0.705149 -0.0032 0
0.163662 0.705148 -0.0031 0
0.163662 0.705146 -0.0031 0
0.163663 0.705145 -0.0024 0
0.163663 0.705145 -0.0024 0
0.163662 0.705144 -0.0026 0
0.163662 0.705143 -0.0026 0
0.163662 0.705142 -0.0026 0
0.163662 0.705141 -0.0036 0
0.163662 0.70514 -0.0036 0
0.163662 0.70514 -0.0036 0
0.163662 0.705139 -0.0035 0
0.163663 0.705137 -0.0033 0
0.163663 0.705136 -0.0033 0
0.163663 0.705135 -0.0033 0
0.163663 0.705134 -0.0029 0
0.163662 0.705133 -0.0029 0
0.163661 0.705132 -0.0029 0
0.16366 0.705132 -0.0032 0
0.163659 0.705131 -0.0032 0
0.163659 0.705131 -0.0032 0
0.163659 0.70513 -0.0036 0
0.163658 0.70513 -0.0036 0
0.163658 0.705129 -0.0031 0
0.163658 0.705129 -0.0031 0
0.163658 0.705128 -0.0031 0
0.163657 0.705127 -0.003 0
0.163657 0.705125 -0.003 0
0.163657 0.705124 -0.0026 0
0.163657 0.705124 -0.0026 0
0.163657 0.705123 -0.003 0
0.163657 0.705122 -0.003 0
0.163652 0.704122 -0.0028 0
0.163656 0.70512 -0.0028 0
0.163656 0.705119 -0.0028 0
0.163655 0.705119 -0.0032 0
0.163655 0.705118 -0.0032 0
0.163654 0.705116 -0.0032 0
0.163652 0.705116 -0.0028 0
0.163652 0.705116 -0.0027 0
0.163651 0.705115 -0.0027 0
0.16365 0.705115 -0.0031 0
0.163643 0.703114 -0.0031 0
0.16365 0.705114 -0.0031 0
0.16365 0.705113 -0.0032 0
0.16365 0.705112 -0.0032 0
0.163649 0.70511 -0.003 0
0.163648 0.70511 -0.003 0
0.163648 0.70511 -0.0032 0
0.163647 0.70511 -0.0032 0
0.163646 0.70511 -0.0027 0
0.163646 0.705108 -0.0027 0
0.163646 0.705107 -0.0029 0
0.163646 0.705107 -0.0029 0
0.163646 0.705106 -0.0034 0
0.163645 0.705105 -0.0034 0
0.163767 0.705077 -0.003 0
0.163766 0.705077 -0.003 0
0.163754 0.702076 -0.0031 0
0.163643 0.705102 -0.0031 0
0.163643 0.7051 -0.0031 0
0.163766 0.705072 -0.0031 0
0.163766 0.70507 -0.0027 0
0.163766 0.705069 -0.0027 0
0.163766 0.705068 -0.0027 0
0.163766 0.705066 -0.0033 0
0.163766 0.705065 -0.0029 0
0.163766 0.705063 -0.0029 0
0.163767 0.705061 -0.0029 0
0.163768 0.70506 -0.0032 0
0.163768 0.705059 -0.0032 0
0.163769 0.705058 -0.003 0
0.163769 0.705057 -0.003 0
0.163769 0.705055 -0.0031 0
0.163769 0.705053 -0.0031 0
0.163769 0.705053 -0.0029 0
0.163769 0.705052 -0.0029 0
0.163771 0.705049 -0.003 0
0.163771 0.705048 -0.003 0
0.163772 0.705048 -0.0033 0
0.163772 0.705046 -0.0033 0
0.163772 0.705044 -0.0036 0
0.163771 0.705043 -0.0036 0
0.163771 0.705042 -0.0032 0
0.163772 0.705039 -0.0032 0
0.163772 0.705038 -0.003 0
0.163772 0.705038 -0.003 0
0.163773 0.705037 -0.0031 0
0.16365 0.705061 -0.0031 0
0.16365 0.70506 -0.0031 0
0.16365 0.705059 -0.0031 0
0.16365 0.705058 -0.0034 0
0.16365 0.705054 -0.0034 0
0.16365 0.705054 -0.0032 0
0.16365 0.705053 -0.0032 0
0.16365 0.705052 -0.0032 0
0.163649 0.705049 -0.003 0
0.163649 0.705048 -0.0027 0
0.163649 0.705046 -0.0027 0
0.16365 0.705045 -0.003 0
0.16365 0.705043 -0.003 0
0.16365 0.705043 -0.003 0
0.16365 0.705042 -0.003 0
0.163651 0.705042 -0.003 0
0.163651 0.705041 -0.0029 0
0.163651 0.70504 -0.0029 0
0.163651 0.705039 -0.0029 0
0.16365 0.705038 -0.0028 0
0.163772 0.70501 -0.0028 0
0.163649 0.705036 -0.0033 0
0.163649 0.705036 -0.0033 0
0.16365 0.705036 -0.0032 0
0.16365 0.705037 -0.0032 0
0.16365 0.705036 -0.0033 0
0.163773 0.705008 -0.0033 0
0.163773 0.705007 -0.0033 0
0.163773 0.705007 -0.0032 0
0.16365 0.705035 -0.0032 0
0.163649 0.705035 -0.0032 0
0.163649 0.705036 -0.0032 0
0.163649 0.705036 -0.0033 0
0.163771 0.705007 -0.0033 0
0.163772 0.705007 -0.0029 0
0.163772 0.705007 -0.0029 0
0.163772 0.705006 -0.0029 0
0.163774 0.705004 -0.0032 0
0.16377 0.704003 -0.0032 0
0.163774 0.705003 -0.0028 0
0.163774 0.705002 -0.0028 0
0.163774 0.705 -0.0029 0
0.163774 0.704999 -0.0034 0
0.163775 0.704998 -0.0034 0
0.163654 0.705024 -0.0025 0
0.163655 0.705023 -0.0025 0
0.163655 0.705023 -0.0025 0
0.163654 0.705021 -0.003 0
0.163653 0.70502 -0.0034 0
0.163652 0.705019 -0.0034 0
0.163652 0.705018 -0.0032 0
0.163774 0.704989 -0.0032 0
0.163772 0.704987 -0.0033 0
0.163768 0.703986 -0.0033 0
0.163771 0.704985 -0.0033 0
0.163771 0.704983 -0.0033 0
0.163771 0.704981 -0.0032 0
0.163771 0.704979 -0.0032 0
0.16377 0.704977 -0.0029 0
0.16377 0.704975 -0.0029 0
0.163768 0.704972 -0.003 0
0.163767 0.70497 -0.003 0
0.163766 0.704968 -0.0029 0
0.163766 0.704965 -0.0029 0
0.163765 0.704963 -0.0028 0
0.163765 0.704961 -0.0028 0
0.163764 0.70496 -0.0027 0
0.163764 0.704959 -0.0027 0
0.163763 0.704958 -0.0027 0
0.163639 0.704984 -0.0028 0
0.163638 0.704981 -0.0028 0
0.163638 0.704979 -0.003 0
0.163638 0.704976 -0.003 0
0.163638 0.704974 -0.0031 0
0.163637 0.704972 -0.0031 0
0.163759 0.704942 -0.0032 0
0.16376 0.704941 -0.0032 0
0.16376 0.704939 -0.0029 0
0.16376 0.704938 -0.0029 0
0.16376 0.704936 -0.0023 0
0.163761 0.704935 -0.0023 0
0.163761 0.704934 -0.0031 0
0.163761 0.704933 -0.0031 0
0.163761 0.704932 -0.0032 0
0.163761 0.704932 -0.0032 0
0.163638 0.704959 -0.0028 0
0.163638 0.704958 -0.003 0
0.163639 0.704957 -0.003 0
0.163639 0.704956 -0.003 0
0.163639 0.704954 -0.0033 0
0.163762 0.704925 -0.003 0
0.163761 0.704925 -0.003 0
0.16376 0.704924 -0.003 0
0.16376 0.704923 -0.0032 0
0.16376 0.704922 -0.0032 0
0.163759 0.70492 -0.0032 0
0.163759 0.704919 -0.0032 0
0.163759 0.704918 -0.0032 0
0.163759 0.704917 -0.003 0
0.163759 0.704916 -0.003 0
0.163759 0.704915 -0.003 0
0.163759 0.704914 -0.0029 0
0.16376 0.704913 -0.0029 0
0.163758 0.704913 -0.0029 0
0.163758 0.704912 -0.0032 0
0.163758 0.704911 -0.0032 0
0.163758 0.70491 -0.0032 0
0.163758 0.704908 -0.0032 0
0.163758 0.704905 -0.0029 0
0.163758 0.704904 -0.0029 0
0.163758 0.704904 -0.0033 0
0.163757 0.704904 -0.0033 0
0.163757 0.704903 -0.0025 0
0.163757 0.704902 -0.0025 0
0.163756 0.704901 -0.0025 0
0.163755 0.704901 -0.0028 0
0.163755 0.7049 -0.0028 0
0.163755 0.704899 -0.0029 0
0.163754 0.704899 -0.0029 0
0.163754 0.704897 -0.0033 0
0.163753 0.704896 -0.0033 0
0.163752 0.704896 -0.0033 0
0.163751 0.704895 -0.0031 0
0.16375 0.704895 -0.0031 0
0.163749 0.704894 -0.0031 0
0.163748 0.704892 -0.0031 0
0.163748 0.704892 -0.0029 0
0.163747 0.704891 -0.0029 0
0.163746 0.70489 -0.0028 0
0.163745 0.704889 -0.0028 0
0.163744 0.704888 -0.0033 0
0.163742 0.704887 -0.0033 0
0.163742 0.704886 -0.0031 0
0.163741 0.704885 -0.0031 0
0.163741 0.704884 -0.0031 0
0.163741 0.704883 -0.0031 0
0.163741 0.704882 -0.003 0
0.163616 0.704908 -0.0027 0
0.163615 0.704907 -0.0027 0
0.163614 0.704905 -0.0027 0
0.163574 0.693905 -0.0033 0
0.163613 0.704904 -0.0033 0
0.163613 0.704903 -0.0033 0
0.163612 0.704902 -0.0034 0
0.163612 0.704901 -0.0034 0
0.163611 0.7049 -0.0028 0
0.163611 0.704899 -0.0028 0
0.163611 0.704898 -0.0033 0
0.163611 0.704897 -0.0033 0
0.163611 0.704897 -0.0037 0
0.163611 0.704896 -0.0037 0
0.16361 0.704895 -0.003 0
0.163611 0.704893 -0.003 0
0.163612 0.704891 -0.003 0
0.163612 0.704889 -0.0031 0
0.163613 0.704889 -0.0031 0
0.163615 0.704891 -0.0039 0
0.163616 0.70489 -0.0039 0
0.163616 0.70489 -0.0028 0
0.163616 0.70489 -0.0028 0
0.163616 0.704889 -0.0028 0
0.163616 0.704889 -0.0028 0
0.163739 0.704858 -0.0026 0
0.163738 0.704858 -0.0026 0
0.163738 0.704857 -0.0035 0
0.163738 0.704856 -0.0035 0
0.163738 0.704855 -0.0035 0
0.163738 0.704854 -0.0032 0
0.163738 0.704853 -0.0032 0
0.163615 0.704881 -0.0027 0
0.163614 0.70488 -0.0027 0
0.163614 0.70488 -0.0031 0
0.163613 0.70488 -0.0031 0
0.163614 0.70488 -0.0031 0
0.163615 0.704879 -0.0029 0
0.163615 0.704878 -0.0029 0
0.163615 0.704877 -0.0035 0
0.163738 0.704847 -0.003 0
0.163738 0.704846 -0.003 0
0.163615 0.704872 -0.003 0
0.163616 0.704871 -0.0028 0
0.163616 0.70487 -0.0028 0
0.163616 0.704869 -0.0034 0
0.163616 0.704867 -0.0034 0
0.163617 0.704865 -0.003 0
0.163618 0.704863 -0.003 0
0.163618 0.704862 -0.003 0
0.163618 0.70486 -0.003 0
0.163741 0.704832 -0.003 0
0.163619 0.70486 -0.0036 0
0.163745 0.705832 -0.0036 0
0.163618 0.704859 -0.0036 0
0.163742 0.70483 -0.0035 0
0.163742 0.704829 -0.0035 0
0.163742 0.704827 -0.0033 0
0.163742 0.704826 -0.0029 0
0.163734 0.702825 -0.0029 0
0.163742 0.704825 -0.0029 0
0.163742 0.704824 -0.0029 0
0.163741 0.704823 -0.0029 0
0.163619 0.70485 -0.0029 0
0.163741 0.704822 -0.0031 0
0.163741 0.704821 -0.0032 0
0.163619 0.704847 -0.0032 0
0.163619 0.704846 -0.0032 0
0.163619 0.704845 -0.0028 0
0.163618 0.704841 -0.0034 0
0.163741 0.704812 -0.0034 0
0.163742 0.704811 -0.0026 0
0.163742 0.70481 -0.0026 0
0.163743 0.704809 -0.0026 0
0.163743 0.704808 -0.0038 0
0.163743 0.704806 -0.0038 0
0.163743 0.704806 -0.0032 0
0.163742 0.704802 -0.0032 0
0.163742 0.704801 -0.003 0
0.163742 0.704801 -0.003 0
0.163741 0.7048 -0.0034 0
0.163741 0.7048 -0.0034 0
0.163617 0.704827 -0.0034 0
0.163616 0.704827 -0.0029 0
0.163615 0.704825 -0.003 0
0.163614 0.704823 -0.003 0
0.163614 0.704823 -0.003 0
0.163614 0.704822 -0.0034 0
0.163614 0.704822 -0.0034 0
0.163615 0.704821 -0.0034 0
0.163615 0.704821 -0.003 0
0.163615 0.704821 -0.0032 0
0.163615 0.70482 -0.0032 0
0.163615 0.704818 -0.0032 0
0.163616 0.704817 -0.0028 0
0.163615 0.704816 -0.0028 0
0.163615 0.704814 -0.0032 0
0.163614 0.704813 -0.0033 0
0.163614 0.704811 -0.0033 0
0.163613 0.70481 -0.0031 0
0.163614 0.704809 -0.0031 0
0.163613 0.704807 -0.003 0
0.163613 0.704804 -0.003 0
0.163614 0.704803 -0.0027 0
0.163614 0.704802 -0.0027 0
0.163614 0.704802 -0.0031 0
0.163614 0.7048 -0.0031 0
0.163614 0.704798 -0.0031 0
0.163614 0.704797 -0.0031 0
0.163614 0.704796 -0.0027 0
0.163614 0.704795 -0.0027 0
0.163614 0.704794 -0.0028 0
0.163614 0.704794 -0.0028 0
0.163614 0.704792 -0.0031 0
0.163614 0.704791 -0.0031 0
0.163614 0.704791 -0.0028 0
0.163614 0.704791 -0.0028 0
0.163614 0.704791 -0.0033 0
0.163613 0.704791 -0.0033 0
0.163613 0.70479 -0.0027 0
0.163613 0.704789 -0.0027 0
0.163612 0.704789 -0.0027 0
0.163613 0.704789 -0.0027 0
0.163613 0.704789 -0.0032 0
0.163613 0.704788 -0.0032 0
0.163613 0.704787 -0.0032 0
0.163613 0.704786 -0.0031 0
0.163614 0.704785 -0.0031 0
0.163614 0.704784 -0.0027 0
0.163614 0.704781 -0.0027 0
0.163614 0.704779 -0.0029 0
0.163614 0.704779 -0.0029 0
0.163615 0.704778 -0.0029 0
0.163615 0.704776 -0.0028 0
0.163615 0.704776 -0.0028 0
0.163615 0.704775 -0.0028 0
0.163615 0.704774 -0.0032 0
0.163605 0.701772 -0.0032 0
0.163616 0.704771 -0.0032 0
0.163616 0.70477 -0.0032 0
0.163617 0.70477 -0.0031 0
0.163616 0.704768 -0.0031 0
0.163617 0.704768 -0.0031 0
0.163617 0.704767 -0.0034 0
0.163617 0.704766 -0.0034 0
0.163617 0.704766 -0.0028 0
0.163617 0.704764 -0.0034 0
0.163618 0.704763 -0.0034 0
0.163618 0.704763 -0.0034 0
0.163618 0.704763 -0.0035 0
0.163617 0.704762 -0.0035 0
0.163617 0.704762 -0.0035 0
0.163617 0.704761 -0.0031 0
0.163617 0.704759 -0.0031 0
0.163616 0.704758 -0.0029 0
0.163616 0.704757 -0.0029 0
0.163616 0.704756 -0.0032 0
0.163616 0.704756 -0.0032 0
0.163616 0.704755 -0.0028 0
0.163616 0.704755 -0.0028 0
0.163615 0.704754 -0.0035 0
0.163615 0.704754 -0.0035 0
0.163615 0.704753 -0.0035 0
0.163616 0.704753 -0.0029 0
0.163616 0.704752 -0.0029 0
0.163616 0.704752 -0.0031 0
0.163615 0.704752 -0.0031 0
0.163615 0.704751 -0.0031 0
0.163615 0.70475 -0.0032 0
0.163615 0.70475 -0.0032 0
0.163616 0.704749 -0.003 0
0.163617 0.704748 -0.003 0
0.163617 0.704747 -0.003 0
0.163618 0.704746 -0.0026 0
0.163618 0.704746 -0.003 0
0.163619 0.704745 -0.003 0
0.163619 0.704745 -0.003 0
0.163609 0.701744 -0.0029 0
0.16362 0.704743 -0.0029 0
0.16362 0.704742 -0.0029 0
0.163621 0.704742 -0.0029 0
0.163622 0.704742 -0.0029 0
0.163621 0.704741 -0.003 0
0.163622 0.70474 -0.003 0
0.163622 0.704738 -0.0027 0
0.163622 0.704737 -0.0027 0
0.163622 0.704736 -0.0025 0
0.163622 0.704735 -0.0025 0
0.163622 0.704736 -0.0028 0
0.163622 0.704736 -0.0028 0
0.163622 0.704735 -0.0028 0
0.163622 0.704733 -0.0031 0
0.163622 0.704732 -0.0028 0
0.163622 0.70473 -0.0028 0
0.163622 0.704728 -0.0028 0
0.163619 0.703727 -0.0031 0
0.163623 0.704727 -0.0031 0
0.163624 0.704726 -0.0029 0
0.163624 0.704726 -0.0029 0
0.163624 0.704726 -0.0031 0
0.163625 0.704725 -0.0031 0
0.163625 0.704725 -0.003 0
0.163625 0.704724 -0.003 0
0.163624 0.704723 -0.003 0
0.163624 0.704722 -0.0028 0
0.163622 0.704722 -0.0035 0
0.163621 0.704721 -0.0035 0
0.163621 0.704719 -0.0035 0
0.163621 0.704718 -0.0029 0
0.163621 0.704718 -0.0029 0
0.163621 0.704718 -0.0034 0
0.16361 0.701718 -0.0034 0
0.163621 0.704717 -0.0034 0
0.163621 0.704716 -0.0031 0
0.163621 0.704715 -0.0031 0
0.163621 0.704713 -0.0031 0
0.16362 0.704711 -0.0032 0
0.16362 0.70471 -0.0029 0
0.163619 0.704708 -0.0029 0
0.163618 0.704707 -0.0033 0
0.163617 0.704706 -0.0033 0
0.163616 0.704705 -0.003 0
0.163616 0.704704 -0.003 0
0.163615 0.704702 -0.0031 0
0.163615 0.704702 -0.0031 0
0.163614 0.7047 -0.0034 0
0.163614 0.704699 -0.0034 0
0.163613 0.704699 -0.003 0
0.163612 0.704698 -0.003 0
0.163611 0.704697 -0.003 0
0.163603 0.702696 -0.0036 0
0.16361 0.704696 -0.0036 0
0.163603 0.702695 -0.0033 0
0.16361 0.704694 -0.0033 0
0.16361 0.704693 -0.003 0
0.163611 0.704691 -0.003 0
0.163611 0.704689 -0.0035 0
0.16361 0.704688 -0.0035 0
0.16361 0.704687 -0.0035 0
0.163732 0.704657 -0.0026 0
0.163732 0.704657 -0.003 0
0.163732 0.704657 -0.003 0
0.163732 0.704657 -0.003 0
0.163609 0.704684 -0.0031 0
0.163609 0.704682 -0.003 0
0.163731 0.704654 -0.003 0
0.163732 0.704652 -0.003 0
0.163611 0.704677 -0.0029 0
0.163612 0.704676 -0.003 0
0.163613 0.704676 -0.003 0
0.163761 0.745675 -0.003 0
0.163614 0.704675 -0.0032 0
0.163611 0.703675 -0.0032 0
0.163613 0.704674 -0.0032 0
0.163613 0.704674 -0.0032 0
0.163735 0.704646 -0.0029 0
0.163735 0.704646 -0.0029 0
0.163734 0.704644 -0.0031 0
0.163734 0.704643 -0.0031 0
0.163734 0.704642 -0.0029 0
0.163735 0.704642 -0.0029 0
0.163736 0.704642 -0.0032 0
0.163736 0.704641 -0.0032 0
0.163735 0.704639 -0.0027 0
0.163735 0.704639 -0.0027 0
0.163735 0.704638 -0.0027 0
0.163734 0.704635 -0.0032 0
0.163734 0.704634 -0.0031 0
0.163733 0.704633 -0.0031 0
0.163733 0.704632 -0.0031 0
0.163732 0.704631 -0.0027 0
0.163732 0.70463 -0.0027 0
0.163732 0.704629 -0.0033 0
0.163732 0.704628 -0.0032 0
0.163733 0.704628 -0.0032 0
0.163734 0.704627 -0.0032 0
0.163734 0.704627 -0.0033 0
0.163734 0.704625 -0.0033 0
0.163734 0.704624 -0.0029 0
0.163734 0.704624 -0.0029 0
0.163734 0.704623 -0.0029 0
0.163734 0.704622 -0.0028 0
0.163734 0.704621 -0.0028 0
0.163733 0.70462 -0.003 0
0.163733 0.704619 -0.003 0
0.163732 0.704618 -0.0029 0
0.163732 0.704617 -0.0029 0
0.163732 0.704616 -0.0027 0
0.163733 0.704616 -0.0027 0
0.163733 0.704616 -0.0027 0
0.163733 0.704616 -0.0033 0
0.163733 0.704615 -0.0033 0
0.163733 0.704613 -0.003 0
0.163733 0.704611 -0.003 0
0.163732 0.70461 -0.0035 0
0.163732 0.704609 -0.0035 0
0.16361 0.704635 -0.0035 0
0.163609 0.704632 -0.0031 0
0.163602 0.70263 -0.0031 0
0.16361 0.704629 -0.0031 0
0.16361 0.704627 -0.0033 0
0.163609 0.704625 -0.0033 0
0.163609 0.704625 -0.0033 0
0.163608 0.704623 -0.003 0
0.163608 0.704622 -0.003 0
0.163608 0.704621 -0.0032 0
0.16373 0.704591 -0.0032 0
0.163607 0.704617 -0.0032 0
0.1636 0.702617 -0.0032 0
0.16373 0.704588 -0.0029 0
0.163607 0.704614 -0.0029 0
0.163606 0.704612 -0.0029 0
0.163606 0.704611 -0.0027 0
0.163606 0.70461 -0.0027 0
0.163605 0.704608 -0.0032 0
0.163606 0.704608 -0.0032 0
0.163605 0.704607 -0.0028 0
0.163604 0.704606 -0.0028 0
0.163727 0.704577 -0.0028 0
0.163597 0.702604 -0.0028 0
0.163604 0.704603 -0.0028 0
0.163604 0.704602 -0.0032 0
0.163727 0.704571 -0.0032 0
0.163727 0.704569 -0.003 0
0.163728 0.704568 -0.003 0
0.163728 0.704566 -0.0031 0
0.163728 0.704565 -0.0031 0
0.163728 0.704564 -0.0031 0
0.163729 0.704563 -0.0026 0
0.163729 0.704562 -0.0026 0
0.163729 0.704561 -0.0031 0
0.16373 0.70456 -0.0031 0
0.163729 0.70456 -0.0034 0
0.163729 0.70456 -0.0034 0
0.163729 0.704558 -0.0027 0
0.163728 0.704558 -0.0027 0
0.163727 0.704558 -0.0035 0
0.163727 0.704559 -0.0035 0
0.163726 0.704559 -0.0031 0
0.163726 0.704559 -0.0031 0
0.163725 0.704559 -0.0035 0
0.163724 0.704558 -0.0035 0
0.163724 0.704558 -0.0029 0
0.163724 0.704556 -0.0033 0
0.163724 0.704555 -0.0033 0
0.163724 0.704553 -0.0033 0
0.163724 0.704552 -0.0033 0
0.163723 0.704548 -0.0033 0
0.163723 0.704547 -0.0026 0
0.163724 0.704545 -0.0026 0
0.163724 0.704543 -0.003 0
0.163723 0.704541 -0.0031 0
0.163723 0.70454 -0.0031 0
0.163723 0.704539 -0.0031 0
0.163724 0.704537 -0.0032 0
0.163723 0.704535 -0.0028 0
0.163722 0.704534 -0.0028 0
0.163722 0.704533 -0.0028 0
0.16372 0.704531 -0.0033 0
0.16372 0.704531 -0.0033 0
0.16372 0.704529 -0.0033 0
0.16372 0.704527 -0.0033 0
0.163719 0.704526 -0.0027 0
0.163718 0.704525 -0.0027 0
0.163717 0.704524 -0.0033 0
0.163717 0.704522 -0.0033 0
0.163717 0.704521 -0.0027 0
0.163717 0.704518 -0.0032 0
0.163717 0.704516 -0.0032 0
0.163717 0.704515 -0.0032 0
0.163716 0.704513 -0.0031 0
0.163716 0.704512 -0.0031 0
0.163715 0.704511 -0.0031 0
0.163714 0.70451 -0.0031 0
0.163714 0.704509 -0.0033 0
0.163713 0.704508 -0.0033 0
0.163712 0.704507 -0.0033 0
0.163712 0.704506 -0.0036 0
0.163712 0.704506 -0.0036 0
0.163712 0.704505 -0.0031 0
0.163711 0.704504 -0.0031 0
0.163711 0.704504 -0.003 0
0.16371 0.704503 -0.003 0
0.16371 0.704501 -0.0035 0
0.163709 0.704499 -0.0035 0
0.163709 0.704497 -0.0032 0
0.163708 0.704494 -0.0032 0
0.163709 0.704493 -0.0035 0
0.163709 0.704492 -0.0035 0
0.163709 0.704492 -0.003 0
0.163709 0.704491 -0.003 0
0.16371 0.704491 -0.003 0
0.163711 0.704489 -0.003 0
0.163711 0.704489 -0.0029 0
0.163711 0.704488 -0.0029 0
0.163711 0.704486 -0.0029 0
0.16371 0.704485 -0.0032 0
0.163711 0.704483 -0.0032 0
0.16371 0.704481 -0.0036 0
0.16371 0.70448 -0.0036 0
0.16371 0.70448 -0.003 0
0.163711 0.704479 -0.003 0
0.163711 0.704479 -0.0031 0
0.163712 0.704478 -0.0031 0
0.163712 0.704477 -0.0031 0
0.163712 0.704477 -0.003 0
0.163712 0.704476 -0.003 0
0.163712 0.704476 -0.003 0
0.163712 0.704475 -0.0023 0
0.163711 0.704473 -0.0027 0
0.163712 0.704471 -0.0027 0
0.163712 0.70447 -0.0028 0
0.163713 0.704469 -0.0028 0
0.163713 0.704468 -0.0028 0
0.163714 0.704467 -0.003 0
0.163714 0.704465 -0.003 0
0.163715 0.704464 -0.0029 0
0.163716 0.704463 -0.0029 0
0.163716 0.704463 -0.0029 0
0.163716 0.704462 -0.0034 0
0.163716 0.704461 -0.0034 0
0.163716 0.704459 -0.0032 0
0.163715 0.704456 -0.0032 0
0.163715 0.704455 -0.0032 0
0.163714 0.704454 -0.0032 0
0.163714 0.704453 -0.0031 0
0.163713 0.704452 -0.0031 0
0.163712 0.704452 -0.0031 0
0.163712 0.70445 -0.0032 0
0.163712 0.704449 -0.0032 0
0.163713 0.704448 -0.0032 0
0.163712 0.704446 -0.0027 0
0.163712 0.704445 -0.0031 0
0.163712 0.704444 -0.0031 0
0.163712 0.704443 -0.0032 0
0.163712 0.704442 -0.0032 0
0.163711 0.704441 -0.0032 0
0.16371 0.704438 -0.0035 0
0.163709 0.704435 -0.0035 0
0.163708 0.704433 -0.003 0
0.163707 0.704432 -0.003 0
0.163706 0.704431 -0.003 0
0.163705 0.70443 -0.003 0
0.163704 0.704429 -0.003 0
0.163703 0.704427 -0.003 0
0.163702 0.704425 -0.0032 0
0.163701 0.704424 -0.0032 0
0.1637 0.704422 -0.0032 0
0.163699 0.704421 -0.0032 0
0.163698 0.704419 -0.0032 0
0.163698 0.704419 -0.0025 0
0.163697 0.704419 -0.0025 0
0.163697 0.704418 -0.0029 0
0.163697 0.704417 -0.0029 0
0.163693 0.703416 -0.0029 0
0.163696 0.704414 -0.0031 0
0.163696 0.704413 -0.0031 0
0.163696 0.704412 -0.0031 0
0.163696 0.704411 -0.0031 0
0.163695 0.70441 -0.0033 0
0.163695 0.704408 -0.0033 0
0.163695 0.704407 -0.0031 0
0.163694 0.704406 -0.0031 0
0.163694 0.704403 -0.0031 0
0.163694 0.704403 -0.0031 0
0.163693 0.704403 -0.0025 0
0.163693 0.704402 -0.0025 0
0.163692 0.704401 -0.0025 0
0.163684 0.7024 -0.0031 0
0.163691 0.704399 -0.0031 0
0.163691 0.704398 -0.003 0
0.163691 0.704397 -0.003 0
0.16369 0.704396 -0.003 0
0.163691 0.704395 -0.0032 0
0.163691 0.704394 -0.0032 0
0.163691 0.704394 -0.0026 0
0.16369 0.704392 -0.0026 0
0.163691 0.704391 -0.0028 0
0.163691 0.704391 -0.0028 0
0.16369 0.70439 -0.0027 0
0.16369 0.704389 -0.0027 0
0.16369 0.704389 -0.0027 0
0.163689 0.704389 -0.0032 0
0.163689 0.704388 -0.0032 0
0.163686 0.703386 -0.0028 0
0.163685 0.703386 -0.0028 0
0.163689 0.704385 -0.0028 0
0.163689 0.704384 -0.0029 0
0.163643 0.692384 -0.0033 0
0.163687 0.704382 -0.0033 0
0.163686 0.704381 -0.0033 0
0.163686 0.70438 -0.0028 0
0.163686 0.70438 -0.0028 0
0.163686 0.704379 -0.0032 0
0.163686 0.704378 -0.0032 0
0.163685 0.704377 -0.003 0
0.163561 0.704405 -0.003 0
0.163561 0.704405 -0.0026 0
0.163561 0.704404 -0.0026 0
0.163561 0.704404 -0.0032 0
0.163561 0.704403 -0.0032 0
0.16356 0.704402 -0.0032 0
0.163561 0.704402 -0.0026 0
0.163561 0.704401 -0.0026 0
0.163561 0.704401 -0.0027 0
0.163561 0.7044 -0.0027 0
0.16356 0.704399 -0.0029 0
0.163561 0.704398 -0.0029 0
0.163684 0.70437 -0.0029 0
0.163684 0.704369 -0.0032 0
0.163683 0.704368 -0.0032 0
0.163682 0.704367 -0.0034 0
0.163558 0.704392 -0.0034 0
0.163558 0.704391 -0.0031 0
0.163681 0.704362 -0.0031 0
0.163681 0.704361 -0.0032 0
0.16367 0.701359 -0.0032 0
0.16368 0.704359 -0.0032 0
0.163679 0.704358 -0.0032 0
0.163678 0.704357 -0.0038 0
0.163677 0.704356 -0.0038 0
0.163677 0.704355 -0.0036 0
0.163676 0.704353 -0.0026 0
0.163676 0.704352 -0.0026 0
0.163676 0.704352 -0.0026 0
0.163677 0.70435 -0.0032 0
0.163677 0.704349 -0.0034 0
0.163678 0.704348 -0.0034 0
0.163678 0.704347 -0.0034 0
0.163678 0.704346 -0.0032 0
0.163678 0.704344 -0.0031 0
0.163678 0.704343 -0.0031 0
0.163679 0.704342 -0.0034 0
0.163679 0.704341 -0.0034 0
0.16368 0.70434 -0.0028 0
0.163681 0.704339 -0.0028 0
0.163682 0.704338 -0.0028 0
0.163682 0.704336 -0.0035 0
0.163683 0.704335 -0.003 0
0.163683 0.704334 -0.003 0
0.163683 0.704334 -0.003 0
0.16356 0.70436 -0.0028 0
0.16356 0.704359 -0.0029 0
0.16356 0.704358 -0.0029 0
0.16356 0.704357 -0.0032 0
0.163561 0.704357 -0.0032 0
0.163561 0.704357 -0.0028 0
0.163561 0.704357 -0.0028 0
0.163561 0.704358 -0.0031 0
0.163561 0.704357 -0.003 0
0.163562 0.704357 -0.003 0
0.163562 0.704356 -0.003 0
0.163562 0.704354 -0.003 0
0.163561 0.704352 -0.003 0
0.163561 0.704351 -0.003 0
0.163417 0.664351 -0.003 0
0.163561 0.70435 -0.0029 0
0.163562 0.70435 -0.0029 0
0.163562 0.704349 -0.0033 0
0.163562 0.704347 -0.0033 0
0.163562 0.704346 -0.0033 0
0.163562 0.704345 -0.003 0
0.163562 0.704345 -0.003 0
0.163561 0.704344 -0.0034 0
0.163562 0.704342 -0.0034 0
0.163562 0.704341 -0.0029 0
0.163562 0.70434 -0.0029 0
0.163561 0.704339 -0.0031 0
0.163559 0.704337 -0.0031 0
0.163558 0.704336 -0.0031 0
0.163558 0.704334 -0.0031 0
0.163557 0.704333 -0.003 0
0.163556 0.704331 -0.003 0
0.163556 0.70433 -0.003 0
0.163556 0.704329 -0.003 0
0.163556 0.704328 -0.003 0
0.163557 0.704326 -0.0031 0
0.163557 0.704324 -0.0031 0
0.163558 0.704323 -0.0031 0
0.163559 0.704321 -0.0031 0
0.163559 0.70432 -0.0032 0
0.16356 0.704319 -0.0032 0
0.163559 0.704318 -0.0032 0
0.163558 0.704317 -0.0025 0
0.163558 0.704316 -0.0025 0
0.163558 0.704315 -0.0033 0
0.163558 0.704314 -0.0033 0
0.163558 0.704314 -0.0033 0
0.163557 0.704314 -0.0028 0
0.163557 0.704313 -0.0028 0
0.163558 0.704312 -0.0029 0
0.16356 0.704308 -0.0029 0
0.16356 0.704306 -0.0029 0
0.16356 0.704304 -0.0029 0
0.163561 0.704302 -0.0033 0
0.163562 0.7043 -0.0033 0
0.163562 0.704299 -0.0033 0
0.163562 0.704297 -0.0031 0
0.163562 0.704296 -0.0026 0
0.163562 0.704294 -0.0026 0
0.163563 0.704293 -0.003 0
0.163563 0.704292 -0.003 0
0.163563 0.704292 -0.003 0
0.163564 0.704291 -0.003 0
0.163564 0.704291 -0.0029 0
0.163554 0.70129 -0.0029 0
0.163565 0.70429 -0.0034 0
0.163564 0.704287 -0.0034 0
0.163564 0.704286 -0.0029 0
0.163564 0.704285 -0.0029 0
0.163557 0.702285 -0.0033 0
0.163563 0.704283 -0.0033 0
0.163563 0.704283 -0.0032 0
0.163564 0.704282 -0.0032 0
0.163564 0.704281 -0.0024 0
0.163564 0.70428 -0.0024 0
0.163563 0.704279 -0.003 0
0.163563 0.704278 -0.003 0
0.163686 0.704248 -0.0031 0
0.163684 0.704245 -0.0031 0
0.163683 0.704244 -0.0033 0
0.163683 0.704243 -0.0033 0
0.163683 0.704242 -0.0033 0
0.16356 0.704268 -0.0033 0
0.163559 0.704264 -0.0029 0
0.163558 0.704264 -0.0029 0
0.163557 0.704263 -0.0032 0
0.163556 0.70426 -0.0032 0
0.163546 0.701259 -0.0031 0
0.163556 0.704258 -0.0031 0
0.163557 0.704257 -0.003 0
0.163557 0.704256 -0.003 0
0.163558 0.704257 -0.003 0
0.163515 0.692256 -0.0031 0
0.163559 0.704255 -0.0031 0
0.163681 0.704227 -0.0032 0
0.163681 0.704226 -0.0032 0
0.163558 0.704253 -0.0032 0
0.163558 0.704252 -0.0029 0
0.163558 0.704251 -0.0029 0
0.163558 0.70425 -0.0029 0
0.163557 0.704249 -0.0029 0
0.163557 0.704248 -0.0032 0
0.163557 0.704247 -0.0032 0
0.163556 0.704245 -0.0027 0
0.163555 0.704244 -0.0027 0
0.163555 0.704244 -0.0028 0
0.163554 0.704243 -0.0028 0
0.163553 0.704241 -0.003 0
0.163553 0.70424 -0.003 0
0.163553 0.704239 -0.0025 0
0.163553 0.704238 -0.0025 0
0.163676 0.704208 -0.0031 0
0.163675 0.704206 -0.0031 0
0.163676 0.704205 -0.0031 0
0.163676 0.704204 -0.0031 0
0.163554 0.70423 -0.0027 0
0.163677 0.704201 -0.0027 0
0.163677 0.7042 -0.0032 0
0.163677 0.704199 -0.0032 0
0.163677 0.704197 -0.0032 0
0.163554 0.704224 -0.0032 0
0.163554 0.704222 -0.0029 0
0.163554 0.70422 -0.0032 0
0.163554 0.704218 -0.0032 0
0.163554 0.704217 -0.0032 0
0.163553 0.704216 -0.0027 0
0.163554 0.704214 -0.003 0
0.163554 0.704213 -0.003 0
0.163554 0.704212 -0.003 0
0.163554 0.70421 -0.0033 0
0.163553 0.70421 -0.003 0
0.163554 0.70421 -0.003 0
0.163556 0.704208 -0.003 0
0.163678 0.70418 -0.003 0
0.163677 0.704177 -0.0031 0
0.163678 0.704176 -0.0031 0
0.163678 0.704174 -0.0034 0
0.163677 0.704173 -0.0028 0
0.163677 0.704172 -0.0028 0
0.163677 0.704171 -0.0028 0
0.163677 0.70417 -0.0033 0
0.163678 0.704169 -0.0033 0
0.163678 0.704168 -0.003 0
0.163679 0.704165 -0.003 0
0.163679 0.704163 -0.0035 0
0.163678 0.704162 -0.0035 0
0.163678 0.704159 -0.0031 0
0.163555 0.704185 -0.0031 0
0.163554 0.704184 -0.0031 0
0.163554 0.704182 -0.0029 0
0.163554 0.704181 -0.0028 0
0.163554 0.704181 -0.0028 0
0.163553 0.70418 -0.0028 0
0.163553 0.704177 -0.0029 0
0.163552 0.704175 -0.0036 0
0.163552 0.704173 -0.0036 0
0.163551 0.704172 -0.0036 0
0.163551 0.704172 -0.0034 0
0.16355 0.704171 -0.0032 0
0.163551 0.704171 -0.0032 0
0.16355 0.70417 -0.0032 0
0.163551 0.70417 -0.0027 0
0.163552 0.704168 -0.0026 0
0.163552 0.704168 -0.0026 0
0.163553 0.704167 -0.0026 0
0.163553 0.704167 -0.0028 0
0.163553 0.704166 -0.0031 0
0.163553 0.704166 -0.0031 0
0.163553 0.704166 -0.0031 0
0.163551 0.704164 -0.0036 0
0.16355 0.704163 -0.0031 0
0.163549 0.704162 -0.0031 0
0.16367 0.704133 -0.0029 0
0.163669 0.704132 -0.0029 0
0.163669 0.704131 -0.0027 0
0.163669 0.70413 -0.0027 0
0.163668 0.704129 -0.0032 0
0.163668 0.704128 -0.0032 0
0.163667 0.704128 -0.0026 0
0.163667 0.704127 -0.0026 0
0.163668 0.704125 -0.0033 0
0.16366 0.702124 -0.0033 0
0.163668 0.704123 -0.0033 0
0.163668 0.704121 -0.0033 0
0.163668 0.704118 -0.0025 0
0.163669 0.704118 -0.0025 0
0.163669 0.704118 -0.0027 0
0.163669 0.704117 -0.0027 0
0.163545 0.704143 -0.0033 0
0.163546 0.704142 -0.0033 0
0.163546 0.704141 -0.0035 0
0.163546 0.704141 -0.0035 0
0.163546 0.704141 -0.0035 0
0.163546 0.70414 -0.0031 0
0.163546 0.70414 -0.0031 0
0.163546 0.704139 -0.0034 0
0.163546 0.704138 -0.0034 0
0.163546 0.704137 -0.0036 0
0.163546 0.704136 -0.0036 0
0.163546 0.704135 -0.0031 0
0.163546 0.704134 -0.0031 0
0.16367 0.704104 -0.0031 0
0.163548 0.704129 -0.003 0
0.163548 0.704128 -0.0035 0
0.163547 0.704128 -0.0035 0
0.163548 0.704128 -0.0035 0
0.163548 0.704127 -0.0031 0
0.163548 0.704126 -0.0031 0
0.163548 0.704125 -0.0034 0
0.163548 0.704124 -0.0034 0
0.163548 0.704123 -0.0034 0
0.16367 0.704094 -0.0033 0
0.16367 0.704093 -0.003 0
0.163669 0.704092 -0.003 0
0.163669 0.704091 -0.003 0
0.163668 0.704089 -0.0033 0
0.163667 0.704086 -0.0028 0
0.163666 0.704085 -0.0028 0
0.163666 0.704085 -0.0028 0
0.163667 0.704084 -0.0029 0
0.163667 0.704083 -0.0029 0
0.163667 0.704082 -0.0033 0
0.163667 0.704082 -0.0033 0
0.163667 0.704081 -0.0033 0
0.163667 0.70408 -0.0031 0
0.163666 0.704078 -0.0031 0
0.163666 0.704077 -0.0031 0
0.163654 0.701077 -0.0031 0
0.163666 0.704077 -0.0031 0
0.163666 0.704076 -0.0029 0
0.163665 0.704075 -0.0029 0
0.163665 0.704074 -0.0033 0
0.163663 0.704071 -0.0033 0
0.163655 0.702069 -0.0029 0
0.163662 0.704068 -0.0029 0
0.163661 0.704065 -0.0031 0
0.16366 0.704064 -0.0031 0
0.16366 0.704063 -0.0029 0
0.163659 0.704062 -0.0029 0
0.163659 0.704061 -0.0031 0
0.163658 0.70406 -0.0031 0
0.163492 0.692087 -0.0031 0
0.163535 0.704086 -0.0031 0
0.163534 0.704085 -0.0035 0
0.163535 0.704084 -0.0035 0
0.163534 0.704083 -0.0032 0
0.163533 0.704082 -0.0032 0
0.163656 0.704053 -0.0028 0
0.163656 0.704053 -0.0028 0
0.163532 0.704079 -0.0037 0
0.163532 0.704078 -0.0037 0
0.163531 0.704076 -0.0024 0
0.163531 0.704074 -0.0024 0
0.163531 0.704073 -0.0029 0
0.163531 0.704072 -0.0031 0
0.163531 0.704071 -0.0031 0
0.163531 0.70407 -0.0031 0
0.163532 0.704068 -0.003 0
0.163532 0.704067 -0.0028 0
0.163531 0.704066 -0.0028 0
0.163531 0.704065 -0.0028 0
0.163532 0.704063 -0.003 0
0.163532 0.704062 -0.0026 0
0.163531 0.70406 -0.0026 0
0.163653 0.704032 -0.0026 0
0.163653 0.704031 -0.0034 0
0.16353 0.704057 -0.0034 0
0.163529 0.704056 -0.0028 0
0.163531 0.705054 -0.0028 0
0.16365 0.704025 -0.0028 0
0.16365 0.704024 -0.0031 0
0.163649 0.704022 -0.0033 0
0.163649 0.704021 -0.0033 0
0.163649 0.704019 -0.0033 0
0.16365 0.704018 -0.003 0
0.16365 0.704017 -0.003 0
0.163651 0.704013 -0.0033 0
0.163651 0.704012 -0.0033 0
0.163652 0.704011 -0.003 0
0.163652 0.704012 -0.003 0
0.163652 0.704012 -0.0035 0
0.163652 0.704012 -0.0035 0
0.163652 0.704011 -0.0035 0
0.163653 0.704009 -0.0027 0
0.163653 0.704009 -0.0027 0
0.163653 0.704009 -0.0027 0
0.163653 0.704009 -0.0032 0
0.163653 0.704008 -0.0032 0
0.163654 0.704004 -0.0029 0
0.163655 0.704003 -0.0029 0
0.163656 0.704002 -0.0031 0
0.163652 0.703 -0.003 0
0.163655 0.704 -0.003 0
0.163655 0.703999 -0.003 0
0.163654 0.703998 -0.0034 0
0.163654 0.703997 -0.0034 0
0.163653 0.703996 -0.003 0
0.163653 0.703995 -0.003 0
0.163653 0.703994 -0.003 0
0.163653 0.703993 -0.0029 0
0.163653 0.70399 -0.0029 0
0.163653 0.703988 -0.0029 0
0.163654 0.703986 -0.0029 0
0.163654 0.703984 -0.0027 0
0.163655 0.703983 -0.0027 0
0.163655 0.703983 -0.0032 0
0.163656 0.703983 -0.0032 0
0.163655 0.703982 -0.0026 0
0.163655 0.703981 -0.0026 0
0.163655 0.703981 -0.0027 0
0.163655 0.703981 -0.0027 0
0.163655 0.703981 -0.0027 0
0.163656 0.703979 -0.0037 0
0.163656 0.703977 -0.0026 0
0.163653 0.702976 -0.0026 0
0.163656 0.703975 -0.0026 0
0.163656 0.703974 -0.0032 0
0.163656 0.703973 -0.0032 0
0.163656 0.70397 -0.0027 0
0.163656 0.703969 -0.0027 0
0.163648 0.701967 -0.0027 0
0.163655 0.703965 -0.0027 0
0.163655 0.703964 -0.0027 0
0.163652 0.702962 -0.0027 0
0.163655 0.703961 -0.0027 0
0.163655 0.703959 -0.0031 0
0.163655 0.703958 -0.0034 0
0.163809 0.744957 -0.0034 0
0.163654 0.703958 -0.0034 0
0.163654 0.703958 -0.0028 0
0.163653 0.703958 -0.0028 0
0.163653 0.703957 -0.0029 0
0.163654 0.703957 -0.0029 0
0.163653 0.703956 -0.0029 0
0.163654 0.703954 -0.003 0
0.163654 0.703953 -0.0033 0
0.163653 0.703952 -0.0033 0
0.163653 0.703951 -0.0033 0
0.163653 0.70395 -0.0029 0
0.163653 0.70395 -0.0029 0
0.163652 0.703949 -0.003 0
0.163529 0.703975 -0.003 0
0.163529 0.703973 -0.0033 0
0.163529 0.703973 -0.0033 0
0.163676 0.74497 -0.0035 0
0.163528 0.703969 -0.0035 0
0.163528 0.703968 -0.0029 0
0.163528 0.703967 -0.0029 0
0.163528 0.703965 -0.003 0
0.163528 0.703964 -0.003 0
0.163527 0.703963 -0.0035 0
0.163521 0.701962 -0.0035 0
0.163526 0.703961 -0.0028 0
0.163525 0.70396 -0.0028 0
0.163525 0.70396 -0.0029 0
0.163648 0.703931 -0.0029 0
0.163648 0.70393 -0.0038 0
0.163649 0.703929 -0.0038 0
0.163649 0.703928 -0.0038 0
0.163649 0.703927 -0.0035 0
0.163648 0.703926 -0.0035 0
0.163647 0.703925 -0.0029 0
0.163647 0.703924 -0.0029 0
0.163646 0.703923 -0.0028 0
0.163645 0.703922 -0.0028 0
0.163644 0.703922 -0.0032 0
0.163644 0.703921 -0.0032 0
0.163644 0.70392 -0.0032 0
0.163643 0.703919 -0.0025 0
0.163642 0.703918 -0.0025 0
0.163636 0.702917 -0.0029 0
0.163639 0.703915 -0.0029 0
0.163639 0.703914 -0.0038 0
0.163638 0.703914 -0.0038 0
0.163637 0.703913 -0.0023 0
0.163636 0.703913 -0.0023 0
0.163636 0.703911 -0.0029 0
0.163636 0.70391 -0.0029 0
0.163636 0.703909 -0.0034 0
0.163636 0.703908 -0.0034 0
0.163635 0.703905 -0.0029 0
0.163635 0.703904 -0.0029 0
0.163634 0.703903 -0.0024 0
0.163634 0.703903 -0.0024 0
0.16351 0.703929 -0.0028 0
0.163633 0.7039 -0.0028 0
0.163633 0.703898 -0.0037 0
0.16351 0.703925 -0.0037 0
0.163512 0.703923 -0.0027 0
0.163512 0.703923 -0.0027 0
0.163512 0.703924 -0.0029 0
0.163512 0.703922 -0.0029 0
0.163501 0.700922 -0.003 0
0.163512 0.703921 -0.003 0
0.163512 0.70392 -0.0029 0
0.163509 0.702919 -0.0029 0
0.163514 0.703918 -0.0029 0
0.163513 0.703917 -0.0032 0
0.163515 0.703916 -0.0032 0
0.163516 0.703917 -0.0028 0
0.163516 0.703917 -0.0028 0
0.163516 0.703916 -0.0028 0
0.163516 0.703915 -0.0028 0
0.163517 0.703914 -0.0032 0
0.163517 0.703912 -0.0032 0
0.163517 0.70391 -0.0032 0
0.163641 0.703882 -0.0027 0
0.16364 0.703881 -0.0027 0
0.163641 0.703879 -0.0029 0
0.163641 0.703877 -0.0029 0
0.163642 0.703877 -0.0033 0
0.163639 0.702876 -0.0033 0
0.163642 0.703874 -0.0034 0
0.163642 0.703874 -0.0034 0
0.163642 0.703873 -0.0034 0
0.163642 0.703872 -0.0032 0
0.163641 0.703871 -0.0032 0
0.163641 0.70387 -0.0032 0
0.16364 0.70387 -0.0032 0
0.16364 0.703869 -0.0032 0
0.163639 0.703869 -0.0032 0
0.163639 0.703869 -0.003 0
0.163638 0.703868 -0.003 0
0.163638 0.703867 -0.003 0
0.163637 0.703866 -0.0034 0
0.163637 0.703865 -0.0027 0
0.163637 0.703866 -0.0027 0
0.163636 0.703866 -0.0027 0
0.163512 0.703892 -0.0034 0
0.163511 0.703893 -0.0027 0
0.163512 0.703893 -0.0027 0
0.163512 0.703893 -0.0027 0
0.163512 0.703891 -0.0032 0
0.163511 0.703891 -0.0029 0
0.163634 0.703862 -0.0029 0
0.163634 0.703862 -0.0029 0
0.16351 0.70389 -0.0031 0
0.163509 0.703889 -0.0032 0
0.163509 0.703888 -0.0032 0
0.163509 0.703887 -0.003 0
0.163509 0.703887 -0.003 0
0.163632 0.703857 -0.0032 0
0.163631 0.703857 -0.0032 0
0.163631 0.703856 -0.0029 0
0.16363 0.703856 -0.0029 0
0.163506 0.703883 -0.0026 0
0.163627 0.703855 -0.0026 0
0.163626 0.703855 -0.0032 0
0.163625 0.703854 -0.0032 0
0.163625 0.703854 -0.0032 0
0.163625 0.703852 -0.0032 0
0.163624 0.703851 -0.0032 0
0.163613 0.70085 -0.0032 0
0.163624 0.703849 -0.0032 0
0.163625 0.703849 -0.0028 0
0.163627 0.703847 -0.0028 0
0.163627 0.703846 -0.0035 0
0.163627 0.703844 -0.0035 0
0.163627 0.703844 -0.0024 0
0.163627 0.703843 -0.0024 0
0.163626 0.703841 -0.003 0
0.163626 0.70384 -0.003 0
0.163626 0.70384 -0.0036 0
0.163625 0.70384 -0.0036 0
0.163625 0.703838 -0.0036 0
0.163626 0.703837 -0.0026 0
0.163626 0.703836 -0.0034 0
0.163626 0.703836 -0.0034 0
0.163626 0.703835 -0.0034 0
0.163625 0.703835 -0.0033 0
0.163502 0.703861 -0.0033 0
0.163501 0.70386 -0.0029 0
0.163501 0.703858 -0.0029 0
0.1635 0.703856 -0.0029 0
0.163501 0.703855 -0.0032 0
0.1635 0.703853 -0.0028 0
0.1635 0.703853 -0.0028 0
0.1635 0.703851 -0.0028 0
0.1635 0.70385 -0.003 0
0.1635 0.703848 -0.003 0
0.163499 0.703847 -0.0029 0
0.1635 0.703845 -0.0029 0
0.163499 0.703844 -0.003 0
0.163499 0.703843 -0.003 0
0.163499 0.703842 -0.0033 0
0.163499 0.703841 -0.0033 0
0.163499 0.70384 -0.0033 0
0.163488 0.700839 -0.0027 0
0.163498 0.703838 -0.0027 0
0.163499 0.703837 -0.0031 0
0.163498 0.703836 -0.0031 0
0.163498 0.703835 -0.0033 0
0.163498 0.703834 -0.0033 0
0.163498 0.703833 -0.0031 0
0.163499 0.703831 -0.0031 0
0.163499 0.70383 -0.0031 0
0.163622 0.703802 -0.0034 0
0.163619 0.702801 -0.0026 0
0.163623 0.7038 -0.0026 0
0.163623 0.703798 -0.0026 0
0.163623 0.703796 -0.0034 0
0.163622 0.703795 -0.0034 0
0.163622 0.703794 -0.003 0
0.163621 0.703792 -0.003 0
0.163498 0.703819 -0.003 0
0.163498 0.703818 -0.0033 0
0.163621 0.70379 -0.0032 0
0.163622 0.703788 -0.0032 0
0.163622 0.703788 -0.0032 0
0.163622 0.703787 -0.0029 0
0.163622 0.703786 -0.0029 0
0.163611 0.700785 -0.0031 0
0.163622 0.703783 -0.0031 0
0.163622 0.703781 -0.0032 0
0.163622 0.70378 -0.0032 0
0.163622 0.703778 -0.0029 0
0.163621 0.703778 -0.0029 0
0.16362 0.703777 -0.0035 0
0.163621 0.703776 -0.0035 0
0.163621 0.703775 -0.0029 0
0.163621 0.703773 -0.0029 0
0.163621 0.703771 -0.0029 0
0.16362 0.70377 -0.0028 0
0.16362 0.703768 -0.0032 0
0.163619 0.703767 -0.0032 0
0.163618 0.703767 -0.0032 0
0.163617 0.703765 -0.0029 0
0.163617 0.703765 -0.0029 0
0.163617 0.703764 -0.0034 0
0.163617 0.703764 -0.0034 0
0.163617 0.703763 -0.003 0
0.163617 0.703762 -0.003 0
0.163616 0.703762 -0.003 0
0.163616 0.703762 -0.003 0
0.163615 0.703761 -0.003 0
0.163615 0.70376 -0.003 0
0.163614 0.70376 -0.003 0
0.163613 0.703759 -0.0032 0
0.163612 0.703758 -0.0032 0
0.163612 0.703757 -0.0031 0
0.163612 0.703756 -0.0031 0
0.163612 0.703756 -0.0031 0
0.163611 0.703755 -0.0031 0
0.16361 0.703753 -0.0031 0
0.16361 0.703752 -0.0032 0
0.163609 0.703751 -0.0032 0
0.163609 0.70375 -0.0029 0
0.163609 0.703749 -0.0029 0
0.163608 0.703748 -0.0028 0
0.163608 0.703747 -0.0028 0
0.163608 0.703746 -0.0038 0
0.163607 0.703744 -0.0038 0
0.163607 0.703744 -0.0032 0
0.163606 0.703742 -0.0032 0
0.163606 0.70374 -0.0029 0
0.163606 0.703739 -0.0029 0
0.163606 0.703738 -0.0032 0
0.163606 0.703737 -0.0032 0
0.163473 0.700765 -0.0026 0
0.163484 0.703764 -0.0026 0
0.163606 0.703736 -0.0031 0
0.163607 0.703736 -0.0031 0
0.163607 0.703735 -0.003 0
0.163607 0.703733 -0.003 0
0.163606 0.703732 -0.003 0
0.163606 0.703732 -0.0033 0
0.163607 0.703731 -0.0033 0
0.163607 0.70373 -0.0031 0
0.163607 0.703729 -0.0031 0
0.163607 0.703728 -0.0029 0
0.163606 0.703727 -0.0029 0
0.163606 0.703725 -0.0032 0
0.163605 0.703724 -0.0032 0
0.163605 0.703724 -0.0029 0
0.163605 0.703724 -0.0029 0
0.163605 0.703722 -0.0033 0
0.163605 0.703722 -0.0033 0
0.163604 0.703721 -0.003 0
0.163604 0.70372 -0.0032 0
0.163604 0.703719 -0.0032 0
0.163604 0.703719 -0.0032 0
0.163604 0.703718 -0.0027 0
0.163604 0.703718 -0.0027 0
0.163605 0.703717 -0.0028 0
0.163606 0.703716 -0.0028 0
0.163605 0.703716 -0.0033 0
0.163594 0.700714 -0.0033 0
0.163605 0.703711 -0.0032 0
0.163605 0.703709 -0.0032 0
0.163605 0.703708 -0.0025 0
0.163605 0.703708 -0.0025 0
0.163605 0.703707 -0.0033 0
0.163606 0.703704 -0.0033 0
0.163606 0.703703 -0.0029 0
0.163606 0.703702 -0.0029 0
0.163606 0.703701 -0.0035 0
0.163606 0.703701 -0.0035 0
0.163606 0.7037 -0.0035 0
0.163605 0.703699 -0.0026 0
0.163606 0.703699 -0.0026 0
0.163605 0.703696 -0.0032 0
0.163605 0.703695 -0.0032 0
0.163604 0.703693 -0.0028 0
0.163604 0.703692 -0.0028 0
0.163604 0.70369 -0.0029 0
0.163604 0.703688 -0.0029 0
0.163602 0.703686 -0.0032 0
0.163601 0.703685 -0.0032 0
0.1636 0.703684 -0.0031 0
0.163599 0.703682 -0.0031 0
0.163599 0.703681 -0.0032 0
0.163599 0.70368 -0.0032 0
0.163598 0.703679 -0.0029 0
0.163598 0.703679 -0.0029 0
0.163597 0.703679 -0.0029 0
0.163597 0.703679 -0.0033 0
0.163597 0.703678 -0.0033 0
0.163597 0.703676 -0.0027 0
0.163597 0.703676 -0.0027 0
0.163597 0.703675 -0.0033 0
0.163597 0.703675 -0.0033 0
0.163597 0.703675 -0.0028 0
0.163596 0.703674 -0.0028 0
0.163596 0.703675 -0.003 0
0.163596 0.703675 -0.003 0
0.163596 0.703674 -0.0029 0
0.163596 0.703674 -0.0029 0
0.163597 0.703673 -0.0029 0
0.163597 0.703671 -0.0029 0
0.163598 0.703669 -0.0029 0
0.163599 0.703668 -0.0029 0
0.163599 0.703667 -0.0029 0
0.163599 0.703664 -0.0029 0
0.163599 0.703662 -0.0028 0
0.163598 0.703662 -0.0028 0
0.163597 0.703661 -0.0028 0
0.163474 0.703687 -0.0032 0
0.163474 0.703686 -0.0032 0
0.163474 0.703685 -0.0032 0
0.16348 0.705683 -0.0028 0
0.163473 0.703682 -0.0028 0
0.163473 0.703681 -0.0028 0
0.163473 0.70368 -0.0028 0
0.163472 0.70368 -0.0028 0
0.163471 0.703679 -0.0028 0
0.163594 0.703651 -0.0034 0
0.163471 0.703678 -0.0034 0
0.163471 0.703678 -0.0034 0
0.16347 0.703676 -0.0029 0
0.163589 0.703646 -0.0035 0
0.163597 0.703645 -0.0035 0
0.16374 0.703617 -0.0035 0
0.164383 0.703475 0.0105 0
0.164606 0.703415 0.047 0
0.164946 0.703326 0.047 0
0.165191 0.70224 -0.0028 0
0.165222 0.702215 -0.0028 0
0.165253 0.702193 0.0325 0
0.165134 0.702219 0.0325 0
0.164989 0.702282 0.0325 0
0.164509 0.702437 0.0026 0
0.164373 0.702478 0.0077 0
0.164351 0.701488 0.0077 0
0.164337 0.701495 0.0077 0
0.164323 0.701509 -0.0061 0
0.164321 0.701514 -0.0041 0
0.164198 0.701545 -0.0041 0
0.164075 0.701572 -0.0037 0
0.164078 0.700572 -0.0037 0
0.163848 0.701628 0.0025 0
0.163732 0.700651 0.0025 0
0.163483 0.700699 0.009 0
0.16336 0.70172 0.009 0
0.16335 0.700714 -0.0016 0
0.16286 0.70081 -0.0016 0
0.162867 0.701799 0.0039 0
0.162751 0.701815 0.0039 0
0.16276 0.70181 -0.0012 0
0.162757 0.700817 -0.0012 0
0.162757 0.700827 -0.0021 0
0.162759 0.700836 -0.0021 0
0.162759 0.700841 0.0024 0
0.162757 0.700845 0.0024 0
0.162756 0.700845 -0.0011 0
0.162758 0.700844 -0.0011 0
0.162759 0.700842 -0.000199999 0
0.162762 0.700845 -0.000199999 0
0.162763 0.700845 0.0028 0
0.162765 0.700845 0.0028 0
0.162768 0.700843 0.000400001 0
0.162768 0.700842 0.000400001 0
0.162772 0.701842 6.98492e-10 0
0.16277 0.700843 6.98492e-10 0
0.162769 0.700844 0.0024 0
0.162768 0.700846 0.0024 0
0.162766 0.700846 0.0024 0
0.162765 0.701846 0.000100001 0
0.162761 0.700847 0.000100001 0
0.162763 0.70085 -0.0026 0
0.162764 0.700853 -0.0026 0
0.162763 0.700852 0.0021 0
0.162765 0.700852 0.0021 0
0.162768 0.70085 0.000400001 0
0.162769 0.700847 0.000400001 0
0.162771 0.700845 0.000400001 0
0.16277 0.700841 0.000500001 0
0.16277 0.70084 0.0026 0
0.162768 0.70084 0.0026 0
0.162767 0.700838 0.0026 0
0.162767 0.700835 -0.0033 0
0.162767 0.700837 -0.0004 0
0.162767 0.700838 -0.0004 0
0.162768 0.700838 -0.0004 0
0.162768 0.700837 -0.0016 0
0.162768 0.700835 -0.0021 0
0.162769 0.700833 -0.0021 0
0.16277 0.700832 -0.0021 0
0.16277 0.700832 0.0023 0
0.162773 0.700832 -0.0006 0
0.162774 0.700832 -0.0006 0
0.162773 0.700831 -0.0006 0
0.162777 0.701831 -0.0009 0
0.162775 0.70083 -0.0009 0
0.162775 0.700828 0.0005 0
0.162776 0.700827 0.0005 0
0.162776 0.700827 -0.002 0
0.162776 0.700826 -0.002 0
0.162776 0.700826 0.0006 0
0.162777 0.700826 0.0006 0
0.162777 0.700825 0.0009 0
0.162776 0.700823 0.0009 0
0.162777 0.700823 -0.0005 0
0.162777 0.700821 -0.0005 0
0.162777 0.70082 -0.0012 0
0.162776 0.700819 -0.0012 0
0.162774 0.700818 -0.0007 0
0.162775 0.700821 -0.0007 0
0.162776 0.700823 -0.002 0
0.162774 0.70082 0.0009 0
0.162772 0.700818 0.0009 0
0.16277 0.701814 0.0009 0
0.162767 0.70081 0.002 0
0.162767 0.700809 0.002 0
0.162774 0.700811 0.0004 0
0.162777 0.701812 0.0004 0
0.162775 0.700811 -0.0016 0
0.162777 0.701807 0.0025 0
0.162776 0.700806 0.0025 0
0.162775 0.700804 0.0025 0
0.162773 0.700803 0.0013 0
0.162773 0.701802 0.0013 0
0.162774 0.701799 -0.0023 0
0.162772 0.700798 -0.0023 0
0.162772 0.700798 0.0011 0
0.162774 0.701798 0.0011 0
0.162772 0.701796 0.0005 0
0.162766 0.698796 0.0005 0
0.16277 0.700794 -9.99998e-05 0
0.162769 0.700794 -9.99998e-05 0
0.16277 0.701793 -0.0022 0
0.162767 0.700793 -0.0022 0
0.162643 0.70082 -0.0029 0
0.162766 0.700791 -0.0029 0
0.16277 0.70179 0.0024 0
0.16277 0.700792 0.0024 0
0.162772 0.700791 0.0024 0
0.162779 0.700793 0.0008 0
0.162781 0.700792 -0.0014 0
0.162781 0.700791 -0.0014 0
0.162777 0.700788 0 0
0.162777 0.700789 0 0
0.162776 0.700787 -0.0009 0
0.162774 0.700786 -0.0009 0
0.162772 0.700784 0.0022 0
0.162776 0.701784 0.0022 0
0.162775 0.700782 -0.0019 0
0.162772 0.700783 -0.0019 0
0.162771 0.700783 0.004 0
0.162771 0.700782 0.004 0
0.162771 0.700781 -0.0008 0
0.162769 0.700777 -0.0008 0
0.162769 0.700776 0.0007 0
0.162769 0.700777 0.0007 0
0.162769 0.700775 -0.0007 0
0.162771 0.701774 -0.0007 0
0.162768 0.700775 0.0025 0
0.162767 0.700773 0.0025 0
0.162767 0.700773 0.0019 0
0.162767 0.701771 0.0019 0
0.162332 0.530771 0.0019 0
0.162763 0.700769 0.0032 0
0.162763 0.700768 0.0032 0
0.162763 0.700766 0.0017 0
0.162765 0.700765 0.0017 0
0.162765 0.700763 0.0002 0
0.162767 0.700764 0.0002 0
0.162768 0.700766 -0.0015 0
0.162764 0.698766 -0.0015 0
0.16277 0.700764 -0.0015 0
0.162771 0.700763 -0.0008 0
0.162773 0.700764 -0.0008 0
0.162773 0.700764 -9.99998e-05 0
0.162773 0.700763 -9.99998e-05 0
0.162772 0.700763 -9.99998e-05 0
0.162771 0.70076 -0.0022 0
0.162768 0.700758 -0.0022 0
0.162765 0.700756 0.0011 0
0.162765 0.700755 0.0011 0
0.162766 0.700754 0.0011 0
0.162764 0.700753 0.0035 0
0.162764 0.700751 0.0035 0
0.162764 0.700751 -0.0012 0
0.162763 0.700751 -0.0012 0
0.162766 0.700751 0.0012 0
0.162764 0.700749 0.0012 0
0.162756 0.700746 0.0007 0
0.162642 0.658744 0.0007 0
0.162742 0.700743 0.0007 0
0.162681 0.700743 0.0009 0
0.162558 0.701742 0.0009 0
0.1624 0.700742 -0.0025 0
0.16221 0.70174 -0.0025 0
0.161954 0.700739 -0.0025 0
0.161306 0.700763 -0.0004 0
0.161004 0.700761 -0.002 0
0.160677 0.700758 -0.002 0
0.160316 0.689758 -0.002 0
0.160001 0.700759 -0.0026 0
