ply
format ascii 1.0
element vertex 1721
property float x
property float y
property float z
property float intensity
end_header
-1.1404 0.365791 -0.0049 0
-1.1404 0.36579 -0.0048 0
-1.1404 0.365789 -0.0048 0
-1.14052 0.365744 -0.0043 0
-1.14052 0.365742 -0.0043 0
-1.14052 0.365741 -0.0047 0
-1.1404 0.365782 -0.0047 0
-1.1404 0.36578 -0.0052 0
-1.1404 0.365778 -0.0052 0
-1.1404 0.365777 -0.0052 0
-1.1404 0.365775 -0.0053 0
-1.14039 0.365774 -0.0053 0
-1.14039 0.365773 -0.0047 0
-1.14039 0.365771 -0.0047 0
-1.14039 0.365768 -0.0046 0
-1.14039 0.365766 -0.0046 0
-1.14039 0.365765 -0.0055 0
-1.14039 0.365763 -0.0055 0
-1.14039 0.365762 -0.0055 0
-1.14039 0.365761 -0.0045 0
-1.14039 0.36576 -0.0045 0
-1.14039 0.365757 -0.0052 0
-1.14051 0.365713 -0.0052 0
-1.14051 0.365712 -0.0047 0
-1.14039 0.365753 -0.0047 0
-1.14051 0.365709 -0.0051 0
-1.14051 0.365708 -0.0051 0
-1.14051 0.365707 -0.0051 0
-1.14051 0.365706 -0.0049 0
-1.14051 0.365705 -0.0049 0
-1.14051 0.365703 -0.0046 0
-1.14051 0.365702 -0.0046 0
-1.14051 0.3657 -0.0051 0
-1.1405 0.3657 -0.0051 0
-1.1405 0.365698 -0.0046 0
-1.1405 0.365697 -0.0046 0
-1.1405 0.365695 -0.0047 0
-1.1405 0.365694 -0.0047 0
-1.1405 0.365693 -0.0047 0
-1.1405 0.365692 -0.005 0
-1.1405 0.36569 -0.005 0
-1.1405 0.365689 -0.0049 0
-1.14038 0.365729 -0.0048 0
-1.1389 0.36315 -0.0048 0
-1.1405 0.365684 -0.0048 0
-1.1405 0.365683 -0.0048 0
-1.1405 0.365682 -0.0048 0
-1.1405 0.36568 -0.0046 0
-1.1405 0.365679 -0.0046 0
-1.1405 0.365678 -0.0046 0
-1.1405 0.365676 -0.0053 0
-1.1405 0.365675 -0.0051 0
-1.1405 0.365675 -0.0051 0
-1.1405 0.365673 -0.0051 0
-1.1405 0.365672 -0.0042 0
-1.1405 0.365671 -0.0042 0
-1.14049 0.365671 -0.0053 0
-1.14049 0.36567 -0.0053 0
-1.14049 0.36567 -0.005 0
-1.14049 0.36567 -0.005 0
-1.14049 0.365669 -0.005 0
-1.14049 0.365669 -0.0041 0
-1.14049 0.365668 -0.0041 0
-1.14049 0.365668 -0.005 0
-1.14049 0.365667 -0.005 0
-1.14049 0.365666 -0.0047 0
-1.14049 0.365666 -0.0047 0
-1.14049 0.365666 -0.0046 0
-1.14049 0.365665 -0.0046 0
-1.14049 0.365666 -0.0045 0
-1.14049 0.365666 -0.0045 0
-1.14049 0.365665 -0.005 0
-1.14049 0.365665 -0.005 0
-1.14049 0.365665 -0.0047 0
-1.14049 0.365664 -0.0047 0
-1.14049 0.365663 -0.005 0
-1.13996 0.364816 -0.005 0
-1.14049 0.36566 -0.005 0
-1.14049 0.365658 -0.005 0
-1.14049 0.365657 -0.0048 0
-1.14049 0.365655 -0.0048 0
-1.14049 0.365654 -0.0046 0
-1.14049 0.365654 -0.0046 0
-1.14049 0.365653 -0.0046 0
-1.14049 0.365652 -0.0046 0
-1.14049 0.365652 -0.0046 0
-1.14049 0.365651 -0.0046 0
-1.14049 0.36565 -0.0046 0
-1.14049 0.365649 -0.0047 0
-1.14049 0.365648 -0.0047 0
-1.14049 0.365647 -0.0048 0
-1.14049 0.365646 -0.0048 0
-1.14049 0.365644 -0.0048 0
-1.14049 0.365643 -0.0052 0
-1.14048 0.365642 -0.0052 0
-1.14048 0.365641 -0.0046 0
-1.14048 0.36564 -0.0046 0
-1.14048 0.365638 -0.005 0
-1.14048 0.365637 -0.005 0
-1.14048 0.365636 -0.0044 0
-1.14048 0.365636 -0.0044 0
-1.14048 0.365635 -0.0044 0
-1.13995 0.364788 -0.0047 0
-1.14048 0.365633 -0.0047 0
-1.14048 0.365633 -0.0051 0
-1.14048 0.365632 -0.0051 0
-1.14036 0.365674 -0.0046 0
-1.14036 0.365673 -0.0046 0
-1.14036 0.365671 -0.0045 0
-1.14036 0.36567 -0.0045 0
-1.14036 0.365669 -0.0045 0
-1.14036 0.365669 -0.0049 0
-1.14036 0.365668 -0.0049 0
-1.14036 0.365666 -0.0046 0
-1.14036 0.365666 -0.0046 0
-1.14035 0.365665 -0.0049 0
-1.14035 0.365665 -0.0049 0
-1.14035 0.365664 -0.0049 0
-1.14035 0.365663 -0.005 0
-1.13929 0.363971 -0.005 0
-1.14035 0.36566 -0.0046 0
-1.14035 0.365659 -0.0046 0
-1.14035 0.365659 -0.0051 0
-1.14035 0.365658 -0.0051 0
-1.14035 0.365656 -0.0044 0
-1.14035 0.365655 -0.0044 0
-1.14035 0.365654 -0.0049 0
-1.14035 0.365651 -0.0049 0
-1.14035 0.36565 -0.0048 0
-1.14035 0.365651 -0.0048 0
-1.14035 0.365649 -0.0048 0
-1.14035 0.365648 -0.0048 0
-1.14035 0.365648 -0.0048 0
-1.14035 0.365647 -0.0051 0
-1.14035 0.365646 -0.0051 0
-1.14047 0.365602 -0.0044 0
-1.14047 0.365602 -0.0044 0
-1.14047 0.365601 -0.0044 0
-1.13993 0.364755 -0.005 0
-1.14047 0.3656 -0.005 0
-1.14047 0.365599 -0.0037 0
-1.13993 0.364753 -0.0037 0
-1.14046 0.365598 -0.0037 0
-1.14046 0.365598 -0.0055 0
-1.14046 0.365597 -0.0055 0
-1.14046 0.365596 -0.005 0
-1.14046 0.365596 -0.005 0
-1.14046 0.365595 -0.0049 0
-1.14046 0.365594 -0.0049 0
-1.14046 0.365593 -0.0048 0
-1.14046 0.365591 -0.0048 0
-1.14046 0.365591 -0.0041 0
-1.14046 0.36559 -0.0041 0
-1.14046 0.365589 -0.0043 0
-1.14046 0.365589 -0.0043 0
-1.14046 0.365588 -0.0043 0
-1.14046 0.365587 -0.0053 0
-1.14046 0.365586 -0.0053 0
-1.14045 0.365586 -0.0053 0
-1.14045 0.365585 -0.0052 0
-1.14045 0.365583 -0.005 0
-1.14045 0.365583 -0.005 0
-1.14045 0.365582 -0.005 0
-1.14045 0.365581 -0.0046 0
-1.14045 0.36558 -0.0046 0
-1.14045 0.365579 -0.0046 0
-1.14045 0.365578 -0.0049 0
-1.14045 0.365577 -0.0049 0
-1.14045 0.365576 -0.0049 0
-1.14045 0.365576 -0.0053 0
-1.14045 0.365575 -0.0053 0
-1.14045 0.365575 -0.0048 0
-1.14045 0.365574 -0.0048 0
-1.14045 0.365573 -0.0048 0
-1.14045 0.365573 -0.0047 0
-1.14045 0.365571 -0.0047 0
-1.14045 0.36557 -0.0043 0
-1.14045 0.365569 -0.0043 0
-1.14045 0.365569 -0.0047 0
-1.14045 0.365568 -0.0047 0
-1.13992 0.364722 -0.0045 0
-1.14045 0.365566 -0.0045 0
-1.14045 0.365565 -0.0045 0
-1.14045 0.365564 -0.0049 0
-1.14045 0.365563 -0.0049 0
-1.14045 0.365562 -0.0049 0
-1.14045 0.36556 -0.0045 0
-1.14045 0.36556 -0.0044 0
-1.14045 0.365559 -0.0044 0
-1.14045 0.365558 -0.0048 0
-1.13938 0.363868 -0.0048 0
-1.14045 0.365558 -0.0048 0
-1.14045 0.365557 -0.0049 0
-1.14045 0.365555 -0.0049 0
-1.14045 0.365553 -0.0047 0
-1.14045 0.365553 -0.0047 0
-1.14045 0.365553 -0.0049 0
-1.14045 0.365552 -0.0049 0
-1.14045 0.365552 -0.0044 0
-1.14045 0.36555 -0.0044 0
-1.14045 0.36555 -0.0046 0
-1.14045 0.36555 -0.0046 0
-1.14045 0.365548 -0.0051 0
-1.14045 0.365547 -0.0051 0
-1.14033 0.365589 -0.0047 0
-1.14033 0.365589 -0.0047 0
-1.13873 0.363052 -0.0048 0
-1.14045 0.365544 -0.0048 0
-1.14045 0.365542 -0.0048 0
-1.14033 0.365584 -0.0048 0
-1.14033 0.365583 -0.0044 0
-1.14033 0.365582 -0.0044 0
-1.14033 0.365581 -0.0044 0
-1.14033 0.36558 -0.005 0
-1.14033 0.365578 -0.0046 0
-1.14033 0.365577 -0.0046 0
-1.14032 0.365576 -0.0046 0
-1.14032 0.365575 -0.0049 0
-1.14032 0.365575 -0.0049 0
-1.14032 0.365574 -0.0047 0
-1.14032 0.365574 -0.0047 0
-1.14032 0.365572 -0.0048 0
-1.14032 0.36557 -0.0048 0
-1.14032 0.36557 -0.0046 0
-1.14032 0.365569 -0.0046 0
-1.14031 0.365568 -0.0047 0
-1.14031 0.365567 -0.0047 0
-1.14031 0.365567 -0.005 0
-1.14031 0.365566 -0.005 0
-1.14031 0.365564 -0.0053 0
-1.14031 0.365563 -0.0053 0
-1.14031 0.365562 -0.0049 0
-1.14031 0.36556 -0.0049 0
-1.14031 0.365559 -0.0047 0
-1.14031 0.365559 -0.0047 0
-1.14031 0.365559 -0.0048 0
-1.14042 0.365513 -0.0048 0
-1.14042 0.365512 -0.0048 0
-1.14042 0.365511 -0.0048 0
-1.14042 0.36551 -0.0051 0
-1.14042 0.365507 -0.0051 0
-1.14042 0.365507 -0.0049 0
-1.14042 0.365506 -0.0049 0
-1.14042 0.365505 -0.0049 0
-1.14042 0.365502 -0.0047 0
-1.14042 0.365501 -0.0044 0
-1.14042 0.3655 -0.0044 0
-1.14041 0.365499 -0.0047 0
-1.14041 0.365498 -0.0047 0
-1.14041 0.365498 -0.0047 0
-1.14041 0.365497 -0.0047 0
-1.14041 0.365497 -0.0047 0
-1.14041 0.365497 -0.0046 0
-1.14041 0.365496 -0.0046 0
-1.14041 0.365495 -0.0046 0
-1.14041 0.365494 -0.0045 0
-1.14029 0.365535 -0.0045 0
-1.14041 0.365492 -0.005 0
-1.14041 0.365492 -0.005 0
-1.14041 0.365492 -0.0049 0
-1.14041 0.365492 -0.0049 0
-1.14041 0.365491 -0.005 0
-1.14029 0.365534 -0.005 0
-1.14029 0.365534 -0.005 0
-1.14029 0.365533 -0.0049 0
-1.14041 0.365491 -0.0049 0
-1.14041 0.365491 -0.0049 0
-1.14041 0.365491 -0.0049 0
-1.14041 0.365491 -0.005 0
-1.14029 0.365533 -0.005 0
-1.14029 0.365533 -0.0046 0
-1.14029 0.365532 -0.0046 0
-1.14029 0.365532 -0.0046 0
-1.14029 0.365532 -0.0049 0
-1.13975 0.364686 -0.0049 0
-1.14029 0.365531 -0.0045 0
-1.14029 0.36553 -0.0045 0
-1.14029 0.365528 -0.0046 0
-1.14028 0.365527 -0.0051 0
-1.14028 0.365526 -0.0051 0
-1.1404 0.365484 -0.0042 0
-1.1404 0.365484 -0.0042 0
-1.1404 0.365483 -0.0042 0
-1.1404 0.365481 -0.0047 0
-1.1404 0.36548 -0.0051 0
-1.1404 0.365479 -0.0051 0
-1.1404 0.365477 -0.0049 0
-1.14028 0.365518 -0.0049 0
-1.14028 0.365516 -0.005 0
-1.13975 0.36467 -0.005 0
-1.14028 0.365514 -0.005 0
-1.14028 0.365512 -0.005 0
-1.14028 0.36551 -0.0049 0
-1.14028 0.365509 -0.0049 0
-1.14028 0.365507 -0.0046 0
-1.14028 0.365505 -0.0046 0
-1.14028 0.365501 -0.0047 0
-1.14027 0.365499 -0.0047 0
-1.14027 0.365497 -0.0046 0
-1.14027 0.365494 -0.0046 0
-1.14027 0.365492 -0.0045 0
-1.14027 0.365491 -0.0045 0
-1.14027 0.365489 -0.0044 0
-1.14027 0.365488 -0.0044 0
-1.14027 0.365486 -0.0044 0
-1.14039 0.365442 -0.0045 0
-1.14039 0.365439 -0.0045 0
-1.14039 0.365437 -0.0047 0
-1.14039 0.365435 -0.0047 0
-1.14039 0.365433 -0.0048 0
-1.14039 0.365431 -0.0048 0
-1.14027 0.365471 -0.0049 0
-1.14027 0.36547 -0.0049 0
-1.14026 0.365469 -0.0046 0
-1.14026 0.365468 -0.0046 0
-1.14026 0.365467 -0.004 0
-1.14026 0.365466 -0.004 0
-1.14026 0.365465 -0.0048 0
-1.14026 0.365465 -0.0048 0
-1.14026 0.365464 -0.0049 0
-1.14026 0.365464 -0.0049 0
-1.14038 0.36542 -0.0045 0
-1.14038 0.36542 -0.0047 0
-1.14038 0.365419 -0.0047 0
-1.14038 0.365418 -0.0047 0
-1.14037 0.365417 -0.005 0
-1.14026 0.365458 -0.0047 0
-1.14026 0.365458 -0.0047 0
-1.14026 0.365457 -0.0047 0
-1.14026 0.365456 -0.0049 0
-1.14026 0.365454 -0.0049 0
-1.14025 0.365453 -0.0049 0
-1.14025 0.365451 -0.0049 0
-1.14025 0.365451 -0.0049 0
-1.14025 0.365451 -0.0047 0
-1.14025 0.36545 -0.0047 0
-1.14025 0.365448 -0.0047 0
-1.14025 0.365447 -0.0046 0
-1.14025 0.365447 -0.0046 0
-1.14025 0.365446 -0.0046 0
-1.14025 0.365446 -0.0049 0
-1.14025 0.365445 -0.0049 0
-1.14025 0.365444 -0.0049 0
-1.14025 0.365442 -0.0049 0
-1.14025 0.365439 -0.0046 0
-1.14025 0.365439 -0.0046 0
-1.14025 0.365438 -0.005 0
-1.14025 0.365438 -0.005 0
-1.14025 0.365437 -0.0042 0
-1.14025 0.365436 -0.0042 0
-1.14025 0.365435 -0.0042 0
-1.14025 0.365435 -0.0045 0
-1.14025 0.365434 -0.0045 0
-1.14025 0.365433 -0.0046 0
-1.14025 0.365432 -0.0046 0
-1.14025 0.365431 -0.005 0
-1.14025 0.365429 -0.005 0
-1.14025 0.365429 -0.005 0
-1.14025 0.365428 -0.0048 0
-1.14025 0.365427 -0.0048 0
-1.14025 0.365425 -0.0048 0
-1.14025 0.365423 -0.0048 0
-1.14025 0.365423 -0.0046 0
-1.14025 0.365422 -0.0046 0
-1.14025 0.36542 -0.0045 0
-1.14025 0.365419 -0.0045 0
-1.14025 0.365417 -0.005 0
-1.14025 0.365416 -0.005 0
-1.14025 0.365415 -0.0048 0
-1.14025 0.365414 -0.0048 0
-1.14025 0.365412 -0.0048 0
-1.14025 0.365412 -0.0048 0
-1.14025 0.365411 -0.0047 0
-1.14037 0.365366 -0.0044 0
-1.14037 0.365364 -0.0044 0
-1.14037 0.365362 -0.0044 0
-1.13449 0.356064 -0.005 0
-1.14037 0.36536 -0.005 0
-1.14037 0.36536 -0.005 0
-1.14037 0.365358 -0.0051 0
-1.14037 0.365357 -0.0051 0
-1.14037 0.365356 -0.0045 0
-1.14037 0.365355 -0.0045 0
-1.14037 0.365354 -0.005 0
-1.14037 0.365354 -0.005 0
-1.14037 0.365353 -0.0054 0
-1.14037 0.365353 -0.0054 0
-1.14037 0.365352 -0.0047 0
-1.14037 0.36535 -0.0047 0
-1.14036 0.365349 -0.0047 0
-1.14036 0.365348 -0.0048 0
-1.14036 0.365349 -0.0048 0
-1.14036 0.36535 -0.0056 0
-1.14036 0.365351 -0.0056 0
-1.14036 0.36535 -0.0045 0
-1.14036 0.36535 -0.0045 0
-1.14036 0.36535 -0.0045 0
-1.14036 0.365349 -0.0045 0
-1.14024 0.36539 -0.0043 0
-1.14024 0.365389 -0.0043 0
-1.14024 0.365388 -0.0052 0
-1.14024 0.365387 -0.0052 0
-1.14024 0.365387 -0.0052 0
-1.14024 0.365386 -0.0049 0
-1.14024 0.365385 -0.0049 0
-1.14036 0.365342 -0.0044 0
-1.14036 0.365341 -0.0044 0
-1.14036 0.365341 -0.0048 0
-1.14036 0.365341 -0.0048 0
-1.14036 0.365341 -0.0048 0
-1.14035 0.365341 -0.0046 0
-1.14035 0.36534 -0.0046 0
-1.14035 0.365339 -0.0052 0
-1.14023 0.36538 -0.0047 0
-1.14023 0.365379 -0.0047 0
-1.14035 0.365335 -0.0047 0
-1.14035 0.365334 -0.0045 0
-1.14035 0.365334 -0.0045 0
-1.14035 0.365333 -0.0051 0
-1.14035 0.365331 -0.0051 0
-1.14035 0.36533 -0.0047 0
-1.14034 0.365329 -0.0047 0
-1.14034 0.365328 -0.0047 0
-1.14034 0.365327 -0.0047 0
-1.14022 0.365369 -0.0047 0
-1.14034 0.365326 -0.0053 0
-1.14076 0.366214 -0.0053 0
-1.14034 0.365325 -0.0053 0
-1.14022 0.365368 -0.0052 0
-1.14022 0.365367 -0.0052 0
-1.14022 0.365365 -0.005 0
-1.14022 0.365364 -0.0046 0
-1.13915 0.363673 -0.0046 0
-1.14022 0.365363 -0.0046 0
-1.14022 0.365363 -0.0046 0
-1.14022 0.365361 -0.0046 0
-1.14034 0.365318 -0.0046 0
-1.14022 0.36536 -0.0048 0
-1.14022 0.365359 -0.0049 0
-1.14033 0.365316 -0.0049 0
-1.14033 0.365315 -0.0049 0
-1.14033 0.365314 -0.0045 0
-1.14033 0.365311 -0.0051 0
-1.14021 0.365352 -0.0051 0
-1.14021 0.365351 -0.0043 0
-1.14021 0.365351 -0.0043 0
-1.14021 0.365351 -0.0043 0
-1.14021 0.36535 -0.0055 0
-1.14021 0.365348 -0.0055 0
-1.14021 0.365347 -0.0049 0
-1.14021 0.365344 -0.0049 0
-1.14021 0.365343 -0.0047 0
-1.14021 0.365342 -0.0047 0
-1.14021 0.365342 -0.0051 0
-1.14021 0.365342 -0.0051 0
-1.14032 0.365298 -0.0051 0
-1.14032 0.365297 -0.0046 0
-1.14033 0.365295 -0.0047 0
-1.14032 0.365293 -0.0047 0
-1.14032 0.365293 -0.0047 0
-1.14032 0.365292 -0.0051 0
-1.14032 0.365292 -0.0051 0
-1.14032 0.365292 -0.0051 0
-1.14032 0.365292 -0.0047 0
-1.14032 0.365291 -0.0049 0
-1.14032 0.365291 -0.0049 0
-1.14032 0.365289 -0.0049 0
-1.14032 0.365288 -0.0045 0
-1.14032 0.365287 -0.0045 0
-1.14032 0.365285 -0.0049 0
-1.14032 0.365284 -0.005 0
-1.14032 0.365283 -0.005 0
-1.14032 0.365281 -0.0048 0
-1.14032 0.365281 -0.0048 0
-1.14032 0.365279 -0.0047 0
-1.14032 0.365277 -0.0047 0
-1.14031 0.365276 -0.0044 0
-1.14031 0.365275 -0.0044 0
-1.14031 0.365275 -0.0048 0
-1.14031 0.365273 -0.0048 0
-1.14031 0.365272 -0.0048 0
-1.14031 0.365271 -0.0048 0
-1.14031 0.36527 -0.0044 0
-1.14031 0.36527 -0.0044 0
-1.14031 0.365269 -0.0045 0
-1.14031 0.365268 -0.0045 0
-1.14031 0.365267 -0.0048 0
-1.14031 0.365266 -0.0048 0
-1.14031 0.365266 -0.0045 0
-1.14031 0.365266 -0.0045 0
-1.14031 0.365265 -0.005 0
-1.14031 0.365265 -0.005 0
-1.14031 0.365264 -0.0044 0
-1.14031 0.365264 -0.0044 0
-1.14031 0.365263 -0.0044 0
-1.14031 0.365264 -0.0044 0
-1.14031 0.365263 -0.0049 0
-1.14031 0.365263 -0.0049 0
-1.14031 0.365262 -0.0049 0
-1.14031 0.365262 -0.0048 0
-1.14031 0.365261 -0.0048 0
-1.1403 0.36526 -0.0044 0
-1.1403 0.365258 -0.0044 0
-1.1403 0.365256 -0.0046 0
-1.1403 0.365256 -0.0046 0
-1.1403 0.365255 -0.0046 0
-1.1403 0.365254 -0.0045 0
-1.1403 0.365254 -0.0045 0
-1.1403 0.365253 -0.0045 0
-1.1403 0.365252 -0.0049 0
-1.13869 0.362715 -0.0049 0
-1.1403 0.36525 -0.0049 0
-1.14029 0.36525 -0.0049 0
-1.14029 0.365249 -0.0048 0
-1.14029 0.365248 -0.0048 0
-1.14029 0.365248 -0.0048 0
-1.14029 0.365247 -0.0051 0
-1.14029 0.365246 -0.0051 0
-1.14029 0.365246 -0.0045 0
-1.14029 0.365245 -0.0051 0
-1.14029 0.365244 -0.0051 0
-1.14029 0.365244 -0.0051 0
-1.14029 0.365244 -0.0052 0
-1.14029 0.365243 -0.0052 0
-1.14029 0.365243 -0.0052 0
-1.14029 0.365242 -0.0048 0
-1.14029 0.36524 -0.0048 0
-1.14029 0.365239 -0.0046 0
-1.14029 0.365238 -0.0046 0
-1.14029 0.365238 -0.0049 0
-1.14029 0.365238 -0.0049 0
-1.14029 0.365236 -0.0045 0
-1.14029 0.365236 -0.0045 0
-1.14029 0.365235 -0.0052 0
-1.14029 0.365235 -0.0052 0
-1.14029 0.365235 -0.0052 0
-1.14029 0.365234 -0.0046 0
-1.14029 0.365234 -0.0046 0
-1.14029 0.365234 -0.0048 0
-1.14029 0.365233 -0.0048 0
-1.14029 0.365232 -0.0048 0
-1.14028 0.365232 -0.0049 0
-1.14028 0.365232 -0.0049 0
-1.14028 0.365232 -0.0047 0
-1.14028 0.365231 -0.0047 0
-1.14028 0.365231 -0.0047 0
-1.14028 0.36523 -0.0043 0
-1.14028 0.36523 -0.0047 0
-1.14028 0.36523 -0.0047 0
-1.14028 0.36523 -0.0047 0
-1.13867 0.362693 -0.0046 0
-1.14028 0.365229 -0.0046 0
-1.14028 0.365228 -0.0046 0
-1.14028 0.365228 -0.0046 0
-1.14027 0.365228 -0.0046 0
-1.14027 0.365227 -0.0047 0
-1.14027 0.365227 -0.0047 0
-1.14027 0.365225 -0.0044 0
-1.14027 0.365224 -0.0044 0
-1.14027 0.365223 -0.0042 0
-1.14027 0.365223 -0.0042 0
-1.14027 0.365223 -0.0045 0
-1.14027 0.365223 -0.0045 0
-1.14027 0.365223 -0.0045 0
-1.14027 0.365221 -0.0048 0
-1.14027 0.36522 -0.0045 0
-1.14027 0.365219 -0.0045 0
-1.14027 0.365218 -0.0045 0
-1.13973 0.364372 -0.0048 0
-1.14027 0.365217 -0.0048 0
-1.14026 0.365216 -0.0046 0
-1.14026 0.365217 -0.0046 0
-1.14026 0.365216 -0.0048 0
-1.14026 0.365216 -0.0048 0
-1.14026 0.365216 -0.0047 0
-1.14026 0.365215 -0.0047 0
-1.14026 0.365214 -0.0047 0
-1.14026 0.365213 -0.0045 0
-1.14026 0.365212 -0.0052 0
-1.14026 0.365211 -0.0052 0
-1.14026 0.365209 -0.0052 0
-1.14026 0.365208 -0.0046 0
-1.14026 0.365208 -0.0046 0
-1.14026 0.365208 -0.0051 0
-1.13866 0.362672 -0.0051 0
-1.14026 0.365207 -0.0051 0
-1.14026 0.365207 -0.0048 0
-1.14026 0.365205 -0.0048 0
-1.14026 0.365204 -0.0048 0
-1.14026 0.365202 -0.0049 0
-1.14026 0.3652 -0.0046 0
-1.14026 0.365198 -0.0046 0
-1.14026 0.365197 -0.005 0
-1.14026 0.365195 -0.005 0
-1.14026 0.365194 -0.0047 0
-1.14026 0.365193 -0.0047 0
-1.14026 0.365191 -0.0048 0
-1.14026 0.365191 -0.0048 0
-1.14026 0.365189 -0.0051 0
-1.14026 0.365188 -0.0051 0
-1.14026 0.365187 -0.0047 0
-1.14026 0.365186 -0.0047 0
-1.14026 0.365185 -0.0047 0
-1.13919 0.363493 -0.0053 0
-1.14026 0.365183 -0.0053 0
-1.13919 0.363492 -0.005 0
-1.14026 0.365182 -0.005 0
-1.14026 0.365181 -0.0047 0
-1.14026 0.36518 -0.0047 0
-1.14026 0.365178 -0.0052 0
-1.14026 0.365177 -0.0052 0
-1.14026 0.365176 -0.0052 0
-1.14014 0.365216 -0.0043 0
-1.14014 0.365216 -0.0047 0
-1.14014 0.365216 -0.0047 0
-1.14014 0.365216 -0.0047 0
-1.14025 0.365173 -0.0048 0
-1.14025 0.365171 -0.0047 0
-1.14014 0.365213 -0.0047 0
-1.14013 0.365212 -0.0047 0
-1.14025 0.365168 -0.0046 0
-1.14025 0.365168 -0.0047 0
-1.14025 0.365168 -0.0047 0
-1.16216 0.399822 -0.0047 0
-1.14025 0.365168 -0.0049 0
-1.13971 0.364323 -0.0049 0
-1.14025 0.365167 -0.0049 0
-1.14025 0.365167 -0.0049 0
-1.14013 0.365209 -0.0046 0
-1.14013 0.365208 -0.0046 0
-1.14013 0.365206 -0.0048 0
-1.14013 0.365206 -0.0048 0
-1.14013 0.365205 -0.0046 0
-1.14013 0.365205 -0.0046 0
-1.14013 0.365205 -0.0049 0
-1.14012 0.365205 -0.0049 0
-1.14012 0.365203 -0.0044 0
-1.14012 0.365203 -0.0044 0
-1.14012 0.365202 -0.0044 0
-1.14012 0.365199 -0.0049 0
-1.14012 0.365198 -0.0048 0
-1.14012 0.365197 -0.0048 0
-1.14012 0.365196 -0.0048 0
-1.14012 0.365195 -0.0044 0
-1.14012 0.365194 -0.0044 0
-1.14012 0.365193 -0.005 0
-1.14012 0.365192 -0.0049 0
-1.14012 0.365192 -0.0049 0
-1.14012 0.365192 -0.0049 0
-1.14012 0.365192 -0.005 0
-1.14012 0.365191 -0.005 0
-1.14012 0.36519 -0.0046 0
-1.14012 0.365189 -0.0046 0
-1.14012 0.365189 -0.0046 0
-1.14012 0.365188 -0.0045 0
-1.14012 0.365187 -0.0045 0
-1.14012 0.365186 -0.0047 0
-1.14012 0.365185 -0.0047 0
-1.14012 0.365183 -0.0046 0
-1.14011 0.365183 -0.0046 0
-1.14011 0.365182 -0.0044 0
-1.14011 0.365182 -0.0044 0
-1.14011 0.365182 -0.0044 0
-1.14011 0.365182 -0.005 0
-1.14011 0.365182 -0.005 0
-1.14011 0.36518 -0.0047 0
-1.14011 0.365178 -0.0047 0
-1.14011 0.365177 -0.0052 0
-1.14011 0.365176 -0.0052 0
-1.14023 0.365132 -0.0052 0
-1.14023 0.365129 -0.0048 0
-1.13916 0.363437 -0.0048 0
-1.14022 0.365127 -0.0048 0
-1.14022 0.365125 -0.005 0
-1.14022 0.365123 -0.005 0
-1.14022 0.365123 -0.005 0
-1.14022 0.365121 -0.0047 0
-1.14022 0.36512 -0.0047 0
-1.14022 0.365119 -0.0049 0
-1.1401 0.36516 -0.0049 0
-1.14022 0.365116 -0.0049 0
-1.13915 0.363425 -0.0049 0
-1.1401 0.365157 -0.0046 0
-1.14022 0.365113 -0.0046 0
-1.14022 0.365111 -0.0046 0
-1.14022 0.365109 -0.0044 0
-1.14022 0.365109 -0.0044 0
-1.14022 0.365107 -0.0049 0
-1.14022 0.365107 -0.0049 0
-1.14022 0.365106 -0.0045 0
-1.14022 0.365104 -0.0045 0
-1.1401 0.365146 -0.0045 0
-1.13915 0.363412 -0.0045 0
-1.14021 0.365102 -0.0045 0
-1.14021 0.365101 -0.0049 0
-1.14009 0.365141 -0.0049 0
-1.14009 0.365139 -0.0047 0
-1.14009 0.365139 -0.0047 0
-1.14009 0.365138 -0.0048 0
-1.14009 0.365137 -0.0048 0
-1.14009 0.365136 -0.0048 0
-1.14009 0.365135 -0.0043 0
-1.14009 0.365134 -0.0043 0
-1.14009 0.365134 -0.0048 0
-1.14009 0.365133 -0.0048 0
-1.14009 0.365133 -0.0051 0
-1.14009 0.365133 -0.0051 0
-1.14009 0.365131 -0.0044 0
-1.14009 0.365131 -0.0044 0
-1.14009 0.36513 -0.0052 0
-1.14009 0.365131 -0.0052 0
-1.14009 0.365131 -0.0048 0
-1.14009 0.365131 -0.0048 0
-1.14009 0.36513 -0.0052 0
-1.14009 0.365129 -0.0052 0
-1.14009 0.365128 -0.0046 0
-1.14009 0.365127 -0.005 0
-1.14009 0.365126 -0.005 0
-1.14009 0.365125 -0.005 0
-1.14009 0.365123 -0.005 0
-1.14009 0.36512 -0.005 0
-1.14008 0.365119 -0.0043 0
-1.14008 0.365117 -0.0043 0
-1.14008 0.365116 -0.0047 0
-1.14008 0.365114 -0.0048 0
-1.14008 0.365113 -0.0048 0
-1.14008 0.365112 -0.0048 0
-1.14008 0.365111 -0.0049 0
-1.14008 0.365109 -0.0045 0
-1.14008 0.365107 -0.0045 0
-1.14008 0.365106 -0.0045 0
-1.14008 0.365104 -0.005 0
-1.14008 0.365103 -0.005 0
-1.14008 0.365102 -0.005 0
-1.14008 0.3651 -0.005 0
-1.14008 0.365098 -0.0044 0
-1.14008 0.365097 -0.0044 0
-1.14008 0.365096 -0.005 0
-1.14008 0.365095 -0.005 0
-1.14008 0.365094 -0.0044 0
-1.14007 0.365091 -0.0049 0
-1.14007 0.36509 -0.0049 0
-1.14007 0.365088 -0.0049 0
-1.14007 0.365086 -0.0048 0
-1.14007 0.365085 -0.0048 0
-1.14007 0.365084 -0.0048 0
-1.14007 0.365082 -0.0048 0
-1.14007 0.365082 -0.005 0
-1.14007 0.365081 -0.005 0
-1.14007 0.365079 -0.005 0
-1.14007 0.365079 -0.0053 0
-1.14007 0.365078 -0.0053 0
-1.14007 0.365077 -0.0048 0
-1.14007 0.365076 -0.0048 0
-1.14007 0.365076 -0.0047 0
-1.14007 0.365075 -0.0047 0
-1.14007 0.365073 -0.0052 0
-1.14007 0.365071 -0.0052 0
-1.14007 0.365069 -0.0049 0
-1.14007 0.365066 -0.0049 0
-1.14007 0.365066 -0.0052 0
-1.14007 0.365065 -0.0052 0
-1.14007 0.365065 -0.0047 0
-1.14007 0.365064 -0.0047 0
-1.14007 0.365064 -0.0047 0
-1.14006 0.365063 -0.0047 0
-1.14006 0.365063 -0.0046 0
-1.14006 0.365062 -0.0046 0
-1.14006 0.365061 -0.0046 0
-1.14006 0.365059 -0.0049 0
-1.14006 0.365058 -0.0049 0
-1.14006 0.365056 -0.0053 0
-1.14006 0.365055 -0.0053 0
-1.14006 0.365055 -0.0047 0
-1.14006 0.365055 -0.0047 0
-1.14006 0.365055 -0.0048 0
-1.14006 0.365055 -0.0048 0
-1.14006 0.365054 -0.0048 0
-1.14006 0.365053 -0.0047 0
-1.14006 0.365053 -0.0047 0
-1.14006 0.365053 -0.0047 0
-1.14006 0.365052 -0.004 0
-1.14005 0.36505 -0.0044 0
-1.14005 0.365049 -0.0044 0
-1.14005 0.365048 -0.0045 0
-1.14005 0.365047 -0.0045 0
-1.14005 0.365047 -0.0045 0
-1.14005 0.365046 -0.0047 0
-1.14005 0.365045 -0.0047 0
-1.14005 0.365044 -0.0046 0
-1.14005 0.365044 -0.0046 0
-1.14005 0.365044 -0.0046 0
-1.14005 0.365043 -0.0051 0
-1.14004 0.365043 -0.0051 0
-1.14004 0.365041 -0.0049 0
-1.14004 0.365038 -0.0049 0
-1.14004 0.365036 -0.0049 0
-1.14004 0.365036 -0.0049 0
-1.14004 0.365035 -0.0048 0
-1.14004 0.365034 -0.0048 0
-1.14004 0.365033 -0.0048 0
-1.14004 0.365031 -0.0049 0
-1.14004 0.365031 -0.0049 0
-1.14004 0.36503 -0.0049 0
-1.14004 0.365028 -0.0044 0
-1.14004 0.365027 -0.0048 0
-1.14004 0.365026 -0.0048 0
-1.14004 0.365025 -0.0049 0
-1.14004 0.365024 -0.0049 0
-1.14004 0.365023 -0.0049 0
-1.14004 0.36502 -0.0052 0
-1.14004 0.365017 -0.0052 0
-1.14004 0.365015 -0.0047 0
-1.14004 0.365013 -0.0047 0
-1.14004 0.365012 -0.0047 0
-1.14004 0.36501 -0.0047 0
-1.14004 0.365009 -0.0047 0
-1.14004 0.365007 -0.0047 0
-1.14004 0.365005 -0.0049 0
-1.14004 0.365003 -0.0049 0
-1.14004 0.365001 -0.0049 0
-1.14004 0.364999 -0.0049 0
-1.14004 0.364998 -0.0049 0
-1.14004 0.364997 -0.0042 0
-1.14004 0.364996 -0.0042 0
-1.14004 0.364996 -0.0046 0
-1.14004 0.364995 -0.0046 0
-1.1395 0.364149 -0.0046 0
-1.14004 0.364992 -0.0048 0
-1.14004 0.364991 -0.0048 0
-1.14004 0.364991 -0.0048 0
-1.14003 0.36499 -0.0048 0
-1.14003 0.364988 -0.005 0
-1.14003 0.364987 -0.005 0
-1.14003 0.364986 -0.0048 0
-1.14003 0.364984 -0.0048 0
-1.14003 0.364982 -0.0048 0
-1.14003 0.364982 -0.0048 0
-1.14003 0.364981 -0.0042 0
-1.14003 0.36498 -0.0042 0
-1.14003 0.364979 -0.0042 0
-1.13896 0.363287 -0.0048 0
-1.14003 0.364977 -0.0048 0
-1.14003 0.364976 -0.0047 0
-1.14003 0.364975 -0.0047 0
-1.14003 0.364974 -0.0047 0
-1.14003 0.364973 -0.0049 0
-1.14003 0.364973 -0.0049 0
-1.14003 0.364972 -0.0043 0
-1.14003 0.36497 -0.0043 0
-1.14003 0.36497 -0.0045 0
-1.14003 0.36497 -0.0045 0
-1.14003 0.364969 -0.0044 0
-1.14003 0.364968 -0.0044 0
-1.14003 0.364967 -0.0044 0
-1.14003 0.364967 -0.0049 0
-1.14003 0.364966 -0.0049 0
-1.13949 0.36412 -0.0045 0
-1.13949 0.364119 -0.0045 0
-1.14003 0.364964 -0.0045 0
-1.14003 0.364963 -0.0046 0
-1.13362 0.354818 -0.005 0
-1.14003 0.36496 -0.005 0
-1.14003 0.364959 -0.005 0
-1.14003 0.364958 -0.0045 0
-1.14003 0.364958 -0.0045 0
-1.14003 0.364957 -0.0049 0
-1.14003 0.364956 -0.0049 0
-1.14003 0.364955 -0.0047 0
-1.14014 0.364912 -0.0047 0
-1.14014 0.364912 -0.0043 0
-1.14014 0.364911 -0.0043 0
-1.14014 0.36491 -0.0049 0
-1.14014 0.36491 -0.0049 0
-1.14014 0.364909 -0.0049 0
-1.14014 0.364909 -0.0043 0
-1.14014 0.364908 -0.0043 0
-1.14014 0.364908 -0.0044 0
-1.14014 0.364908 -0.0044 0
-1.14014 0.364907 -0.0046 0
-1.14014 0.364906 -0.0046 0
-1.14002 0.364948 -0.0046 0
-1.14002 0.364947 -0.0049 0
-1.14002 0.364946 -0.0049 0
-1.14002 0.364945 -0.0051 0
-1.14014 0.3649 -0.0051 0
-1.14014 0.364899 -0.0048 0
-1.14002 0.36494 -0.0048 0
-1.14002 0.364939 -0.0049 0
-1.13842 0.362402 -0.0049 0
-1.14002 0.364937 -0.0049 0
-1.14002 0.364936 -0.0049 0
-1.14002 0.364935 -0.0055 0
-1.14002 0.364933 -0.0055 0
-1.14002 0.364932 -0.0053 0
-1.14002 0.36493 -0.0043 0
-1.14002 0.364929 -0.0043 0
-1.14002 0.364929 -0.0043 0
-1.14002 0.364928 -0.0049 0
-1.14002 0.364927 -0.0051 0
-1.14002 0.364927 -0.0051 0
-1.14002 0.364926 -0.0051 0
-1.14001 0.364925 -0.0049 0
-1.14001 0.364923 -0.0048 0
-1.14001 0.364922 -0.0048 0
-1.14001 0.364922 -0.0051 0
-1.14001 0.364921 -0.0051 0
-1.14001 0.364921 -0.0045 0
-1.14001 0.364921 -0.0045 0
-1.14001 0.36492 -0.0045 0
-1.14001 0.364919 -0.0052 0
-1.14 0.364918 -0.0047 0
-1.14 0.364918 -0.0047 0
-1.14 0.364918 -0.0047 0
-1.14012 0.364874 -0.0045 0
-1.14012 0.364872 -0.0046 0
-1.14012 0.364871 -0.0046 0
-1.14012 0.364871 -0.0049 0
-1.14012 0.364871 -0.0049 0
-1.14012 0.364871 -0.0045 0
-1.14012 0.364872 -0.0045 0
-1.14012 0.364872 -0.0048 0
-1.14012 0.364872 -0.0047 0
-1.14012 0.364872 -0.0047 0
-1.14012 0.364871 -0.0047 0
-1.14012 0.364869 -0.0047 0
-1.14012 0.364867 -0.0047 0
-1.14012 0.364866 -0.0047 0
-1.11874 0.331057 -0.0047 0
-1.14012 0.364866 -0.0046 0
-1.14011 0.364865 -0.0046 0
-1.14011 0.364865 -0.005 0
-1.14011 0.364864 -0.005 0
-1.14011 0.364863 -0.005 0
-1.14011 0.364862 -0.0047 0
-1.14011 0.364862 -0.0047 0
-1.14011 0.36486 -0.0051 0
-1.14011 0.36486 -0.0051 0
-1.14011 0.364859 -0.0046 0
-1.14011 0.364857 -0.0046 0
-1.14011 0.364857 -0.0048 0
-1.14011 0.364854 -0.0048 0
-1.14011 0.364852 -0.0048 0
-1.14011 0.364851 -0.0048 0
-1.14011 0.364849 -0.0047 0
-1.14011 0.364847 -0.0047 0
-1.14011 0.364846 -0.0047 0
-1.14011 0.364845 -0.0047 0
-1.14011 0.364844 -0.0047 0
-1.14011 0.364843 -0.0048 0
-1.14011 0.364842 -0.0048 0
-1.1401 0.364841 -0.0048 0
-1.1401 0.36484 -0.0048 0
-1.1401 0.364839 -0.0049 0
-1.1401 0.364839 -0.0049 0
-1.1401 0.364837 -0.0049 0
-1.1401 0.364836 -0.0042 0
-1.1401 0.364835 -0.0042 0
-1.1401 0.364834 -0.005 0
-1.1401 0.364834 -0.005 0
-1.1401 0.364833 -0.005 0
-1.1401 0.364833 -0.0045 0
-1.1401 0.364832 -0.0045 0
-1.1401 0.364832 -0.0046 0
-1.14009 0.364829 -0.0046 0
-1.14009 0.364828 -0.0046 0
-1.14009 0.364826 -0.0046 0
-1.14009 0.364825 -0.005 0
-1.14009 0.364824 -0.005 0
-1.14009 0.364823 -0.005 0
-1.14009 0.364821 -0.0048 0
-1.14009 0.36482 -0.0043 0
-1.14008 0.364819 -0.0043 0
-1.14008 0.364818 -0.0047 0
-1.14008 0.364818 -0.0047 0
-1.14008 0.364817 -0.0047 0
-1.14008 0.364817 -0.0047 0
-1.14008 0.364817 -0.0046 0
-1.13848 0.362281 -0.0046 0
-1.14008 0.364817 -0.0051 0
-1.14008 0.364814 -0.0051 0
-1.14008 0.364813 -0.0046 0
-1.14008 0.364813 -0.0046 0
-1.13901 0.363122 -0.005 0
-1.14008 0.36481 -0.005 0
-1.14008 0.36481 -0.0049 0
-1.14008 0.364809 -0.0049 0
-1.14008 0.364809 -0.0041 0
-1.14008 0.364808 -0.0041 0
-1.14008 0.364807 -0.0047 0
-1.14007 0.364806 -0.0047 0
-1.13996 0.364846 -0.0048 0
-1.13995 0.364843 -0.0048 0
-1.13996 0.364842 -0.005 0
-1.13995 0.364841 -0.005 0
-1.13995 0.36484 -0.005 0
-1.14007 0.364796 -0.005 0
-1.14007 0.364792 -0.0046 0
-1.14007 0.364791 -0.0046 0
-1.14007 0.36479 -0.0049 0
-1.14007 0.364787 -0.0049 0
-1.13847 0.36225 -0.0048 0
-1.14007 0.364785 -0.0048 0
-1.14007 0.364785 -0.0047 0
-1.14007 0.364784 -0.0047 0
-1.14007 0.364785 -0.0047 0
-1.13365 0.354642 -0.0048 0
-1.14007 0.364784 -0.0048 0
-1.13995 0.364826 -0.0049 0
-1.13995 0.364825 -0.0049 0
-1.14007 0.364782 -0.0049 0
-1.14007 0.364781 -0.0046 0
-1.14006 0.36478 -0.0046 0
-1.14006 0.364779 -0.0046 0
-1.14006 0.364778 -0.0046 0
-1.14006 0.364778 -0.0049 0
-1.14006 0.364776 -0.0049 0
-1.14006 0.364774 -0.0044 0
-1.14006 0.364773 -0.0044 0
-1.14006 0.364773 -0.0045 0
-1.14006 0.364772 -0.0045 0
-1.14006 0.36477 -0.0047 0
-1.14006 0.364769 -0.0047 0
-1.14006 0.364768 -0.0042 0
-1.14006 0.364767 -0.0042 0
-1.13994 0.364807 -0.0048 0
-1.13994 0.364805 -0.0048 0
-1.13994 0.364805 -0.0048 0
-1.13994 0.364804 -0.0048 0
-1.14006 0.36476 -0.0044 0
-1.13994 0.364802 -0.0044 0
-1.13994 0.364801 -0.0049 0
-1.13994 0.3648 -0.0049 0
-1.13994 0.364799 -0.0049 0
-1.14005 0.364755 -0.0049 0
-1.14005 0.364754 -0.0046 0
-1.14005 0.364752 -0.0049 0
-1.14005 0.36475 -0.0049 0
-1.14005 0.364749 -0.0049 0
-1.14005 0.364748 -0.0044 0
-1.14005 0.364747 -0.0047 0
-1.14005 0.364746 -0.0047 0
-1.14005 0.364745 -0.0047 0
-1.14005 0.364744 -0.005 0
-1.14005 0.364743 -0.0047 0
-1.14005 0.364743 -0.0047 0
-1.14004 0.364743 -0.0047 0
-1.13993 0.364785 -0.0047 0
-1.13992 0.364782 -0.0048 0
-1.13992 0.364781 -0.0048 0
-1.13992 0.36478 -0.0051 0
-1.13992 0.364779 -0.0045 0
-1.13992 0.364778 -0.0045 0
-1.13992 0.364777 -0.0045 0
-1.13992 0.364776 -0.005 0
-1.13992 0.364776 -0.005 0
-1.13992 0.364775 -0.0047 0
-1.13992 0.364773 -0.0047 0
-1.13992 0.364771 -0.0052 0
-1.13992 0.36477 -0.0052 0
-1.13991 0.364768 -0.0048 0
-1.14003 0.364723 -0.0048 0
-1.14003 0.364722 -0.0048 0
-1.14003 0.36472 -0.0046 0
-1.14003 0.364719 -0.0045 0
-1.14003 0.364719 -0.0045 0
-1.14003 0.364718 -0.0045 0
-1.14003 0.364715 -0.0046 0
-1.14003 0.364713 -0.0053 0
-1.14003 0.364712 -0.0053 0
-1.14003 0.364711 -0.0053 0
-1.14003 0.36471 -0.0051 0
-1.14003 0.364709 -0.0049 0
-1.14003 0.364709 -0.0049 0
-1.14003 0.364708 -0.0049 0
-1.14003 0.364708 -0.0044 0
-1.14003 0.364707 -0.0043 0
-1.14002 0.364707 -0.0043 0
-1.14002 0.364707 -0.0043 0
-1.14002 0.364706 -0.0045 0
-1.14002 0.364706 -0.0048 0
-1.14002 0.364706 -0.0048 0
-1.14002 0.364705 -0.0048 0
-1.14002 0.364703 -0.0053 0
-1.14002 0.364702 -0.0048 0
-1.14002 0.3647 -0.0048 0
-1.13991 0.364741 -0.0046 0
-1.13991 0.36474 -0.0046 0
-1.13991 0.364739 -0.0044 0
-1.13991 0.364738 -0.0044 0
-1.13991 0.364737 -0.0049 0
-1.13991 0.364736 -0.0049 0
-1.13991 0.364735 -0.0043 0
-1.13991 0.364735 -0.0043 0
-1.1399 0.364733 -0.005 0
-1.13884 0.363042 -0.005 0
-1.1399 0.364731 -0.005 0
-1.1399 0.36473 -0.005 0
-1.1399 0.364727 -0.0042 0
-1.1399 0.364728 -0.0042 0
-1.1399 0.364728 -0.0044 0
-1.1399 0.364727 -0.0044 0
-1.14002 0.364683 -0.005 0
-1.14002 0.364682 -0.005 0
-1.14002 0.364681 -0.0052 0
-1.14002 0.364681 -0.0052 0
-1.14002 0.364681 -0.0052 0
-1.14002 0.36468 -0.0048 0
-1.14002 0.36468 -0.0048 0
-1.14002 0.364679 -0.0051 0
-1.14001 0.364678 -0.0051 0
-1.14001 0.364677 -0.0053 0
-1.14001 0.364677 -0.0053 0
-1.14001 0.364676 -0.0048 0
-1.14001 0.364675 -0.0048 0
-1.13989 0.364717 -0.0048 0
-1.14001 0.364672 -0.0047 0
-1.14001 0.364671 -0.0052 0
-1.14001 0.364671 -0.0052 0
-1.14001 0.364671 -0.0052 0
-1.14001 0.36467 -0.0048 0
-1.14001 0.364669 -0.0048 0
-1.14001 0.364669 -0.0051 0
-1.14001 0.364668 -0.0051 0
-1.14 0.364667 -0.0051 0
-1.13989 0.364708 -0.005 0
-1.13989 0.364707 -0.0047 0
-1.13989 0.364706 -0.0047 0
-1.13989 0.364705 -0.0047 0
-1.13988 0.364703 -0.005 0
-1.13988 0.3647 -0.0045 0
-1.13988 0.364699 -0.0045 0
-1.13988 0.364698 -0.0045 0
-1.13988 0.364698 -0.0046 0
-1.13988 0.364698 -0.0046 0
-1.13988 0.364697 -0.005 0
-1.13988 0.364696 -0.005 0
-1.13988 0.364695 -0.005 0
-1.13988 0.364694 -0.0048 0
-1.13988 0.364693 -0.0048 0
-1.13988 0.364692 -0.0048 0
-1.13828 0.362156 -0.0048 0
-1.13988 0.364691 -0.0048 0
-1.13988 0.364691 -0.0046 0
-1.13988 0.36469 -0.0046 0
-1.13988 0.364689 -0.005 0
-1.13988 0.364685 -0.005 0
-1.13881 0.362992 -0.0046 0
-1.13988 0.364681 -0.0046 0
-1.13988 0.364679 -0.0048 0
-1.13988 0.364678 -0.0048 0
-1.13988 0.364676 -0.0046 0
-1.13988 0.364675 -0.0046 0
-1.13988 0.364675 -0.0048 0
-1.13988 0.364673 -0.0048 0
-1.13358 0.354487 -0.0048 0
-1.14 0.364629 -0.0048 0
-1.14 0.364628 -0.0052 0
-1.13999 0.364627 -0.0052 0
-1.13999 0.364626 -0.0049 0
-1.13999 0.364625 -0.0049 0
-1.13988 0.364666 -0.0045 0
-1.13988 0.364666 -0.0045 0
-1.13999 0.364622 -0.0054 0
-1.13999 0.364621 -0.0054 0
-1.13999 0.364618 -0.0041 0
-1.13999 0.364617 -0.0041 0
-1.13999 0.364616 -0.0046 0
-1.13999 0.364614 -0.0048 0
-1.13999 0.364614 -0.0048 0
-1.13999 0.364613 -0.0048 0
-1.13999 0.364612 -0.0047 0
-1.13999 0.364611 -0.0045 0
-1.13999 0.36461 -0.0045 0
-1.13999 0.364609 -0.0045 0
-1.13999 0.364608 -0.0047 0
-1.13999 0.364606 -0.0043 0
-1.13999 0.364605 -0.0043 0
-1.13987 0.364647 -0.0043 0
-1.13987 0.364645 -0.0051 0
-1.13998 0.364602 -0.0051 0
-1.13998 0.3646 -0.0045 0
-1.14052 0.365444 -0.0045 0
-1.13987 0.364639 -0.0045 0
-1.13987 0.364638 -0.0048 0
-1.13986 0.364636 -0.005 0
-1.13986 0.364635 -0.005 0
-1.13986 0.364634 -0.005 0
-1.13986 0.364634 -0.0047 0
-1.13986 0.364632 -0.0047 0
-1.13986 0.36463 -0.005 0
-1.13986 0.364629 -0.005 0
-1.13986 0.364629 -0.0047 0
-1.13986 0.364629 -0.0047 0
-1.13986 0.364629 -0.0052 0
-1.13986 0.364629 -0.0052 0
-1.13986 0.364629 -0.0052 0
-1.13985 0.364628 -0.0044 0
-1.13985 0.364628 -0.0044 0
-1.13985 0.364627 -0.0044 0
-1.13985 0.364627 -0.0049 0
-1.13985 0.364626 -0.0049 0
-1.13985 0.364624 -0.0046 0
-1.13985 0.364623 -0.0046 0
-1.13985 0.364622 -0.0048 0
-1.13931 0.363776 -0.0047 0
-1.13985 0.36462 -0.0047 0
-1.13985 0.364619 -0.0047 0
-1.13985 0.364618 -0.0051 0
-1.13985 0.364617 -0.0051 0
-1.13985 0.364616 -0.0047 0
-1.13985 0.364616 -0.0047 0
-1.13985 0.364615 -0.0047 0
-1.13985 0.364614 -0.0046 0
-1.13984 0.364611 -0.0046 0
-1.13984 0.36461 -0.0046 0
-1.13984 0.364608 -0.0046 0
-1.13984 0.364607 -0.0044 0
-1.13984 0.364607 -0.0044 0
-1.13984 0.364607 -0.0049 0
-1.13984 0.364607 -0.0049 0
-1.13984 0.364606 -0.0043 0
-1.13984 0.364605 -0.0043 0
-1.13984 0.364604 -0.0044 0
-1.13984 0.364605 -0.0044 0
-1.13984 0.364605 -0.0044 0
-1.13984 0.364604 -0.0054 0
-1.13983 0.364602 -0.0043 0
-1.1393 0.363756 -0.0043 0
-1.13983 0.364601 -0.0043 0
-1.13983 0.364599 -0.0049 0
-1.13983 0.364598 -0.0049 0
-1.13983 0.364596 -0.0044 0
-1.13983 0.364595 -0.0044 0
-1.13876 0.362902 -0.0044 0
-1.13983 0.364591 -0.0044 0
-1.13983 0.36459 -0.0044 0
-1.13929 0.363744 -0.0044 0
-1.13983 0.364588 -0.0044 0
-1.13983 0.364586 -0.0048 0
-1.13983 0.364586 -0.0051 0
-1.16173 0.399243 -0.0051 0
-1.13983 0.364585 -0.0051 0
-1.13983 0.364585 -0.0045 0
-1.13983 0.364584 -0.0045 0
-1.13983 0.364584 -0.0046 0
-1.13983 0.364583 -0.0046 0
-1.13983 0.364583 -0.0046 0
-1.13982 0.364582 -0.0047 0
-1.13982 0.364581 -0.005 0
-1.13982 0.36458 -0.005 0
-1.13982 0.364579 -0.005 0
-1.13982 0.364578 -0.0046 0
-1.13982 0.364577 -0.0046 0
-1.13982 0.364576 -0.0047 0
-1.13994 0.364531 -0.0047 0
-1.13994 0.364531 -0.005 0
-1.13994 0.36453 -0.005 0
-1.16185 0.399183 -0.0052 0
-1.13994 0.364527 -0.0052 0
-1.13994 0.364526 -0.0046 0
-1.13994 0.364525 -0.0046 0
-1.13994 0.364523 -0.0047 0
-1.13994 0.364522 -0.0047 0
-1.13994 0.364521 -0.0052 0
-1.13887 0.36283 -0.0052 0
-1.13994 0.364518 -0.0045 0
-1.13994 0.364517 -0.0045 0
-1.13994 0.364517 -0.0046 0
-1.13982 0.364559 -0.0046 0
-1.13982 0.364558 -0.0055 0
-1.13982 0.364557 -0.0055 0
-1.13981 0.364557 -0.0055 0
-1.13981 0.364556 -0.0052 0
-1.13981 0.364554 -0.0052 0
-1.13981 0.364553 -0.0046 0
-1.13981 0.364552 -0.0046 0
-1.13981 0.364551 -0.0045 0
-1.13982 0.36455 -0.0045 0
-1.13982 0.364549 -0.0049 0
-1.13981 0.364548 -0.0049 0
-1.13981 0.364547 -0.0049 0
-1.13981 0.364546 -0.0042 0
-1.13982 0.364544 -0.0042 0
-1.13928 0.363697 -0.0046 0
-1.13982 0.364541 -0.0046 0
-1.13982 0.36454 -0.0055 0
-1.13982 0.364539 -0.0055 0
-1.13982 0.364538 -0.004 0
-1.13982 0.364537 -0.004 0
-1.13982 0.364535 -0.0046 0
-1.13982 0.364535 -0.0046 0
-1.13982 0.364534 -0.0051 0
-1.13982 0.364533 -0.0051 0
-1.13981 0.36453 -0.0046 0
-1.13981 0.364529 -0.0046 0
-1.13981 0.364528 -0.0041 0
-1.13981 0.364528 -0.0041 0
-1.13993 0.364483 -0.0045 0
-1.13981 0.364524 -0.0045 0
-1.13981 0.364524 -0.0054 0
-1.13993 0.36448 -0.0054 0
-1.13993 0.364479 -0.0044 0
-1.13993 0.364479 -0.0044 0
-1.13993 0.36448 -0.0046 0
-1.13993 0.364479 -0.0046 0
-1.13832 0.361942 -0.0047 0
-1.13993 0.364477 -0.0047 0
-1.13993 0.364477 -0.0046 0
-1.13939 0.363631 -0.0046 0
-1.13992 0.364475 -0.0046 0
-1.13992 0.364475 -0.0049 0
-1.13992 0.364475 -0.0049 0
-1.13992 0.364476 -0.0045 0
-1.13992 0.364476 -0.0045 0
-1.13992 0.364475 -0.0045 0
-1.13992 0.364475 -0.0045 0
-1.13992 0.364474 -0.0049 0
-1.13992 0.364473 -0.0049 0
-1.13992 0.364471 -0.0049 0
-1.1398 0.364513 -0.0044 0
-1.1398 0.364512 -0.0044 0
-1.13979 0.364511 -0.0046 0
-1.13979 0.36451 -0.0046 0
-1.13979 0.36451 -0.005 0
-1.13926 0.363664 -0.005 0
-1.13979 0.364508 -0.0051 0
-1.13979 0.364508 -0.0051 0
-1.13979 0.364507 -0.0051 0
-1.13979 0.364506 -0.0049 0
-1.13979 0.364505 -0.0049 0
-1.13979 0.364503 -0.0049 0
-1.13979 0.364503 -0.0049 0
-1.13979 0.364502 -0.0049 0
-1.13979 0.364502 -0.0049 0
-1.13979 0.364501 -0.0047 0
-1.13979 0.364501 -0.0047 0
-1.13979 0.364499 -0.0047 0
-1.13979 0.364498 -0.0051 0
-1.13979 0.364498 -0.0044 0
-1.13979 0.364498 -0.0044 0
-1.13979 0.364497 -0.0044 0
-1.13991 0.364453 -0.0051 0
-1.13991 0.364453 -0.0044 0
-1.13991 0.364454 -0.0044 0
-1.13991 0.364453 -0.0044 0
-1.13991 0.364452 -0.0049 0
-1.13991 0.364451 -0.0046 0
-1.13979 0.364493 -0.0046 0
-1.13979 0.364493 -0.0046 0
-1.13991 0.36445 -0.0048 0
-1.13991 0.364449 -0.0049 0
-1.13991 0.364448 -0.0049 0
-1.13991 0.364447 -0.0047 0
-1.13991 0.364447 -0.0047 0
-1.13979 0.364488 -0.0049 0
-1.13979 0.364487 -0.0049 0
-1.13979 0.364486 -0.0046 0
-1.13979 0.364486 -0.0046 0
-1.13991 0.364442 -0.0043 0
-1.13979 0.364483 -0.0043 0
-1.13979 0.364483 -0.0049 0
-1.13979 0.364482 -0.0049 0
-1.13979 0.364481 -0.0049 0
-1.13979 0.36448 -0.0049 0
-1.13979 0.364478 -0.0049 0
-1.13819 0.361941 -0.0049 0
-1.13979 0.364477 -0.0049 0
-1.13979 0.364477 -0.0045 0
-1.13979 0.364476 -0.0045 0
-1.13979 0.364476 -0.0052 0
-1.13979 0.364475 -0.0052 0
-1.13979 0.364474 -0.0041 0
-1.13979 0.364473 -0.0041 0
-1.13979 0.364471 -0.0047 0
-1.13979 0.36447 -0.0047 0
-1.13979 0.36447 -0.0053 0
-1.13979 0.36447 -0.0053 0
-1.13979 0.364468 -0.0053 0
-1.13979 0.364468 -0.0043 0
-1.13978 0.364466 -0.0051 0
-1.13978 0.364467 -0.0051 0
-1.13978 0.364466 -0.0051 0
-1.13978 0.364465 -0.005 0
-1.1399 0.364421 -0.005 0
-1.1399 0.36442 -0.0046 0
-1.1399 0.364418 -0.0046 0
-1.1399 0.364417 -0.0046 0
-1.1399 0.364415 -0.0049 0
-1.1399 0.364414 -0.0045 0
-1.1399 0.364413 -0.0045 0
-1.1399 0.364412 -0.0045 0
-1.1399 0.364411 -0.0047 0
-1.1399 0.364409 -0.0047 0
-1.1399 0.364408 -0.0046 0
-1.1399 0.364407 -0.0046 0
-1.1399 0.364406 -0.0047 0
-1.1399 0.364405 -0.0047 0
-1.13989 0.364404 -0.005 0
-1.13989 0.364403 -0.005 0
-1.13989 0.364402 -0.005 0
-1.13829 0.361865 -0.0044 0
-1.13989 0.3644 -0.0044 0
-1.13989 0.364399 -0.0048 0
-1.13989 0.364398 -0.0048 0
-1.13989 0.364397 -0.005 0
-1.13989 0.364396 -0.005 0
-1.13989 0.364395 -0.0048 0
-1.13989 0.364394 -0.0048 0
-1.13989 0.364394 -0.0048 0
-1.13977 0.364436 -0.0051 0
-1.13923 0.36359 -0.0043 0
-1.13977 0.364435 -0.0043 0
-1.13977 0.364433 -0.0043 0
-1.13977 0.364432 -0.0051 0
-1.13977 0.36443 -0.0051 0
-1.13977 0.364429 -0.0047 0
-1.13977 0.364427 -0.0047 0
-1.13988 0.364384 -0.0047 0
-1.13988 0.364383 -0.005 0
-1.13976 0.364425 -0.0049 0
-1.13976 0.364424 -0.0049 0
-1.13976 0.364424 -0.0049 0
-1.13976 0.364423 -0.0046 0
-1.13976 0.364423 -0.0046 0
-1.13816 0.361886 -0.0048 0
-1.13976 0.36442 -0.0048 0
-1.13976 0.364418 -0.0049 0
-1.13976 0.364417 -0.0049 0
-1.13976 0.364416 -0.0046 0
-1.13976 0.364415 -0.0046 0
-1.13976 0.364414 -0.0052 0
-1.13976 0.364413 -0.0052 0
-1.13976 0.364412 -0.0046 0
-1.13975 0.364411 -0.0046 0
-1.13975 0.364409 -0.0046 0
-1.13975 0.364408 -0.0045 0
-1.13975 0.364406 -0.0049 0
-1.13975 0.364405 -0.0049 0
-1.13975 0.364404 -0.0049 0
-1.13975 0.364403 -0.0046 0
-1.13975 0.364402 -0.0046 0
-1.13975 0.364402 -0.0051 0
-1.13975 0.364401 -0.0051 0
-1.13975 0.364401 -0.0047 0
-1.13975 0.3644 -0.0047 0
-1.13975 0.364399 -0.0047 0
-1.13975 0.364399 -0.0047 0
-1.13975 0.364398 -0.0047 0
-1.13975 0.364397 -0.0047 0
-1.13975 0.364396 -0.0047 0
-1.13975 0.364395 -0.0049 0
-1.13975 0.364394 -0.0049 0
-1.13975 0.364393 -0.0048 0
-1.13975 0.364392 -0.0048 0
-1.13975 0.364392 -0.0048 0
-1.13975 0.364391 -0.0048 0
-1.13975 0.364389 -0.0048 0
-1.13975 0.364388 -0.0049 0
-1.13975 0.364387 -0.0049 0
-1.13975 0.364385 -0.0046 0
-1.13975 0.364384 -0.0046 0
-1.13975 0.364383 -0.0045 0
-1.13975 0.364382 -0.0045 0
-1.13975 0.364381 -0.0055 0
-1.13975 0.364379 -0.0055 0
-1.13975 0.364379 -0.0049 0
-1.13975 0.364377 -0.0049 0
-1.13975 0.364375 -0.0046 0
-1.13975 0.364374 -0.0046 0
-1.13975 0.364374 -0.0049 0
-1.13975 0.364373 -0.0049 0
-1.13826 0.361795 -0.0043 0
-1.13987 0.36433 -0.0043 0
-1.13975 0.364372 -0.0048 0
-1.13975 0.364372 -0.0048 0
-1.13975 0.364371 -0.0047 0
-1.13975 0.36437 -0.0047 0
-1.13975 0.364369 -0.0047 0
-1.13975 0.364368 -0.005 0
-1.13974 0.364368 -0.005 0
-1.13974 0.364367 -0.0048 0
-1.13974 0.364367 -0.0048 0
-1.13974 0.364365 -0.0046 0
-1.13974 0.364365 -0.0046 0
-1.13974 0.364362 -0.0049 0
-1.13974 0.364362 -0.0049 0
-1.13974 0.364361 -0.0046 0
-1.13974 0.364361 -0.0046 0
-1.13974 0.36436 -0.005 0
-1.13974 0.364359 -0.005 0
-1.13974 0.364358 -0.0047 0
-1.13974 0.364357 -0.0049 0
-1.13974 0.364357 -0.0049 0
-1.13974 0.364356 -0.0049 0
-1.13974 0.364356 -0.0044 0
-1.13974 0.364355 -0.0044 0
-1.13974 0.364355 -0.0045 0
-1.13974 0.364355 -0.0045 0
-1.13974 0.364354 -0.005 0
-1.13813 0.361817 -0.005 0
-1.13973 0.36435 -0.0049 0
-1.13973 0.364349 -0.0049 0
-1.13973 0.364348 -0.0042 0
-1.13973 0.364348 -0.0042 0
-1.13973 0.364347 -0.005 0
-1.13973 0.364345 -0.005 0
-1.13973 0.364344 -0.0046 0
-1.13973 0.364343 -0.0046 0
-1.13973 0.364343 -0.0052 0
-1.13973 0.364342 -0.0052 0
-1.13973 0.364341 -0.0052 0
-1.13973 0.364341 -0.0043 0
-1.13973 0.36434 -0.0043 0
-1.13973 0.364338 -0.0049 0
-1.13973 0.364336 -0.0049 0
-1.13973 0.364335 -0.0045 0
-1.13973 0.364333 -0.0045 0
-1.13972 0.364332 -0.0046 0
-1.13972 0.364331 -0.0046 0
-1.13972 0.364328 -0.0049 0
-1.13972 0.364326 -0.0049 0
-1.13972 0.364325 -0.0048 0
-1.13972 0.364323 -0.0048 0
-1.13972 0.364322 -0.0049 0
-1.13972 0.364321 -0.0049 0
-1.13972 0.36432 -0.0046 0
-1.13972 0.364319 -0.0046 0
-1.13972 0.364319 -0.0046 0
-1.13972 0.364319 -0.005 0
-1.13972 0.364318 -0.005 0
-1.13972 0.364316 -0.0044 0
-1.13972 0.364316 -0.0044 0
-1.13972 0.364315 -0.005 0
-1.13972 0.364315 -0.005 0
-1.13972 0.364315 -0.0045 0
-1.13972 0.364314 -0.0045 0
-1.13972 0.364315 -0.0047 0
-1.13972 0.364315 -0.0047 0
-1.13972 0.364315 -0.0046 0
-1.13972 0.364314 -0.0046 0
-1.13972 0.364313 -0.0046 0
-1.13972 0.364313 -0.0046 0
-1.13972 0.364311 -0.0046 0
-1.13972 0.364311 -0.0046 0
-1.13972 0.36431 -0.0046 0
-1.13972 0.364307 -0.0046 0
-1.13971 0.364306 -0.0045 0
-1.13971 0.364305 -0.0045 0
-1.13971 0.364304 -0.0045 0
-1.13983 0.364259 -0.0049 0
-1.13983 0.364258 -0.0049 0
-1.13983 0.364258 -0.0049 0
-1.1409 0.365946 -0.0045 0
-1.13983 0.364255 -0.0045 0
-1.13983 0.364254 -0.0045 0
-1.13983 0.364253 -0.0045 0
-1.13983 0.364253 -0.0045 0
-1.13983 0.364252 -0.0045 0
-1.13971 0.364293 -0.0051 0
-1.13983 0.364251 -0.0051 0
-1.13983 0.36425 -0.0051 0
-1.13983 0.364249 -0.0046 0
-1.13971 0.364287 -0.0052 0
-1.13971 0.36429 -0.0052 0
-1.13957 0.364344 -0.0052 0
-1.13895 0.364569 0.0088 0
-1.13873 0.364638 0.0453 0
-1.1384 0.364746 0.0453 0
-1.13761 0.363962 -0.0045 0
-1.13757 0.363957 -0.0045 0
-1.13753 0.363955 0.0308 0
-1.13764 0.363913 0.0308 0
-1.1378 0.363889 0.0308 0
-1.13829 0.363762 0.000899998 0
-1.13842 0.363724 0.006 0
-1.13791 0.362876 0.006 0
-1.13793 0.362875 0.006 0
-1.13795 0.362879 -0.0078 0
-1.13795 0.362882 -0.0058 0
-1.13807 0.362842 -0.0058 0
-1.13819 0.362799 -0.0054 0
-1.13765 0.361957 -0.0054 0
-1.13841 0.362724 0.000799999 0
-1.13798 0.361838 0.000799999 0
-1.13822 0.361745 0.0073 0
-1.13887 0.36254 0.0073 0
-1.13834 0.361686 -0.0033 0
-1.1388 0.361504 -0.0033 0
-1.13933 0.362341 0.0022 0
-1.13944 0.362292 0.0022 0
-1.13943 0.362293 -0.0029 0
-1.13889 0.361454 -0.0029 0
-1.1389 0.361463 -0.0038 0
-1.1389 0.361471 -0.0038 0
-1.13891 0.361475 0.000699999 0
-1.13891 0.361477 0.000699999 0
-1.13891 0.361477 -0.0028 0
-1.13891 0.361477 -0.0028 0
-1.13891 0.361476 -0.0019 0
-1.13891 0.36148 -0.0019 0
-1.1389 0.361481 0.0011 0
-1.1389 0.361482 0.0011 0
-1.1389 0.361482 -0.0013 0
-1.1389 0.361481 -0.0013 0
-1.13943 0.362326 -0.0017 0
-1.1389 0.361483 -0.0017 0
-1.1389 0.361483 0.000699999 0
-1.1389 0.361484 0.000699999 0
-1.1389 0.361483 0.000699999 0
-1.13944 0.362326 -0.0016 0
-1.13891 0.361481 -0.0016 0
-1.13891 0.361485 -0.0043 0
-1.13891 0.361488 -0.0043 0
-1.13891 0.361487 0.000399998 0
-1.13891 0.361488 0.000399998 0
-1.1389 0.361487 -0.0013 0
-1.1389 0.361485 -0.0013 0
-1.1389 0.361485 -0.0013 0
-1.1389 0.361481 -0.0012 0
-1.1389 0.36148 0.000899998 0
-1.1389 0.361479 0.000899998 0
-1.1389 0.361477 0.000899998 0
-1.1389 0.361475 -0.005 0
-1.1389 0.361476 -0.0021 0
-1.1389 0.361477 -0.0021 0
-1.1389 0.361478 -0.0021 0
-1.1389 0.361477 -0.0033 0
-1.1389 0.361475 -0.0038 0
-1.13889 0.361474 -0.0038 0
-1.13889 0.361473 -0.0038 0
-1.13889 0.361474 0.000599998 0
-1.13889 0.361475 -0.0023 0
-1.13889 0.361476 -0.0023 0
-1.13889 0.361475 -0.0023 0
-1.13942 0.36232 -0.0026 0
-1.13889 0.361475 -0.0026 0
-1.13888 0.361473 -0.0012 0
-1.13888 0.361472 -0.0012 0
-1.13888 0.361472 -0.0037 0
-1.13888 0.361472 -0.0037 0
-1.13888 0.361472 -0.0011 0
-1.13888 0.361472 -0.0011 0
-1.13888 0.361471 -0.000800002 0
-1.13888 0.36147 -0.000800002 0
-1.13888 0.36147 -0.0022 0
-1.13888 0.361468 -0.0022 0
-1.13888 0.361467 -0.0029 0
-1.13888 0.361466 -0.0029 0
-1.13888 0.361464 -0.0024 0
-1.13888 0.361467 -0.0024 0
-1.13888 0.361469 -0.0037 0
-1.13888 0.361466 -0.000800002 0
-1.13888 0.361463 -0.000800002 0
-1.13942 0.362301 -0.000800002 0
-1.13888 0.361454 0.000299998 0
-1.13888 0.361453 0.000299998 0
-1.13888 0.361458 -0.0013 0
-1.13941 0.362304 -0.0013 0
-1.13888 0.361459 -0.0033 0
-1.13941 0.3623 0.000799998 0
-1.13887 0.361455 0.000799998 0
-1.13887 0.361452 0.000799998 0
-1.13887 0.36145 -0.000400002 0
-1.13941 0.362293 -0.000400002 0
-1.13941 0.362291 -0.004 0
-1.13887 0.361446 -0.004 0
-1.13887 0.361446 -0.000600002 0
-1.13941 0.36229 -0.000600002 0
-1.13941 0.362288 -0.0012 0
-1.1378 0.359755 -0.0012 0
-1.13887 0.361442 -0.0018 0
-1.13887 0.361441 -0.0018 0
-1.13941 0.362284 -0.0039 0
-1.13887 0.361438 -0.0039 0
-1.13899 0.361395 -0.0046 0
-1.13887 0.361437 -0.0046 0
-1.13941 0.362281 0.000699998 0
-1.13887 0.361439 0.000699998 0
-1.13887 0.36144 0.000699998 0
-1.13886 0.361445 -0.000900002 0
-1.13886 0.361445 -0.0031 0
-1.13886 0.361445 -0.0031 0
-1.13886 0.36144 -0.0017 0
-1.13886 0.361441 -0.0017 0
-1.13886 0.361438 -0.0026 0
-1.13886 0.361437 -0.0026 0
-1.13886 0.361435 0.000499998 0
-1.1394 0.362279 0.000499998 0
-1.13886 0.361434 -0.0036 0
-1.13886 0.361433 -0.0036 0
-1.13886 0.361433 0.0023 0
-1.13886 0.361432 0.0023 0
-1.13886 0.361431 -0.0025 0
-1.13886 0.361427 -0.0025 0
-1.13886 0.361426 -0.001 0
-1.13886 0.361427 -0.001 0
-1.13886 0.361425 -0.0024 0
-1.1394 0.362269 -0.0024 0
-1.13886 0.361424 0.000799998 0
-1.13886 0.361422 0.000799998 0
-1.13886 0.361422 0.000199998 0
-1.1394 0.362264 0.000199998 0
-1.04786 0.217826 0.000199998 0
-1.13886 0.361417 0.0015 0
-1.13886 0.361415 0.0015 0
-1.13886 0.361414 -1.86265e-09 0
-1.13886 0.361414 -1.86265e-09 0
-1.13886 0.361413 -0.0015 0
-1.13886 0.361415 -0.0015 0
-1.13886 0.361417 -0.0032 0
-1.13779 0.359728 -0.0032 0
-1.13886 0.361416 -0.0032 0
-1.13885 0.361417 -0.0025 0
-1.13885 0.361418 -0.0025 0
-1.13885 0.361418 -0.0018 0
-1.13885 0.361417 -0.0018 0
-1.13885 0.361416 -0.0018 0
-1.13885 0.361414 -0.0039 0
-1.13885 0.36141 -0.0039 0
-1.13885 0.361407 -0.000600002 0
