ply
format ascii 1.0
element vertex 1635
property float x
property float y
property float z
property float intensity
end_header
0.89271 -0.46003 0.0071 0
0.892539 -0.462331 0.0071 0
0.890404 -0.464338 0.008 0
0.889232 -0.466482 0.008 0
0.888872 -0.470765 0.0048 0
0.889685 -0.473045 0.0048 0
0.889502 -0.475217 0.0054 0
0.887982 -0.479812 0.0035 0
0.887728 -0.482114 0.0035 0
0.887453 -0.48454 0.0035 0
0.886922 -0.489344 0.0125 0
0.886709 -0.491596 0.0064 0
0.885459 -0.493868 0.0064 0
0.884193 -0.496246 0.0064 0
0.884629 -0.500941 0.0052 0
0.883414 -0.503055 0.0036 0
0.88317 -0.505299 0.0036 0
0.881923 -0.507592 0.0036 0
0.88132 -0.512371 0.0051 0
0.881075 -0.514598 0.0111 0
0.880854 -0.516774 0.0111 0
0.881297 -0.52152 0.0025 0
0.881067 -0.523707 0.0025 0
0.878804 -0.525828 0.005 0
0.87754 -0.52802 0.005 0
0.875875 -0.532789 0.0074 0
0.876558 -0.535262 0.0074 0
0.875235 -0.537567 0.0073 0
0.873904 -0.539898 0.0073 0
0.874202 -0.544934 0.0049 0
0.872888 -0.547175 0.0049 0
0.873608 -0.54943 0.0039 0
0.871937 -0.554089 0.0039 0
0.871626 -0.556398 0.0037 0
0.87032 -0.558631 0.0037 0
0.871963 -0.561193 0.0071 0
0.867291 -0.565627 0.0071 0
0.869954 -0.568185 0.0044 0
0.866663 -0.570159 0.0044 0
0.86601 -0.574788 0.0069 0
0.86564 -0.577239 0.0069 0
0.865339 -0.57948 0.0055 0
0.865 -0.581786 0.0055 0
0.863373 -0.586159 0.0081 0
0.863906 -0.588868 0.0081 0
0.862572 -0.591069 0.0061 0
0.862082 -0.593854 0.0061 0
0.860379 -0.598144 0.0067 0
0.858988 -0.600468 0.0067 0
0.857635 -0.602681 0.003 0
0.85685 -0.607368 0.0062 0
0.857308 -0.610094 0.0062 0
0.856467 -0.615067 0.0103 0
0.856985 -0.617681 0.0103 0
0.854546 -0.619898 0.0084 0
0.853986 -0.622543 0.0084 0
0.853064 -0.627505 0.0051 0
0.851197 -0.632149 0.0067 0
0.851656 -0.634832 0.0067 0
0.847779 -0.639323 0.0052 0
0.849296 -0.641989 0.0052 0
0.847826 -0.644253 0.0039 0
0.846766 -0.649369 0.0039 0
0.847315 -0.651835 0.0077 0
0.845875 -0.654064 0.0077 0
0.845816 -0.659119 0.0056 0
0.844348 -0.661414 0.0056 0
0.843839 -0.663857 0.0052 0
0.84174 -0.668676 0.0072 0
0.841232 -0.671103 0.0072 0
0.840131 -0.67606 0.0039 0
0.839558 -0.678573 0.0039 0
0.838853 -0.681258 0.0096 0
0.836731 -0.686098 0.0096 0
0.835185 -0.68842 0.0068 0
0.83362 -0.69075 0.0068 0
0.832274 -0.695879 0.0057 0
0.83164 -0.698444 0.0057 0
0.831015 -0.700969 0.0068 0
0.830232 -0.703759 0.0068 0
0.829036 -0.708622 0.0069 0
0.828442 -0.711095 0.0069 0
0.82783 -0.713543 0.0098 0
0.826489 -0.718513 0.0087 0
0.825872 -0.720948 0.0087 0
0.824632 -0.725863 0.0053 0
0.824 -0.728312 0.0053 0
0.822237 -0.730787 0.0055 0
0.821608 -0.733231 0.0055 0
0.819987 -0.735499 0.0055 0
0.819539 -0.740798 0.0056 0
0.818874 -0.743261 0.0094 0
0.818208 -0.745722 0.0094 0
0.818525 -0.748355 0.0094 0
0.8169 -0.753741 0.0096 0
0.816237 -0.756115 0.0067 0
0.81355 -0.758242 0.0067 0
0.814873 -0.760958 0.0067 0
0.811347 -0.765745 0.0068 0
0.812608 -0.768582 0.0059 0
0.810965 -0.770773 0.0059 0
0.810275 -0.773166 0.0059 0
0.809571 -0.775604 0.0053 0
0.806924 -0.78065 0.0053 0
0.807179 -0.783282 0.0053 0
0.804489 -0.785302 0.0053 0
0.803794 -0.787676 0.0089 0
0.802318 -0.792479 0.0062 0
0.801637 -0.794804 0.0062 0
0.800903 -0.797348 0.0062 0
0.800038 -0.799967 0.0068 0
0.797624 -0.804561 0.0102 0
0.79691 -0.806939 0.0102 0
0.796205 -0.80928 0.0102 0
0.79537 -0.811798 0.0073 0
0.792964 -0.816277 0.0087 0
0.79319 -0.818908 0.0087 0
0.791441 -0.821103 0.0087 0
0.790529 -0.823717 0.0082 0
0.789083 -0.82837 0.0092 0
0.787366 -0.830508 0.0092 0
0.787554 -0.833167 0.0092 0
0.785667 -0.835543 0.0093 0
0.78678 -0.83848 0.0093 0
0.785184 -0.843318 0.0121 0
0.783146 -0.845989 0.0121 0
0.783335 -0.848388 0.012 0
0.783439 -0.8511 0.012 0
0.779708 -0.855623 0.0099 0
0.779568 -0.858662 0.0099 0
0.779672 -0.861311 0.0065 0
0.778798 -0.863757 0.0065 0
0.777155 -0.868469 0.0095 0
0.776161 -0.87106 0.0095 0
0.77534 -0.873407 0.0047 0
0.775485 -0.876004 0.0047 0
0.774679 -0.87826 0.007 0
0.771961 -0.882816 0.007 0
0.771158 -0.885077 0.0075 0
0.770365 -0.887332 0.0075 0
0.76958 -0.889582 0.0068 0
0.767886 -0.894251 0.0068 0
0.7671 -0.896499 0.0095 0
0.767268 -0.899019 0.0095 0
0.768444 -0.901747 0.0075 0
0.764757 -0.903186 0.0075 0
0.763095 -0.907778 0.0063 0
0.7623 -0.909978 0.0063 0
0.761435 -0.912287 0.0078 0
0.75956 -0.917088 0.0078 0
0.758714 -0.919398 0.0093 0
0.757896 -0.921629 0.0093 0
0.756221 -0.926041 0.0098 0
0.755452 -0.928191 0.0098 0
0.753895 -0.932532 0.0104 0
0.753136 -0.934629 0.0079 0
0.752218 -0.936981 0.0079 0
0.751425 -0.939153 0.0079 0
0.749718 -0.94363 0.0066 0
0.748779 -0.945983 0.0078 0
0.747704 -0.948507 0.0078 0
0.747815 -0.951038 0.0078 0
0.746148 -0.955477 0.0117 0
0.745263 -0.957815 0.0103 0
0.744267 -0.960223 0.0103 0
0.744309 -0.962811 0.0103 0
0.743327 -0.967809 0.0083 0
0.74262 -0.969782 0.0078 0
0.741597 -0.972196 0.0078 0
0.740702 -0.974466 0.0078 0
0.738926 -0.978927 0.0061 0
0.738834 -0.981647 0.0051 0
0.738037 -0.983749 0.0051 0
0.737183 -0.985939 0.0051 0
0.737335 -0.988358 0.0095 0
0.735656 -0.992638 0.0086 0
0.734858 -0.994738 0.0086 0
0.734011 -0.996965 0.0086 0
0.733286 -1.00154 0.0078 0
0.732321 -1.00382 0.0069 0
0.731453 -1.00598 0.0069 0
0.730635 -1.00807 0.0069 0
0.729968 -1.01258 0.0069 0
0.729068 -1.01479 0.008 0
0.728245 -1.01689 0.008 0
0.727455 -1.01896 0.008 0
0.725697 -1.02328 0.0065 0
0.725779 -1.02571 0.0064 0
0.724947 -1.02781 0.0064 0
0.725001 -1.03031 0.0064 0
0.72235 -1.03422 0.004 0
0.721514 -1.03629 0.0067 0
0.720779 -1.03825 0.0067 0
0.71923 -1.04231 0.0065 0
0.71929 -1.04479 0.0065 0
0.718516 -1.04678 0.0067 0
0.717677 -1.04885 0.0067 0
0.715983 -1.05303 0.0028 0
0.715043 -1.05523 0.0028 0
0.714204 -1.0573 0.006 0
0.7126 -1.06134 0.006 0
0.712792 -1.06365 0.0049 0
0.711945 -1.06574 0.0049 0
0.710219 -1.06739 0.0052 0
0.709564 -1.07177 0.0052 0
0.708745 -1.07382 0.0072 0
0.707775 -1.07605 0.0072 0
0.706988 -1.08055 0.0062 0
0.706161 -1.0826 0.0062 0
0.705345 -1.08463 0.0054 0
0.703626 -1.08876 0.0051 0
0.704684 -1.09147 0.0051 0
0.702026 -1.09277 0.0051 0
0.701285 -1.0972 0.003 0
0.699587 -1.0988 0.0043 0
0.699698 -1.10117 0.0043 0
0.69795 -1.10287 0.0043 0
0.697215 -1.10725 0.0059 0
0.695506 -1.10882 0.0048 0
0.695658 -1.11113 0.0048 0
0.694883 -1.11309 0.0048 0
0.693308 -1.11705 0.0067 0
0.692522 -1.11902 0.0052 0
0.691767 -1.12097 0.0052 0
0.690892 -1.12309 0.0052 0
0.689265 -1.12708 0.0079 0
0.688481 -1.12904 0.006 0
0.687694 -1.131 0.006 0
0.68599 -1.1351 0.0047 0
0.68516 -1.1371 0.0047 0
0.684384 -1.13899 0.0049 0
0.683595 -1.14092 0.0049 0
0.683 -1.14512 0.0046 0
0.682175 -1.14718 0.0046 0
0.680757 -1.15078 0.0065 0
0.680018 -1.15266 0.0065 0
0.678281 -1.15424 0.0066 0
0.678425 -1.15653 0.0066 0
0.678634 -1.15875 0.0057 0
0.676267 -1.16217 0.0057 0
0.676468 -1.1644 0.0043 0
0.674741 -1.16598 0.0043 0
0.674957 -1.16817 0.0059 0
0.674323 -1.17245 0.0059 0
0.673582 -1.17434 0.0014 0
0.67377 -1.17658 0.0014 0
0.672374 -1.18024 0.0028 0
0.671565 -1.18223 0.0028 0
0.670819 -1.18413 0.0088 0
0.67012 -1.18596 0.0088 0
0.667691 -1.18939 0.0047 0
0.668774 -1.19211 0.0047 0
0.667092 -1.19365 0.0039 0
0.667271 -1.1959 0.0039 0
0.665803 -1.19962 0.005 0
0.665055 -1.2015 0.005 0
0.66431 -1.20339 0.005 0
0.662789 -1.20714 0.0072 0
0.661983 -1.2091 0.0072 0
0.662152 -1.21141 0.0072 0
0.661404 -1.2133 0.0078 0
0.660895 -1.21731 0.0035 0
0.660244 -1.21906 0.0035 0
0.658604 -1.22054 0.0035 0
0.65889 -1.22265 0.0035 0
0.657503 -1.22627 0.0079 0
0.655878 -1.22774 0.0079 0
0.655172 -1.22959 0.0079 0
0.654704 -1.23363 0.0055 0
0.654937 -1.23582 0.0026 0
0.654237 -1.23763 0.0026 0
0.651909 -1.241 0.004 0
0.651214 -1.24281 0.004 0
0.651509 -1.24491 0.0049 0
0.650156 -1.24853 0.0049 0
0.650397 -1.25072 0.0065 0
0.649632 -1.25275 0.0065 0
0.648398 -1.25606 0.0076 0
0.647752 -1.25783 0.0076 0
0.647074 -1.25962 0.004 0
0.646429 -1.26137 0.004 0
0.645193 -1.2648 0.0042 0
0.644483 -1.26667 0.0042 0
0.644793 -1.26877 0.0061 0
0.643506 -1.27233 0.004 0
0.64193 -1.27375 0.004 0
0.642528 -1.278 0.0013 0
0.641986 -1.27965 0.0013 0
0.641394 -1.28135 0.0037 0
0.6436 -1.28412 0.0037 0
0.642312 -1.28766 0.005 0
0.639808 -1.28872 0.005 0
0.639197 -1.29046 0.0033 0
0.638862 -1.29434 0.0033 0
0.637287 -1.29575 0.0023 0
0.636677 -1.29757 0.0023 0
0.635676 -1.30061 0.0052 0
0.636877 -1.30316 0.0052 0
0.636296 -1.30486 0.0035 0
0.635144 -1.30828 0.0034 0
0.634513 -1.31006 0.0034 0
0.633886 -1.31184 0.0034 0
0.632668 -1.31534 0.0037 0
0.634896 -1.3181 0.0032 0
0.63431 -1.31982 0.0032 0
0.630881 -1.32059 0.0032 0
0.633437 -1.32549 0.0009 0
0.629596 -1.32763 0.0011 0
0.629001 -1.32942 0.0011 0
0.630312 -1.33184 0.0027 0
0.630082 -1.3356 0.001 0
0.629456 -1.33738 0.001 0
0.627921 -1.33881 0.001 0
0.626826 -1.34219 0.0047 0
0.626297 -1.34377 0.0017 0
0.626119 -1.34753 0.0017 0
0.625615 -1.34921 0.0037 0
0.624564 -1.35251 0.0028 0
0.624047 -1.35416 0.0028 0
0.623544 -1.35585 0.0028 0
0.623136 -1.35737 0.0017 0
0.62217 -1.3606 0.0008 0
0.621662 -1.36227 0.0008 0
0.621109 -1.364 0.0008 0
0.620706 -1.36552 0.0043 0
0.620177 -1.36722 0.0043 0
0.620176 -1.37071 0.0034 0
0.619656 -1.37243 0.0034 0
0.621145 -1.37466 0.0016 0
0.620644 -1.37633 0.0016 0
0.619725 -1.37947 0.0014 0
0.619187 -1.38123 0.0014 0
0.618742 -1.38281 0.004 0
0.618186 -1.38451 0.004 0
0.616133 -1.38762 0.001 0
0.616632 -1.38955 0.001 0
0.617033 -1.39158 0.0008 0
0.616192 -1.39465 0.0027 0
0.615759 -1.39623 0.0027 0
0.615426 -1.39772 0.0027 0
0.613525 -1.40072 0.0038 0
0.613099 -1.4023 0.0036 0
0.612612 -1.40394 0.0036 0
0.61231 -1.40539 0.0036 0
0.611453 -1.40859 0.0044 0
0.611986 -1.41048 0.0006 0
0.610619 -1.41175 0.0006 0
0.610352 -1.41315 0.0006 0
0.609497 -1.41635 0.0018 0
0.609144 -1.41782 0.0029 0
0.60872 -1.41943 0.0029 0
0.609289 -1.42132 0.0029 0
0.608412 -1.42476 0.002 0
0.607079 -1.42577 0.0011 0
0.607578 -1.42776 0.0011 0
0.60685 -1.43089 0.0008 0
0.607377 -1.43281 0.0008 0
0.606986 -1.43434 -0.0009 0
0.606262 -1.43744 -0.0009 0
0.60681 -1.43934 0.0009 0
0.605447 -1.44062 0.0009 0
0.605066 -1.44214 -0.0003 0
0.60442 -1.4452 -0.0003 0
0.604066 -1.44675 0.0012 0
0.604617 -1.44865 0.0012 0
0.604069 -1.45153 -0.0023 0
0.603774 -1.453 -0.0023 0
0.604439 -1.45476 -0.0028 0
0.602834 -1.4575 -0.0006 0
0.60265 -1.45883 -0.0006 0
0.601363 -1.46006 -0.0006 0
0.601029 -1.4616 0.003 0
0.600331 -1.4647 0.001 0
0.600104 -1.4661 0.001 0
0.599756 -1.46771 0.001 0
0.599425 -1.46925 -0.0021 0
0.59898 -1.47207 -0.0013 0
0.598663 -1.47361 -0.0013 0
0.598276 -1.47523 -0.0013 0
0.597958 -1.47675 -0.0015 0
0.597382 -1.47977 0.0022 0
0.597047 -1.48132 0.0022 0
0.596685 -1.48297 0.0022 0
0.595981 -1.48622 0.0028 0
0.59572 -1.4877 0.0015 0
0.595409 -1.48925 0.0015 0
0.594833 -1.49227 -0.0014 0
0.594525 -1.49383 -0.0014 0
0.594368 -1.49518 -0.0027 0
0.593759 -1.49829 -0.0027 0
0.593477 -1.49986 0.0027 0
0.593201 -1.50147 0.0027 0
0.593916 -1.50313 -0.0014 0
0.592308 -1.50605 -0.0014 0
0.592012 -1.50761 0.0004 0
0.59268 -1.50943 0.0004 0
0.592567 -1.51073 0.0004 0
0.591973 -1.51388 0.0004 0
0.592704 -1.51563 0.0027 0
0.592522 -1.51705 0.0027 0
0.594176 -1.51912 0.0018 0
0.593846 -1.52073 0.0018 0
0.593296 -1.52382 -0.0007 0
0.592181 -1.52499 -0.0007 0
0.592001 -1.5263 -0.0022 0
0.595373 -1.53035 -0.0022 0
0.595163 -1.53185 -0.0033 0
0.594121 -1.53288 -0.0033 0
0.592879 -1.53417 -0.0024 0
0.592619 -1.5357 -0.0024 0
0.595955 -1.53989 0.0043 0
0.592804 -1.5408 0.0043 0
0.592626 -1.54204 -0.0011 0
0.592084 -1.54521 -0.0011 0
0.591887 -1.54669 -0.0001 0
0.590814 -1.5478 -0.0001 0
0.590569 -1.54935 -0.0026 0
0.594035 -1.5533 -0.0026 0
0.591058 -1.55385 -0.0044 0
0.590861 -1.55532 -0.0044 0
0.591433 -1.55854 -0.0037 0
0.593129 -1.56066 -0.0037 0
0.59202 -1.56185 0.0027 0
0.589828 -1.56293 0.0027 0
0.593262 -1.56695 -0.0061 0
0.593012 -1.56863 -0.0061 0
0.591952 -1.56975 -0.0019 0
0.591724 -1.57131 -0.0019 0
0.589409 -1.57383 -0.006 0
0.59021 -1.57555 -0.006 0
0.588216 -1.57637 0.0015 0
0.588035 -1.57787 0.0015 0
0.589641 -1.58127 9.99998e-05 0
0.587511 -1.58237 9.99998e-05 0
0.58748 -1.58364 -0.0015 0
0.591194 -1.58611 -0.0015 0
0.589 -1.5884 -0.0022 0
0.589813 -1.59023 -0.0022 0
0.590802 -1.59165 -0.005 0
0.589556 -1.59428 -0.0034 0
0.589406 -1.59576 -0.0034 0
0.589336 -1.59712 -0.0034 0
0.587198 -1.59826 -0.0051 0
0.58879 -1.60177 0.0042 0
0.588607 -1.60331 0.0042 0
0.591482 -1.60526 0.0042 0
0.589168 -1.60794 -0.0002 0
0.587082 -1.60896 -0.0012 0
0.589881 -1.61105 -0.0012 0
0.588827 -1.61226 -0.0012 0
0.587591 -1.61505 -0.0022 0
0.58747 -1.61653 0.0018 0
0.589265 -1.61848 0.0018 0
0.589052 -1.62139 -0.0019 0
0.587958 -1.62269 -0.0019 0
0.587816 -1.62418 -0.0045 0
0.588635 -1.62592 -0.0045 0
0.58754 -1.62851 -0.0042 0
0.588451 -1.63012 -0.0042 0
0.589332 -1.63179 -0.0008 0
0.589291 -1.63444 -0.0039 0
0.586236 -1.63538 -0.0039 0
0.589078 -1.63741 -0.0039 0
0.591933 -1.63943 -0.0036 0
0.591825 -1.64232 -0.0036 0
0.588829 -1.64321 -0.0069 0
0.588781 -1.64464 -0.0069 0
0.585873 -1.6466 -0.0049 0
0.585807 -1.64805 -0.0049 0
0.585763 -1.64947 -0.0011 0
0.585714 -1.65089 -0.0011 0
0.585709 -1.65355 -0.0064 0
0.585631 -1.6551 -0.0064 0
0.584528 -1.65651 -0.0019 0
0.592344 -1.65933 -0.0019 0
0.592206 -1.66227 -0.0034 0
0.59408 -1.66423 -0.0034 0
0.593968 -1.66579 -0.0031 0
0.59183 -1.66846 -0.004 0
0.59286 -1.66986 -0.004 0
0.591702 -1.67284 0.0026 0
0.592624 -1.67449 0.0026 0
0.592635 -1.67582 -0.0033 0
0.592572 -1.67731 -0.0033 0
0.596435 -1.68098 -0.0015 0
0.593571 -1.68172 -0.0015 0
0.594521 -1.6833 -0.0022 0
0.595499 -1.68488 -0.0022 0
0.595469 -1.68776 -0.004 0
0.595628 -1.68888 -0.004 0
0.594693 -1.68988 -0.0028 0
0.59472 -1.69123 -0.0028 0
0.594729 -1.69414 0.0009 0
0.594736 -1.69556 0.0009 0
0.593917 -1.69639 -0.0026 0
0.597928 -1.69824 -0.0026 0
0.596961 -1.70095 -0.0048 0
0.597113 -1.7022 -0.0048 0
0.597183 -1.70335 -0.0059 0
0.596254 -1.70454 -0.0059 0
0.597331 -1.7074 -0.0034 0
0.596506 -1.70837 -0.0034 0
0.59653 -1.70974 -0.0067 0
0.596659 -1.7124 -0.0067 0
0.596697 -1.71377 -0.0037 0
0.596857 -1.71509 -0.0037 0
0.597001 -1.71704 -0.0014 0
0.598999 -1.71838 -0.0014 0
0.598926 -1.7196 -0.0029 0
0.599768 -1.72194 -0.0005 0
0.602638 -1.72338 -0.0005 0
0.60249 -1.72449 -0.0005 0
0.602347 -1.72551 -0.0024 0
0.602195 -1.72703 9.99998e-05 0
0.60211 -1.72787 9.99998e-05 0
0.602034 -1.72874 9.99998e-05 0
0.602024 -1.72987 -0.0019 0
0.601057 -1.73019 -0.0055 0
0.601101 -1.73059 -0.0055 0
0.60227 -1.73106 -0.0062 0
0.602424 -1.73111 -0.0062 0
0.602552 -1.73124 -0.0032 0
0.602648 -1.73139 -0.0032 0
0.603666 -1.73178 -0.0032 0
0.603362 -1.73309 -0.0034 0
0.605105 -1.73413 -0.0036 0
0.605781 -1.73522 -0.0036 0
0.60749 -1.73634 -0.0036 0
0.606788 -1.73848 -0.0013 0
0.607532 -1.73935 -0.0064 0
0.607331 -1.73999 -0.0064 0
0.607777 -1.74151 -0.0037 0
0.608534 -1.74212 -0.0037 0
0.612091 -1.74347 -0.0066 0
0.611458 -1.74456 -0.0066 0
0.612076 -1.74526 0.003 0
0.613226 -1.74666 -0.002 0
0.613826 -1.74727 -0.002 0
0.613465 -1.7478 -0.002 0
0.618505 -1.75002 -0.001 0
0.618164 -1.75054 -0.0028 0
0.623768 -1.75194 -0.0028 0
0.622932 -1.75358 -0.0053 0
0.623632 -1.75432 -0.0053 0
0.626083 -1.7559 -0.0026 0
0.626687 -1.75692 -0.0026 0
0.626451 -1.75748 -0.0007 0
0.626843 -1.7591 -0.0045 0
0.627703 -1.75961 -0.0045 0
0.627981 -1.76143 -0.0024 0
0.628634 -1.76237 -0.0024 0
0.630227 -1.76353 -0.0036 0
0.630229 -1.7658 -0.0036 0
0.631773 -1.76703 -0.0015 0
0.631311 -1.768 -0.0015 0
0.634314 -1.77059 -0.0019 0
0.635565 -1.77238 -0.0019 0
0.639985 -1.77427 0.002 0
0.642919 -1.77701 -0.0064 0
0.642421 -1.77803 -0.0064 0
0.643625 -1.77992 -0.0064 0
0.644091 -1.78111 -0.0017 0
0.648021 -1.78398 -0.0038 0
0.648204 -1.7857 -0.0038 0
0.650662 -1.78721 -0.0038 0
0.651148 -1.78833 -0.0039 0
0.653073 -1.79088 -0.0037 0
0.662048 -1.79446 -0.0037 0
0.662533 -1.79563 -0.0037 0
0.661045 -1.7964 0.0012 0
0.661518 -1.79758 0.0012 0
0.661236 -1.80019 -0.0007 0
0.661707 -1.80136 -0.0007 0
0.665049 -1.80328 -0.0011 0
0.665509 -1.80448 -0.0011 0
0.67079 -1.80688 0.0005 0
0.672361 -1.8101 0.0005 0
0.677674 -1.81248 -0.0011 0
0.679043 -1.81405 -0.0011 0
0.686966 -1.8177 9.99998e-05 0
0.685778 -1.81995 9.99998e-05 0
0.686155 -1.82131 -0.0004 0
0.69234 -1.82411 -0.0004 0
0.693357 -1.8263 -0.0043 0
0.692162 -1.82849 -0.0043 0
0.692499 -1.82986 -0.0021 0
0.692837 -1.83125 -0.0021 0
0.69319 -1.83458 -0.0024 0
0.692501 -1.83581 -0.0024 0
0.703456 -1.84006 -0.0042 0
0.704737 -1.84174 -0.0042 0
0.704777 -1.84364 -0.0017 0
0.704483 -1.84614 -0.0017 0
0.704843 -1.84747 -0.0032 0
0.723487 -1.85396 -0.0032 0
0.723788 -1.85739 -0.0015 0
0.725026 -1.85914 -0.0015 0
0.724334 -1.86034 -0.0017 0
0.723618 -1.86352 -0.001 0
0.724839 -1.8653 -0.001 0
0.726053 -1.86708 -0.001 0
0.738976 -1.87389 -0.0024 0
0.738783 -1.87613 -0.003 0
0.739846 -1.87816 -0.003 0
0.739215 -1.88114 -0.0003 0
0.73906 -1.88328 -0.0003 0
0.750626 -1.88862 -0.004 0
0.750826 -1.89017 -0.004 0
0.750967 -1.89184 -0.004 0
0.749961 -1.89541 -0.0039 0
0.774713 -1.90543 -0.0005 0
0.774879 -1.90706 -0.0005 0
0.774966 -1.90881 -0.0005 0
0.77386 -1.91252 -0.0012 0
0.805141 -1.92509 9.99998e-05 0
0.805265 -1.92679 9.99998e-05 0
0.807196 -1.92927 9.99998e-05 0
0.965869 -2.00868 -0.0024 0
0.898881 -1.98822 -0.0041 0
0.897922 -1.98979 -0.0041 0
0.897893 -1.99171 -0.0022 0
0.898728 -1.99593 -0.0022 0
0.89718 -1.9984 -0.0038 0
0.897117 -2.00034 -0.0038 0
0.896989 -2.0024 -0.0042 0
0.895774 -2.00616 -0.0042 0
0.894203 -2.00861 -0.0049 0
0.895043 -2.01094 -0.0049 0
0.894967 -2.01289 -0.001 0
0.951092 -2.04043 -0.001 0
0.951329 -2.04373 -0.005 0
0.950261 -2.0454 -0.005 0
0.949009 -2.04914 -0.0043 0
0.949645 -2.05175 -0.0043 0
0.947826 -2.05453 -0.0004 0
0.94734 -2.05884 -2.32831e-10 0
0.947051 -2.06105 -2.32831e-10 0
0.954121 -2.06645 -2.32831e-10 0
0.895042 -2.1505 -0.0012 0
0.893634 -2.15218 -0.0012 0
0.893939 -2.15489 0.0004 0
0.892511 -2.15657 0.0004 0
0.674388 -2.03048 -0.001 0
0.6741 -2.03218 -0.001 0
0.6739 -2.03379 -0.0028 0
0.663955 -2.03141 -0.002 0
0.662382 -2.03301 -0.002 0
0.659553 -2.0331 -0.002 0
0.659151 -2.03629 -0.0044 0
0.65757 -2.03788 -0.0031 0
0.656519 -2.03893 -0.0031 0
0.656387 -2.04044 -0.0031 0
0.655921 -2.04363 -0.0005 0
0.65431 -2.04521 -0.0023 0
0.641533 -2.03857 -0.0023 0
0.640474 -2.03961 -0.0023 0
0.626411 -2.03415 -0.002 0
0.624554 -2.03589 -0.0029 0
0.625053 -2.03808 -0.0029 0
0.62266 -2.04031 -0.0028 0
0.621497 -2.04138 -0.0028 0
0.621355 -2.04415 -0.0016 0
0.621015 -2.04577 -0.0016 0
0.601717 -2.03433 -0.0016 0
0.617411 -2.04903 -0.0021 0
0.599288 -2.03907 -0.0045 0
0.598945 -2.04066 -0.0045 0
0.578867 -2.02976 -0.0001 0
0.578021 -2.03175 -0.0001 0
0.576889 -2.03272 -0.0012 0
0.576231 -2.03584 -0.0012 0
0.57589 -2.03739 0.0004 0
0.574117 -2.03887 0.0004 0
0.573756 -2.04042 -0.0056 0
0.572858 -2.0437 -0.0056 0
0.571697 -2.04465 -0.0052 0
0.569904 -2.04612 -0.0052 0
0.570327 -2.04828 -0.0015 0
0.56867 -2.05086 -0.0015 0
0.547755 -2.03644 -0.0049 0
0.546864 -2.03835 -0.0049 0
0.545692 -2.03927 -0.0058 0
0.545243 -2.04087 -0.0058 0
0.543453 -2.04354 -0.0049 0
0.542317 -2.04569 -0.0049 0
0.541807 -2.04738 -0.0031 0
0.529724 -2.04214 -0.0031 0
0.528956 -2.04407 -0.0008 0
0.525855 -2.0453 -0.0008 0
0.522418 -2.04555 0.0029 0
0.519628 -2.05031 0.0029 0
0.504302 -2.04236 -0.0013 0
0.495973 -2.03896 -0.0013 0
0.494528 -2.04134 -0.0021 0
0.49142 -2.0463 -0.0021 0
0.488838 -2.04946 0.0012 0
0.487833 -2.05273 0.0012 0
0.484253 -2.058 -0.0041 0
0.482269 -2.06078 -0.0041 0
0.466951 -2.05258 -0.0027 0
0.457241 -2.05149 -0.0038 0
0.452173 -2.05057 -0.0038 0
0.450131 -2.05237 -0.0038 0
0.447496 -2.05344 -0.0039 0
0.445414 -2.05707 -0.0002 0
0.444167 -2.05853 -0.0002 0
0.442818 -2.06011 -0.0002 0
0.43999 -2.06226 -0.0022 0
0.438893 -2.06373 -0.002 0
0.437444 -2.06742 -0.002 0
0.435489 -2.06834 -0.00300001 0
0.429953 -2.06582 -0.00300001 0
0.426371 -2.06733 0.0012 0
0.425791 -2.06839 0.0012 0
0.424093 -2.06899 0.0004 0
0.421911 -2.07158 -0.0013 0
0.420684 -2.07291 -0.0013 0
0.412485 -2.06836 -0.0013 0
0.410969 -2.06984 0.0007 0
0.406787 -2.07236 -0.00310001 0
0.396068 -2.06594 -0.00310001 0
0.392884 -2.06732 -0.00310001 0
0.359377 -2.10817 0.0009 0
0.354276 -2.111 -0.002 0
0.347396 -2.10893 -0.002 0
0.340487 -2.11305 0.0022 0
0.334597 -2.1126 0.0022 0
0.328664 -2.11215 0.0071 0
0.316082 -2.11275 0.0071 0
0.314263 -2.11658 0.0073 0
0.309612 -2.11755 0.0073 0
0.299981 -2.12073 0.0022 0
0.294013 -2.12015 0.0022 0
0.287408 -2.11877 0.0007 0
0.281118 -2.12315 -0.0002 0
0.277488 -2.12661 -0.0002 0
0.272063 -2.12669 -0.0002 0
0.263401 -2.12891 -0.00330001 0
0.258044 -2.12885 -0.00200001 0
0.252484 -2.12991 -0.00200001 0
0.24526 -2.13336 -0.0035 0
0.24023 -2.13516 -0.0035 0
0.235363 -2.13367 -0.004 0
0.227489 -2.13825 -0.004 0
0.22145 -2.13723 -0.00300001 0
0.215623 -2.13819 -0.00300001 0
0.208252 -2.14128 -0.00610001 0
0.204627 -2.14337 -0.00610001 0
0.194665 -2.14535 -0.00320001 0
0.191163 -2.14725 -0.00640001 0
0.186308 -2.14762 -0.00640001 0
0.178019 -2.14986 -0.00220001 0
0.171079 -2.14886 -0.00220001 0
0.167572 -2.15066 -0.00350001 0
0.160613 -2.15426 -0.00350001 0
0.155265 -2.15363 -1.02445e-08 0
0.151178 -2.15457 -1.02445e-08 0
0.141435 -2.15593 -0.00190001 0
0.137976 -2.15764 -0.00190001 0
0.135039 -2.16016 -0.00230001 0
0.130696 -2.16207 -0.00230001 0
0.122666 -2.16363 -0.00210001 0
0.117466 -2.16276 -0.00210001 0
0.115036 -2.16603 -0.00300001 0
0.106788 -2.16949 -0.00550001 0
0.10207 -2.16939 -0.00550001 0
0.0994426 -2.17268 -0.00550001 0
0.0899593 -2.17431 -0.00220001 0
0.087352 -2.1775 -0.00010001 0
0.0825459 -2.1773 -0.00010001 0
0.0782897 -2.17795 -0.00010001 0
0.0699198 -2.18105 -0.00220001 0
0.0658565 -2.18155 -0.00450001 0
0.0623331 -2.1829 -0.00450001 0
0.0563243 -2.18733 -0.00350001 0
0.0519363 -2.18885 -0.00350001 0
0.0487917 -2.19002 -0.00590001 0
0.0422275 -2.19251 -0.00590001 0
-0.0809365 -1.97324 0.00079999 0
-0.0829412 -1.97577 0.00079999 0
-0.0870563 -1.97916 0.00479999 0
-0.0877739 -1.98355 0.00479999 0
0.0240757 -2.20328 -0.00250001 0
0.0196832 -2.20364 -0.00250001 0
0.0138471 -2.20672 -0.00540001 0
0.010594 -2.20785 -0.00540001 0
0.0079298 -2.20983 -0.00150001 0
0.00546741 -2.21369 -0.00150001 0
-0.00165123 -2.21399 -0.00560001 0
-0.00433964 -2.21597 -0.00560001 0
-0.00720906 -2.21888 -0.00150001 0
-0.0094927 -2.22172 -0.00150001 0
-0.0162582 -2.22187 -0.00540001 0
-0.0184389 -2.2247 -0.00540001 0
-0.0218465 -2.22573 -0.00360001 0
-0.0243248 -2.22761 -0.00360001 0
-0.0298249 -2.22945 -0.00420001 0
-0.0322072 -2.23131 -0.00420001 0
-0.0349618 -2.23318 -0.00320001 0
-0.0398144 -2.23585 -0.00730001 0
-0.0420669 -2.23765 -0.00730001 0
-0.044232 -2.23944 -0.00730001 0
-0.0469218 -2.24128 -0.00470001 0
-0.0520377 -2.24397 -0.00440001 0
-0.0546338 -2.24476 -0.00440001 0
-0.0579242 -2.24573 -0.00440001 0
-0.0599985 -2.24738 -0.00620001 0
-0.0643942 -2.25085 -0.00640001 0
-0.0669684 -2.25168 -0.00640001 0
-0.0695607 -2.25251 -0.00640001 0
-0.072318 -2.25335 -0.00910001 0
-0.0764887 -2.25581 -0.00500001 0
-0.0783585 -2.25752 -0.00500001 0
-0.0804892 -2.25923 -0.00500001 0
-0.0828261 -2.26001 -0.00300001 0
-0.0876873 -2.26163 -0.00670001 0
-0.0896462 -2.26334 -0.00670001 0
-0.0917728 -2.26506 -0.00670001 0
-0.0961382 -2.26657 -0.00840001 0
-0.0979151 -2.26826 -0.00530001 0
-0.100073 -2.26903 -0.00530001 0
-0.102398 -2.26979 -0.00530001 0
-0.106639 -2.2713 -0.00380001 0
-0.108828 -2.27206 -0.00750001 0
-0.110263 -2.27467 -0.00750001 0
-0.115007 -2.2762 -0.00570001 0
-0.116992 -2.27789 -0.00570001 0
-0.119324 -2.27867 -0.00740001 0
-0.12372 -2.28113 -0.00740001 0
-0.1259 -2.28187 -0.00450001 0
-0.12994 -2.28426 -0.00500001 0
-0.131866 -2.28595 -0.00500001 0
-0.13439 -2.28577 -0.00500001 0
-0.138106 -2.28814 -0.00650001 0
-0.140033 -2.28882 -0.00850001 0
-0.142106 -2.28953 -0.00850001 0
-0.144216 -2.29026 -0.00850001 0
-0.147866 -2.29266 -0.00650001 0
-0.149855 -2.29337 -0.00460001 0
-0.150788 -2.29688 -0.00460001 0
-0.155294 -2.29647 -0.00430001 0
-0.156674 -2.2981 -0.00430001 0
-0.15844 -2.29878 -0.00870001 0
-0.160082 -2.29946 -0.00870001 0
-0.161231 -2.30205 -0.00870001 0
-0.165355 -2.30255 -0.00750001 0
-0.167265 -2.30327 -0.00560001 0
-0.170787 -2.30563 -0.00560001 0
-0.172709 -2.30634 -0.00750001 0
-0.174634 -2.30704 -0.00750001 0
-0.176401 -2.30771 -0.0102 0
-0.180137 -2.30911 -0.0102 0
-0.18195 -2.30981 -0.00760001 0
-0.18315 -2.3124 -0.00760001 0
-0.184966 -2.31311 -0.00880001 0
-0.187072 -2.31288 -0.00880001 0
-0.191198 -2.31337 -0.00850001 0
-0.192668 -2.315 -0.00850001 0
-0.194035 -2.31662 -0.00550001 0
-0.19568 -2.31731 -0.00550001 0
-0.197442 -2.31802 -0.00550001 0
-0.200437 -2.32033 -0.00530001 0
-0.202068 -2.32103 -0.00530001 0
-0.203897 -2.32174 -0.00530001 0
-0.20563 -2.32245 -0.00530001 0
-0.209106 -2.32386 -0.00540001 0
-0.20989 -2.32635 -0.00910001 0
-0.211446 -2.32704 -0.00910001 0
-0.214764 -2.32845 -0.00810001 0
-0.216389 -2.32913 -0.00810001 0
-0.217965 -2.3298 -0.00300001 0
-0.219974 -2.32958 -0.00300001 0
-0.22325 -2.33098 -0.00730001 0
-0.223893 -2.33352 -0.00730001 0
-0.2261 -2.33233 -0.0111 0
-0.227999 -2.33208 -0.0111 0
-0.229534 -2.33276 -0.0111 0
-0.230703 -2.33438 -0.00750001 0
-0.232409 -2.33855 -0.00760001 0
-0.234681 -2.33739 -0.00760001 0
-0.236205 -2.33811 -0.00760001 0
-0.238838 -2.34045 -0.00720001 0
-0.24076 -2.34023 -0.00980001 0
-0.241928 -2.34186 -0.00980001 0
-0.243486 -2.34257 -0.00980001 0
-0.246661 -2.34301 -0.00770001 0
-0.247778 -2.34463 -0.00740001 0
-0.249318 -2.34535 -0.00740001 0
-0.252469 -2.34681 -0.00750001 0
-0.253919 -2.34752 -0.00750001 0
-0.255557 -2.34825 -0.00170001 0
-0.257005 -2.34895 -0.00170001 0
-0.258557 -2.34966 -0.00170001 0
-0.261064 -2.35201 -0.00870001 0
-0.262974 -2.35181 -0.00700001 0
-0.264034 -2.35345 -0.00700001 0
-0.266942 -2.35489 -0.0108 0
-0.268951 -2.35473 -0.0108 0
-0.269922 -2.35629 -0.00890001 0
-0.271058 -2.35793 -0.00890001 0
-0.272575 -2.35867 -0.00890001 0
-0.275815 -2.35918 -0.00260001 0
-0.276867 -2.36083 -0.00460001 0
-0.278212 -2.36154 -0.00460001 0
-0.27585 -2.37152 -0.00460001 0
-0.280817 -2.36297 -0.00870001 0
-0.283865 -2.36345 -0.00760001 0
-0.285211 -2.36417 -0.00760001 0
-0.286506 -2.36491 -0.00760001 0
-0.287646 -2.36559 -0.0161 0
-0.290198 -2.36697 -0.00940001 0
-0.291628 -2.36771 -0.00940001 0
-0.293511 -2.36756 -0.00940001 0
-0.294853 -2.36829 -0.00640001 0
-0.297411 -2.37067 -0.0142 0
-0.298444 -2.37232 -0.0142 0
-0.299914 -2.3721 -0.0142 0
-0.302189 -2.37447 -0.0115 0
-0.303567 -2.3752 -0.0108 0
-0.305 -2.37596 -0.0108 0
-0.306036 -2.37764 -0.0108 0
-0.309152 -2.37915 -0.00490001 0
-0.31064 -2.3799 -0.00860001 0
-0.312062 -2.38064 -0.00860001 0
-0.312904 -2.38229 -0.00860001 0
-0.31615 -2.38286 -0.00940001 0
-0.317435 -2.38359 -0.0139 0
-0.318861 -2.38436 -0.0139 0
-0.321646 -2.38589 -0.00700001 0
-0.322655 -2.38757 -0.00700001 0
-0.325144 -2.38998 -0.00840001 0
-0.326777 -2.3898 -0.00840001 0
-0.328176 -2.39057 -0.00990001 0
-0.329588 -2.39134 -0.00990001 0
-0.330589 -2.39303 -0.00740001 0
-0.333127 -2.39452 -0.00740001 0
-0.334436 -2.39526 -0.0107 0
-0.335739 -2.396 -0.0107 0
-0.337551 -2.39586 -0.0133 0
-0.339989 -2.39736 -0.0133 0
-0.341708 -2.39722 -0.01 0
-0.342605 -2.39889 -0.01 0
-0.344205 -2.40221 -0.0117 0
-0.345608 -2.403 -0.0117 0
-0.347027 -2.40379 -0.00990001 0
-0.350169 -2.40439 -0.0127 0
-0.350886 -2.40603 -0.0127 0
-0.352366 -2.40685 -0.0127 0
-0.35377 -2.40764 -0.0114 0
-0.356593 -2.40924 -0.01 0
-0.358691 -2.40821 -0.01 0
-0.360162 -2.40903 -0.01 0
-0.362529 -2.41149 -0.0119 0
-0.36392 -2.41227 -0.0112 0
-0.364685 -2.41393 -0.0112 0
-0.367549 -2.41554 -0.0117 0
-0.369459 -2.41545 -0.0117 0
-0.370734 -2.41621 -0.0105 0
-0.373061 -2.4187 -0.0105 0
-0.374436 -2.41947 -0.0137 0
-0.375767 -2.42032 -0.0137 0
-0.376781 -2.42097 -0.00720001 0
-0.379911 -2.42172 -0.00720001 0
-0.380751 -2.42339 -0.0103 0
-0.38311 -2.42492 -0.01 0
-0.384487 -2.42573 -0.01 0
-0.386262 -2.42564 -0.01 0
-0.389076 -2.42629 -0.0137 0
-0.3899 -2.42798 -0.0106 0
-0.390754 -2.42969 -0.0106 0
-0.393489 -2.43137 -0.0113 0
-0.395238 -2.43133 -0.0113 0
-0.396351 -2.43204 -0.011 0
-0.399108 -2.43371 -0.011 0
-0.400497 -2.43454 -0.00980001 0
-0.402419 -2.43698 -0.0104 0
-0.404342 -2.43694 -0.0104 0
-0.40643 -2.43698 -0.0104 0
-0.408392 -2.44046 -0.00830001 0
-0.409945 -2.44131 -0.01 0
-0.411336 -2.44216 -0.01 0
-0.414284 -2.44387 -0.0101 0
-0.415719 -2.44479 -0.0101 0
-0.416668 -2.4454 -0.00900001 0
-0.418041 -2.44623 -0.00900001 0
-0.420417 -2.44884 -0.00670001 0
-0.421788 -2.44967 -0.00670001 0
-0.425237 -2.45047 -0.0105 0
-0.426263 -2.45224 -0.0105 0
-0.42631 -2.45575 -0.01 0
-0.429421 -2.45651 -0.012 0
-0.430845 -2.45735 -0.012 0
-0.432628 -2.4573 -0.012 0
-0.434575 -2.45982 -0.0103 0
-0.436358 -2.45976 -0.0108 0
-0.438791 -2.4624 -0.0108 0
-0.439951 -2.46321 -0.0136 0
-0.441298 -2.46407 -0.0136 0
-0.442659 -2.46492 -0.0128 0
-0.445263 -2.46662 -0.0128 0
-0.447385 -2.46569 -0.014 0
-0.44913 -2.46566 -0.014 0
-0.451185 -2.4682 -0.00810001 0
-0.452053 -2.46995 -0.00810001 0
-0.452655 -2.47164 -0.00830001 0
-0.455276 -2.47334 -0.012 0
-0.456632 -2.47422 -0.012 0
-0.457478 -2.47599 -0.012 0
-0.458646 -2.47683 -0.0104 0
-0.461789 -2.47767 -0.0122 0
-0.463055 -2.47851 -0.0122 0
-0.464456 -2.4794 -0.0122 0
-0.465529 -2.48021 -0.0108 0
-0.468039 -2.48191 -0.0108 0
-0.469267 -2.48276 -0.0112 0
-0.469885 -2.48448 -0.0112 0
-0.470744 -2.48624 -0.0109 0
-0.474381 -2.48626 -0.00880001 0
-0.475579 -2.48711 -0.00880001 0
-0.476236 -2.48883 -0.00880001 0
-0.478319 -2.49145 -0.0102 0
-0.479748 -2.49236 -0.00890001 0
-0.483041 -2.49328 -0.00890001 0
-0.484573 -2.49422 -0.00810001 0
-0.486097 -2.49515 -0.00810001 0
-0.489369 -2.49605 -0.00940001 0
-0.490015 -2.49777 -0.00940001 0
-0.491331 -2.49866 -0.0121 0
-0.493381 -2.50128 -0.0116 0
-0.494809 -2.5022 -0.0116 0
-0.496075 -2.5031 -0.0116 0
-0.499087 -2.50496 -0.00750001 0
-0.499989 -2.50674 -0.013 0
-0.501406 -2.50767 -0.013 0
-0.503231 -2.50769 -0.013 0
-0.505862 -2.50948 -0.0116 0
-0.507273 -2.5104 -0.00730001 0
-0.508027 -2.51217 -0.00730001 0
-0.509531 -2.51311 -0.00730001 0
-0.51246 -2.51501 -0.0107 0
-0.513867 -2.51593 -0.00590001 0
-0.515133 -2.51684 -0.00590001 0
-0.516557 -2.51777 -0.00590001 0
-0.518255 -2.52132 -0.00690001 0
-0.519653 -2.52224 -0.0158 0
-0.520865 -2.52311 -0.0158 0
-0.523956 -2.5241 -0.0115 0
-0.525271 -2.52503 -0.0115 0
-0.525957 -2.52678 -0.00680001 0
-0.5286 -2.52868 -0.00680001 0
-0.529922 -2.52959 -0.00910001 0
-0.53083 -2.53139 -0.00910001 0
-0.532756 -2.53146 -0.00940001 0
-0.533989 -2.53236 -0.00940001 0
-0.536181 -2.53505 -0.0113 0
-0.537488 -2.53596 -0.0113 0
-0.539633 -2.53512 -0.00940001 0
-0.541007 -2.53865 -0.00940001 0
-0.541275 -2.54129 -0.00630001 0
-0.542066 -2.54308 -0.00630001 0
-0.54328 -2.54398 -0.00790001 0
-0.546573 -2.54504 -0.00790001 0
-0.547338 -2.54681 -0.0112 0
-0.543481 -2.55628 -0.0112 0
-0.551025 -2.54954 -0.0112 0
-0.552319 -2.55047 -0.0112 0
-0.553606 -2.55142 -0.00590001 0
-0.554375 -2.55321 -0.00590001 0
-0.557413 -2.55422 -0.0101 0
-0.558129 -2.55598 -0.0101 0
-0.558881 -2.55776 -0.00780001 0
-0.562207 -2.55785 -0.00870001 0
-0.563399 -2.55877 -0.00870001 0
-0.563125 -2.56227 -0.00870001 0
-0.565473 -2.5615 -0.00790001 0
-0.567329 -2.56416 -0.00700001 0
-0.568618 -2.56512 -0.00700001 0
-0.571078 -2.56444 -0.00700001 0
-0.572397 -2.56798 -0.00860001 0
-0.573122 -2.56976 -0.00600001 0
-0.573866 -2.57155 -0.00600001 0
-0.575423 -2.57263 -0.00600001 0
-0.578535 -2.57369 -0.00400001 0
-0.579813 -2.57464 -0.00810001 0
-0.581831 -2.57742 -0.00810001 0
-0.583545 -2.57752 -0.00910001 0
-0.584443 -2.57837 -0.00910001 0
-0.585708 -2.57933 -0.00750001 0
-0.58929 -2.57959 -0.00750001 0
-0.58943 -2.58219 -0.00820001 0
-0.590533 -2.5831 -0.00820001 0
-0.591709 -2.58403 -0.00850001 0
-0.594163 -2.58595 -0.00850001 0
-0.595898 -2.58606 -0.00780001 0
-0.596346 -2.58778 -0.00780001 0
-0.597503 -2.58871 -0.00630001 0
-0.599317 -2.58884 -0.00630001 0
-0.601029 -2.59156 -0.00560001 0
-0.602283 -2.59254 -0.00560001 0
-0.603592 -2.59352 -0.00410001 0
-0.605414 -2.59366 -0.00410001 0
-0.607787 -2.59558 -0.00750001 0
-0.607939 -2.59821 -0.00750001 0
-0.609754 -2.59834 -0.00430001 0
-0.612171 -2.60026 -0.00430001 0
-0.613165 -2.60117 -0.00590001 0
-0.614881 -2.6013 -0.00590001 0
-0.617199 -2.60322 -0.00340001 0
-0.618355 -2.60418 -0.00340001 0
-0.619376 -2.6051 -0.00550001 0
-0.62126 -2.60787 -0.00720001 0
-0.622418 -2.60883 -0.00720001 0
-0.6236 -2.6098 -0.00720001 0
-0.625646 -2.61165 -0.0102 0
-0.626705 -2.61259 -0.00560001 0
-0.62614 -2.61603 -0.00560001 0
-0.62902 -2.61456 -0.00560001 0
-0.631333 -2.61652 -0.0127 0
-0.632558 -2.61753 -0.00850001 0
-0.634362 -2.62035 -0.00850001 0
-0.6361 -2.62051 -0.00670001 0
-0.637732 -2.62322 -0.00760001 0
-0.639463 -2.62337 -0.00760001 0
-0.640243 -2.62421 -0.00760001 0
-0.641395 -2.6252 -0.00730001 0
-0.63949 -2.63281 -0.00350001 0
-0.644702 -2.62809 -0.00350001 0
-0.645701 -2.62908 -0.00350001 0
-0.646838 -2.63006 -0.00550001 0
-0.64893 -2.63193 -0.00730001 0
-0.650637 -2.6321 -0.00730001 0
-0.650838 -2.63379 -0.00730001 0
-0.65416 -2.63415 -0.00650001 0
-0.653271 -2.63743 -0.00850001 0
-0.654809 -2.63755 -0.00850001 0
-0.655574 -2.63841 -0.00850001 0
-0.657456 -2.64029 -0.00720001 0
-0.658476 -2.64125 -0.00870001 0
-0.659142 -2.64209 -0.00870001 0
-0.660288 -2.64312 -0.00870001 0
-0.662583 -2.64515 -0.0101 0
-0.663843 -2.64619 -0.0089 0
-0.664969 -2.6472 -0.0089 0
-0.666242 -2.64829 -0.0089 0
-0.669257 -2.6496 -0.0102 0
-0.669865 -2.65145 -0.0054 0
-0.670808 -2.6524 -0.0054 0
-0.672077 -2.6535 -0.0054 0
-0.674375 -2.65555 -0.0081 0
-0.67609 -2.65577 -0.0106 0
-0.677107 -2.65674 -0.0106 0
-0.6776 -2.65855 -0.0106 0
-0.680389 -2.65982 -0.0081 0
-0.681526 -2.6608 -0.0071 0
-0.682452 -2.66176 -0.0071 0
-0.683529 -2.66546 -0.0091 0
-0.684624 -2.6665 -0.0091 0
-0.686292 -2.6667 -0.0051 0
-0.687218 -2.66766 -0.0051 0
-0.689543 -2.66979 -0.008 0
-0.690641 -2.67082 -0.008 0
-0.691565 -2.67179 -0.0086 0
-0.693766 -2.67387 -0.0086 0
-0.694863 -2.67491 -0.0076 0
-0.695772 -2.67591 -0.0076 0
-0.69672 -2.67683 -0.0062 0
-0.69892 -2.67893 -0.0062 0
-0.700008 -2.67996 -0.0084 0
-0.701002 -2.68096 -0.0084 0
-0.703563 -2.68319 -0.007 0
-0.704214 -2.6851 -0.007 0
-0.70618 -2.68547 -0.0044 0
-0.708671 -2.68769 -0.0068 0
-0.709921 -2.68881 -0.0068 0
-0.7111 -2.6899 -0.0068 0
-0.712265 -2.69098 -0.0093 0
-0.714521 -2.69312 -0.0067 0
-0.715693 -2.69422 -0.0067 0
-0.716926 -2.69537 -0.0067 0
-0.718095 -2.69647 -0.00870001 0
-0.720085 -2.69849 -0.00510001 0
-0.721257 -2.69959 -0.00510001 0
-0.722333 -2.70065 -0.00510001 0
-0.724399 -2.70275 -0.00590001 0
-0.725558 -2.70384 -0.00650001 0
-0.726725 -2.70496 -0.00650001 0
-0.729134 -2.70722 -0.00420001 0
-0.730208 -2.70828 -0.00420001 0
-0.731544 -2.70945 -0.00800001 0
-0.732793 -2.71059 -0.00800001 0
-0.73531 -2.7129 -0.00980001 0
-0.736472 -2.71401 -0.00980001 0
-0.737722 -2.71516 -0.00630001 0
-0.738876 -2.71626 -0.00630001 0
-0.741344 -2.71859 -0.00490001 0
-0.742963 -2.71886 -0.00490001 0
-0.745373 -2.72112 -0.0101 0
-0.745968 -2.72303 -0.0101 0
-0.747198 -2.72419 -0.00570001 0
-0.748253 -2.72527 -0.00570001 0
-0.751319 -2.72681 -0.00730001 0
-0.753884 -2.72651 -0.00730001 0
-0.75547 -2.7295 -0.0104 0
-0.757208 -2.7298 -0.00850001 0
-0.758352 -2.73091 -0.00850001 0
-0.760753 -2.73323 -0.00690001 0
-0.762062 -2.73442 -0.00690001 0
-0.76333 -2.7383 -0.0105 0
-0.764694 -2.73955 -0.0105 0
-0.765831 -2.74068 -0.00860001 0
-0.76779 -2.74111 -0.00860001 0
-0.769631 -2.74418 -0.00940001 0
-0.770974 -2.74541 -0.00940001 0
-0.773478 -2.74505 -0.00530001 0
-0.775265 -2.7481 -0.0041 0
-0.777219 -2.74855 -0.0041 0
-0.779534 -2.75087 -0.0056 0
-0.780759 -2.75204 -0.0056 0
-0.781978 -2.7532 -0.0127 0
-0.784216 -2.75546 -0.0127 0
-0.785425 -2.75662 -0.0092 0
-0.786785 -2.75791 -0.0092 0
-0.789062 -2.76009 -0.01 0
-0.789516 -2.76198 -0.01 0
-0.792036 -2.76165 -0.0065 0
-0.794572 -2.76406 -0.0068 0
-0.797098 -2.76373 -0.0068 0
-0.799593 -2.76615 -0.0106 0
-0.8008 -2.76733 -0.0106 0
-0.80077 -2.77003 -0.0107 0
-0.80529 -2.77025 -0.0107 0
-0.806006 -2.77227 -0.0049 0
-0.808656 -2.77473 -0.00720001 0
-0.810702 -2.77524 -0.00720001 0
-0.8134 -2.7778 -0.00980001 0
-0.81477 -2.77906 -0.00980001 0
-0.815491 -2.78107 -0.0117 0
-0.816877 -2.78233 -0.0117 0
-0.81896 -2.78289 -0.0117 0
-0.821128 -2.7862 -0.0059 0
-0.822503 -2.78747 -0.0081 0
-0.823959 -2.78878 -0.0081 0
-0.825542 -2.79016 -0.0081 0
-0.828488 -2.7928 -0.007 0
-0.829766 -2.79396 -0.0104 0
-0.831235 -2.79526 -0.0104 0
-0.832809 -2.79666 -0.0104 0
-0.835664 -2.79927 -0.00610001 0
-0.83705 -2.80053 -0.0101 0
-0.838352 -2.80176 -0.0101 0
-0.839662 -2.803 -0.0101 0
-0.842508 -2.80558 -0.00760001 0
-0.84388 -2.80684 -0.00670001 0
-0.844024 -2.80964 -0.00670001 0
-0.846339 -2.81304 -0.0118 0
-0.847723 -2.8143 -0.0118 0
-0.849184 -2.81559 -0.0112 0
-0.852067 -2.81824 -0.0112 0
-0.854192 -2.81879 -0.00740001 0
-0.855646 -2.82009 -0.00740001 0
-0.858548 -2.8227 -0.0125 0
-0.860002 -2.82401 -0.0125 0
-0.8627 -2.82378 -0.0124 0
-0.862821 -2.82657 -0.0124 0
-0.86471 -2.82974 -0.0132 0
-0.868762 -2.82805 -0.0132 0
-0.870044 -2.82927 -0.0115 0
-0.872638 -2.83173 -0.00860001 0
-0.874084 -2.83305 -0.00860001 0
-0.875447 -2.83433 -0.00860001 0
-0.878253 -2.83691 -0.00910001 0
-0.879724 -2.83823 -0.0121 0
-0.881193 -2.83954 -0.0121 0
-0.882724 -2.8409 -0.0121 0
-0.885686 -2.84353 -0.0114 0
-0.887149 -2.84484 -0.0114 0
-0.890123 -2.8475 -0.0114 0
-0.889573 -2.85104 -0.012 0
-0.892352 -2.85085 -0.012 0
-0.89381 -2.85217 -0.0102 0
-0.896901 -2.85487 -0.0102 0
-0.898545 -2.85626 -0.00910001 0
-0.900096 -2.85761 -0.00910001 0
-0.901641 -2.85896 -0.00880001 0
-0.904495 -2.86156 -0.00880001 0
-0.906528 -2.86209 -0.0107 0
-0.907227 -2.8641 -0.0107 0
-0.908575 -2.86536 -0.00880001 0
-0.911504 -2.86799 -0.00880001 0
-0.913058 -2.86934 -0.0138 0
-0.915286 -2.86995 -0.0138 0
-0.916753 -2.87127 -0.00970001 0
-0.91908 -2.87469 -0.00970001 0
-0.920531 -2.876 -0.012 0
-0.922493 -2.87649 -0.012 0
-0.924583 -2.87977 -0.00940001 0
-0.926044 -2.88109 -0.00940001 0
-0.927492 -2.8824 -0.0116 0
-0.930414 -2.88502 -0.00620001 0
-0.932537 -2.88559 -0.00620001 0
-0.934867 -2.88901 -0.00800001 0
-0.936305 -2.89031 -0.00800001 0
-0.938395 -2.89084 -0.00880001 0
-0.939104 -2.89284 -0.00880001 0
-0.940683 -2.89696 -0.00570001 0
-0.943441 -2.89675 -0.00570001 0
-0.943568 -2.89953 -0.00810001 0
-0.946383 -2.89935 -0.00810001 0
-0.949388 -2.90203 -0.00640001 0
-0.950839 -2.90334 -0.00640001 0
-0.95221 -2.90461 -0.00970001 0
-0.955131 -2.90726 -0.00970001 0
-0.955234 -2.91004 -0.00990001 0
-0.95668 -2.91135 -0.00990001 0
-0.959849 -2.91406 -0.00900001 0
-0.961376 -2.91539 -0.00900001 0
-0.963 -2.91678 -0.00890001 0
-0.964532 -2.91813 -0.00890001 0
-0.967427 -2.92074 -0.00780001 0
-0.968824 -2.92203 -0.00780001 0
-0.970283 -2.92333 -0.00840001 0
-0.973321 -2.92604 -0.00800001 0
-0.974774 -2.92735 -0.00800001 0
-0.977585 -2.92717 -0.00800001 0
-0.979198 -2.9313 -0.00850001 0
-0.980572 -2.93257 -0.00870001 0
-0.982026 -2.93388 -0.00870001 0
-0.986106 -2.93492 -0.0133 0
-0.98624 -2.93773 -0.0133 0
-0.989 -2.93751 -0.00930001 0
-0.990745 -2.94174 -0.00930001 0
-0.992222 -2.94306 -0.00820001 0
-0.993707 -2.94438 -0.00820001 0
-0.995152 -2.94567 -0.0113 0
-0.998153 -2.94832 -0.0113 0
-0.999697 -2.94968 -0.00850001 0
-1.00115 -2.95098 -0.00850001 0
-1.00349 -2.95439 -0.00720001 0
-1.00577 -2.95503 -0.00720001 0
-1.00732 -2.95638 -0.00790001 0
-1.00896 -2.9578 -0.00790001 0
-1.01181 -2.96033 -0.00800001 0
-1.0133 -2.96169 -0.00800001 0
-1.01467 -2.96295 -0.00990001 0
-1.0161 -2.9643 -0.00990001 0
-1.0187 -2.96664 -0.0114 0
-1.01948 -2.96869 -0.0114 0
-1.02153 -2.96922 -0.00660001 0
-1.02446 -2.97184 -0.00720001 0
-1.02603 -2.97318 -0.00720001 0
-1.02758 -2.97454 -0.00720001 0
-1.02846 -2.97663 -0.00590001 0
-1.03349 -2.97703 -0.00700001 0
-1.03495 -2.97833 -0.00700001 0
-1.03648 -2.97969 -0.00700001 0
-1.03964 -2.98243 -0.00680001 0
-1.04119 -2.98377 -0.0123 0
-1.04275 -2.98512 -0.0123 0
-1.04233 -2.98874 -0.0123 0
-1.04598 -2.99065 -0.00850001 0
-1.04743 -2.99196 -0.00980001 0
-1.04898 -2.9933 -0.00980001 0
-1.05044 -2.9946 -0.00980001 0
-1.05133 -2.99669 -0.0109 0
-1.05517 -2.99868 -0.00770001 0
-1.05806 -2.99853 -0.00770001 0
-1.05963 -2.99989 -0.00770001 0
-1.05911 -3.00345 -0.00980001 0
-1.0622 -3.00615 -0.00820001 0
-1.06564 -3.00521 -0.00820001 0
-1.06777 -3.00576 -0.00820001 0
-1.06923 -3.00706 -0.00690001 0
-1.07079 -3.00841 -0.00690001 0
-1.07387 -3.01107 -0.00480001 0
-1.07478 -3.01317 -0.00480001 0
-1.07642 -3.01456 -0.00890001 0
-1.08016 -3.01648 -0.00880001 0
-1.08159 -3.01775 -0.00880001 0
-1.08304 -3.01904 -0.00880001 0
-1.08451 -3.02034 -0.00970001 0
-1.08752 -3.02298 -0.00920001 0
-1.08905 -3.0243 -0.00920001 0
-1.09076 -3.02574 -0.00920001 0
-1.09397 -3.02846 -0.00560001 0
-1.09619 -3.02904 -0.0107 0
-1.09772 -3.03037 -0.0107 0
-1.10087 -3.03306 -0.011 0
-1.10258 -3.03447 -0.011 0
-1.10421 -3.03584 -0.00760001 0
-1.10748 -3.03859 -0.00760001 0
-1.10979 -3.03921 -0.00740001 0
-1.11086 -3.04136 -0.00740001 0
-1.11318 -3.04199 -0.00580001 0
-1.11655 -3.04477 -0.00580001 0
-1.11819 -3.04614 -0.00540001 0
-1.11984 -3.04751 -0.00540001 0
-1.12211 -3.04811 -0.00680001 0
-1.12589 -3.05003 -0.00680001 0
-1.1274 -3.05133 -0.00770001 0
-1.12823 -3.05338 -0.00770001 0
-1.13042 -3.05392 -0.00890001 0
-1.13366 -3.05662 -0.00890001 0
-1.13595 -3.05723 -0.00630001 0
-1.13768 -3.05863 -0.00630001 0
-1.13854 -3.06067 -0.00720001 0
-1.14116 -3.06414 -0.00720001 0
-1.1428 -3.0655 -0.00730001 0
-1.14555 -3.06903 -0.0108 0
-1.14795 -3.06968 -0.0108 0
-1.15039 -3.07035 -0.0108 0
-1.15222 -3.07178 -0.00390001 0
-1.15557 -3.0745 -0.00640001 0
-1.15721 -3.07586 -0.00640001 0
-1.1589 -3.0773 -0.00640001 0
-1.16046 -3.07861 -0.00600001 0
-1.16361 -3.08125 -0.00610001 0
-1.16528 -3.0826 -0.00610001 0
-1.16637 -3.08478 -0.00610001 0
-1.16746 -3.08693 -0.0116 0
-1.17077 -3.08961 -0.01 0
-1.17306 -3.0902 -0.01 0
-1.17466 -3.09155 -0.01 0
-1.1764 -3.09294 -0.00400001 0
-1.1796 -3.09558 -0.00750001 0
-1.18129 -3.09693 -0.00750001 0
-1.18322 -3.09841 -0.00750001 0
-1.18497 -3.0998 -0.01 0
-1.18857 -3.10261 -0.00910001 0
-1.19162 -3.10245 -0.00910001 0
-1.19356 -3.10393 -0.00910001 0
-1.19521 -3.10527 -0.00820001 0
-1.19841 -3.10787 -0.00840001 0
-1.19944 -3.10996 -0.00840001 0
-1.2006 -3.11214 -0.00840001 0
-1.20402 -3.11485 -0.00800001 0
-1.20637 -3.11542 -0.00800001 0
-1.20804 -3.11675 -0.00800001 0
-1.20981 -3.11816 -0.00800001 0
-1.21146 -3.1195 -0.00430001 0
-1.21401 -3.12287 -0.00890001 0
-1.21753 -3.12186 -0.00890001 0
-1.2207 -3.12446 -0.00980001 0
-1.22174 -3.12657 -0.00980001 0
-1.22403 -3.12711 -0.0103 0
-1.22753 -3.12985 -0.0103 0
-1.22922 -3.13119 -0.0129 0
-1.2338 -3.13229 -0.00360001 0
-1.23438 -3.13525 -0.00360001 0
-1.23688 -3.13592 -0.00360001 0
-1.23865 -3.1373 -0.00920001 0
-1.24226 -3.14003 -0.00840001 0
-1.24604 -3.14286 -0.00840001 0
-1.24908 -3.14269 -0.00790001 0
-1.25119 -3.14425 -0.00790001 0
-1.25449 -3.14675 -0.00850001 0
-1.25637 -3.14819 -0.00850001 0
-1.25869 -3.14874 -0.00630001 0
-1.26277 -3.15064 -0.00950001 0
-1.26462 -3.15202 -0.00950001 0
-1.26836 -3.15483 -0.0125 0
-1.27022 -3.1562 -0.0125 0
-1.27404 -3.15896 -0.0103 0
-1.27527 -3.16111 -0.0103 0
-1.27786 -3.16175 -0.00840001 0
-1.27919 -3.16394 -0.00840001 0
-1.28389 -3.16603 -0.00470001 0
-1.28585 -3.16744 -0.00470001 0
-1.28781 -3.16885 -0.00670001 0
-1.29183 -3.17167 -0.00620001 0
-1.29378 -3.17306 -0.00620001 0
-1.29777 -3.17588 -0.00690001 0
-1.29975 -3.17726 -0.00690001 0
-1.30192 -3.17869 -0.0102 0
-1.30441 -3.17924 -0.0102 0
-1.30834 -3.182 -0.00640001 0
-1.3096 -3.18414 -0.00640001 0
-1.31227 -3.18477 -0.00870001 0
-1.31347 -3.18688 -0.00870001 0
-1.31603 -3.18748 -0.00870001 0
-1.31975 -3.19014 -0.00900001 0
-1.32174 -3.19152 -0.0119 0
-1.32618 -3.19342 -0.0119 0
-1.32798 -3.19472 -0.00640001 0
-1.32987 -3.19606 -0.00640001 0
-1.33254 -3.19666 -0.00940001 0
-1.33443 -3.198 -0.00940001 0
-1.33831 -3.2007 -0.011 0
-1.34038 -3.20209 -0.011 0
-1.34225 -3.20339 -0.00640001 0
-1.34415 -3.2047 -0.00640001 0
-1.34748 -3.20819 -0.00860001 0
-1.35021 -3.20877 -0.00860001 0
-1.35215 -3.21007 -0.00660001 0
-1.35423 -3.21144 -0.00660001 0
-1.3583 -3.21418 -0.00640001 0
-1.36055 -3.21561 -0.00640001 0
-1.36257 -3.21693 -0.00950001 0
-1.36665 -3.21962 -0.00950001 0
-1.36874 -3.22098 -0.00830001 0
-1.37101 -3.2224 -0.00830001 0
-1.37309 -3.22374 -0.00830001 0
-1.37381 -3.22664 -0.00830001 0
-1.37953 -3.22682 -0.0124 0
-1.38053 -3.22981 -0.0124 0
-1.38309 -3.2303 -0.00840001 0
-1.38835 -3.23135 -0.00840001 0
-1.38945 -3.23438 -0.0115 0
-1.39264 -3.23407 -0.0115 0
-1.39723 -3.23583 -0.0113 0
-1.39923 -3.23711 -0.0113 0
-1.40075 -3.23925 -0.01 0
-1.40529 -3.24101 -0.0103 0
-1.40673 -3.24311 -0.0103 0
-1.40937 -3.24363 -0.0103 0
-1.40982 -3.24742 -0.00730001 0
-1.41617 -3.24672 -0.00920001 0
-1.41761 -3.24882 -0.00920001 0
-1.42021 -3.24928 -0.00920001 0
-1.4225 -3.25065 -0.0105 0
-1.42649 -3.25318 -0.00940001 0
-1.42844 -3.25444 -0.00940001 0
-1.4298 -3.25649 -0.00940001 0
-1.43365 -3.25535 -0.00820001 0
-1.4364 -3.25948 -0.00900001 0
-1.44016 -3.25829 -0.00900001 0
-1.44183 -3.26045 -0.00900001 0
-1.44585 -3.26296 -0.00900001 0
-1.44789 -3.26421 -0.0139 0
-1.45107 -3.26381 -0.0139 0
-1.45284 -3.26598 -0.0139 0
-1.45786 -3.26777 -0.0116 0
-1.46012 -3.26907 -0.00810001 0
-1.46236 -3.27037 -0.00810001 0
-1.46488 -3.27176 -0.00810001 0
-1.46935 -3.27434 -0.0125 0
-1.47148 -3.27555 -0.0116 0
-1.47418 -3.27596 -0.0116 0
-1.47862 -3.2785 -0.0115 0
-1.48179 -3.27806 -0.0115 0
-1.48385 -3.27929 -0.00790001 0
-1.48581 -3.28047 -0.00790001 0
-1.48984 -3.28286 -0.00940001 0
-1.49236 -3.28321 -0.00940001 0
-1.49437 -3.28439 -0.0114 0
-1.4958 -3.28641 -0.0114 0
-1.49923 -3.28602 -0.0114 0
-1.5034 -3.28844 -0.0123 0
-1.5044 -3.29132 -0.0129 0
-1.50737 -3.29178 -0.0129 0
-1.50899 -3.29384 -0.0129 0
-1.51379 -3.29543 -0.0147 0
-1.518 -3.29324 -0.00950001 0
-1.5197 -3.29532 -0.00950001 0
-1.52442 -3.2969 -0.0124 0
-1.52703 -3.29723 -0.0124 0
-1.52902 -3.29836 -0.0133 0
-1.5312 -3.29956 -0.0133 0
-1.53542 -3.30194 -0.0108 0
-1.53865 -3.30143 -0.0108 0
-1.53978 -3.30431 -0.00860001 0
-1.54493 -3.30591 -0.00860001 0
-1.54711 -3.3071 -0.00940001 0
-1.54982 -3.30743 -0.00940001 0
-1.55403 -3.3107 -0.0108 0
-1.55749 -3.31025 -0.0108 0
-1.55983 -3.31146 -0.00950001 0
-1.56115 -3.31438 -0.00950001 0
-1.56734 -3.31517 -0.00870001 0
-1.56918 -3.31722 -0.00870001 0
-1.57207 -3.31756 -0.0142 0
-1.57496 -3.3179 -0.0142 0
-1.57759 -3.31915 -0.0121 0
-1.58178 -3.32237 -0.0121 0
-1.58457 -3.32266 -0.0111 0
-1.58626 -3.32465 -0.0111 0
-1.59033 -3.32327 -0.0131 0
-1.59482 -3.32551 -0.0131 0
-1.59712 -3.32666 -0.0132 0
-1.59975 -3.32786 -0.0132 0
-1.60544 -3.32839 -0.012 0
-1.60796 -3.32962 -0.012 0
-1.60977 -3.33161 -0.0142 0
-1.61193 -3.33368 -0.0142 0
-1.61773 -3.33322 -0.0115 0
-1.61993 -3.3343 -0.0115 0
-1.62213 -3.33538 -0.0161 0
-1.62434 -3.33647 -0.0161 0
-1.627 -3.33765 -0.0138 0
-1.63298 -3.3382 -0.0138 0
-1.63587 -3.33844 -0.0102 0
-1.63862 -3.33961 -0.0102 0
-1.64062 -3.34161 -0.0136 0
-1.64551 -3.34381 -0.0136 0
-1.64799 -3.34491 -0.0139 0
-1.65082 -3.34607 -0.0139 0
-1.65725 -3.34561 -0.0168 0
-1.65874 -3.34847 -0.0168 0
-1.66255 -3.34689 -0.013 0
-1.66512 -3.34799 -0.013 0
-1.67036 -3.34918 -0.0128 0
-1.67276 -3.35023 -0.0128 0
-1.67564 -3.3504 -0.0153 0
-1.67838 -3.35155 -0.0153 0
-1.68305 -3.35353 -0.0142 0
-1.6855 -3.35457 -0.0142 0
-1.68839 -3.35471 -0.015 0
-1.69332 -3.3577 -0.016 0
-1.69585 -3.35872 -0.016 0
-1.69835 -3.35973 -0.016 0
-1.70445 -3.36094 -0.0147 0
-1.70695 -3.36194 -0.0104 0
-1.70954 -3.36295 -0.0104 0
-1.71345 -3.36124 -0.0104 0
-1.71935 -3.36235 -0.0156 0
-1.72193 -3.36333 -0.00980001 0
-1.72399 -3.36521 -0.00980001 0
-1.72932 -3.36718 -0.0123 0
-1.73262 -3.36633 -0.0123 0
-1.73782 -3.3673 -0.0116 0
-1.74303 -3.36926 -0.0103 0
-1.74583 -3.36929 -0.0103 0
-1.7487 -3.36931 -0.0122 0
-1.75124 -3.37024 -0.0122 0
-1.75707 -3.3713 -0.0103 0
-1.76003 -3.37132 -0.0103 0
-1.76253 -3.37222 -0.0137 0
-1.76508 -3.37314 -0.0137 0
-1.77118 -3.37414 -0.0142 0
-1.7738 -3.37505 -0.0142 0
-1.77639 -3.37594 -0.00920001 0
-1.77894 -3.37684 -0.00920001 0
-1.78557 -3.37685 -0.0134 0
-1.78828 -3.37775 -0.0134 0
-1.7913 -3.37772 -0.00640001 0
-1.79706 -3.37952 -0.00640001 0
