ply
format ascii 1.0
element vertex 155
property float x
property float y
property float z
property float intensity
end_header
-1.18456 -2.63427 -0.0131978 0
-2.78485 -1.39517 -0.00350324 0
-2.70715 -1.4931 -0.00332515 0
-0.601378 -2.59968 -0.00760092 0
-2.62554 -1.52214 -0.00241547 0
-2.17121 -1.72308 -0.0014367 0
-2.13982 -1.74198 -0.00294492 0
-2.10967 -1.76135 -0.00216467 0
-1.93675 -1.89323 -0.00550054 0
-1.90583 -1.92455 -0.0040766 0
-1.77503 -2.05824 -0.00723969 0
0.10407 -2.26127 -0.00271014 0
-1.47609 -2.3748 -0.0115142 0
-2.28971 0.0964354 0.000282825 0
-2.8284 -0.717606 3.49097e-05 0
-2.47312 -1.57763 -0.00144016 0
-2.12433 0.26407 0.000555462 0
-1.35808 -2.5007 -0.0107996 0
-1.95755 -1.87322 -0.00414575 0
-2.83446 -1.13925 -0.00230925 0
-2.3345 0.0489724 0.00020994 0
-1.21262 -2.61508 -0.00931927 0
-2.72131 -0.467045 0.000900233 0
-1.03594 -2.76552 -0.0141614 0
-2.02753 0.366891 -0.00288284 0
0.230529 -2.20793 -0.00194782 0
-1.99313 -1.84212 -0.0049263 0
-2.84509 -1.08803 -0.00153292 0
0.328766 -2.16956 -0.0024666 0
-2.85103 -0.878769 -0.000732603 0
-1.31989 -2.53361 -0.00662272 0
-2.2805 -1.65956 0.000413197 0
0.133333 -2.24708 -0.00199045 0
-1.51156 1.04103 -0.0114242 0
-2.31214 0.0723758 0.000203962 0
-2.76794 -0.571272 0.000865118 0
-1.77734 0.764012 -0.0118937 0
-2.46094 -0.0884702 0.000335281 0
-1.91067 0.511128 -0.00650644 0
-1.88707 0.542253 -0.00749489 0
-2.64658 -0.320394 -0.00133444 0
-2.43305 -1.59323 -0.00256563 0
-1.76957 0.861016 -0.0121814 0
0.181885 -2.22413 -0.00190536 0
-2.23543 -1.68702 0.000665628 0
-1.85519 1.07668 -0.0120833 0
-1.5694 1.07798 -0.0111756 0
-2.85299 -0.932448 -0.0018133 0
-2.33178 -1.63562 0.000144151 0
-2.41938 -0.0417077 0.00150237 0
-2.04803 0.345437 -0.00278146 0
-1.86763 0.574061 -0.00773046 0
-2.74662 -0.521511 0.000709704 0
-2.78768 -0.622261 -0.00130452 0
-1.85992 -1.97127 -0.00519354 0
-1.86423 1.10168 -0.0148036 0
-1.43264 1.0054 -0.0110633 0
-2.62262 -0.290548 0.00229845 0
-2.79438 -1.34501 -0.00331719 0
-2.08034 0.310629 -0.00216278 0
-2.10293 0.286564 -0.00223809 0
-2.43963 -0.0626448 0.00291213 0
-2.85319 -0.978669 -0.000875292 0
-1.93122 0.485672 -0.00591992 0
-1.78945 0.721319 -0.00969219 0
-2.50989 -0.14323 -0.00118754 0
-1.8085 0.676447 -0.0127985 0
-1.98822 0.414265 -0.00461887 0
-2.69794 -0.416079 0.0026243 0
-2.81855 -0.688978 0.00157712 0
0.279534 -2.18877 -0.00127264 0
-1.24449 0.938215 -0.0115361 0
-1.93694 1.24849 -0.0127249 0
-0.86194 -2.73992 -0.0134923 0
-2.36302 0.0167573 0.00064951 0
-1.83984 0.619977 -0.00878406 0
-2.0183 -1.82088 -0.00390905 0
-1.95314 0.457402 -0.00463204 0
-1.27707 0.94931 -0.0108016 0
-2.25722 0.131035 0.00142225 0
-2.66446 -0.355564 0.00207166 0
-1.62168 -2.22572 -0.0077755 0
-1.81027 0.96864 -0.0107335 0
-1.95319 1.21664 -0.0122997 0
-2.38531 -0.00476673 0.0005909 0
-2.84014 -0.767069 0.00102654 0
-2.17058 0.219644 -0.000614761 0
-1.0709 -2.73077 -0.0142302 0
-2.22226 0.166891 -0.00144442 0
-1.64799 -2.19737 -0.0106345 0
-1.83325 1.02134 -0.0115274 0
-2.84636 -0.81717 0.00305196 0
-0.00793993 -2.31619 -0.00095634 0
0.378053 -2.15063 -0.00204773 0
-0.770462 -2.69205 -0.0112062 0
-1.78543 0.918496 -0.01071 0
-1.58369 -2.26383 -0.00846838 0
-2.08376 -1.78336 -0.00362707 0
-2.49024 -0.120365 0.000187735 0
-0.406361 -2.49212 -0.0108694 0
-1.38714 0.984221 -0.0121803 0
0.425703 -2.13459 -0.00404614 0
-1.15916 -2.65521 -0.0137166 0
-1.32196 0.961117 -0.010049 0
0.457663 -2.12352 -0.0033352 0
-2.80377 -1.292 -0.00348909 0
-2.8245 -1.1905 -0.00269884 0
-1.12699 -2.67953 -0.0130221 0
-1.71799 -2.12211 -0.00864268 0
-0.62615 -2.61312 -0.00888608 0
-2.57043 -0.217991 0.000428031 0
-0.53103 -2.56013 -0.00808864 0
-2.57573 -1.5385 -0.000274956 0
-0.728292 -2.67047 -0.0100909 0
-2.75324 -1.47625 -0.00222759 0
-2.80314 -0.656181 -0.000427586 0
-2.40313 -1.6063 -0.00233065 0
-1.76353 0.828206 -0.0120771 0
0.0398433 -2.29322 -0.000734113 0
-0.924696 -2.76458 -0.0129163 0
-1.26312 -2.57648 -0.00697534 0
-2.5369 -0.174058 0.00129496 0
-0.476216 -2.52922 -0.00864734 0
-0.981653 -2.82629 -0.0140587 0
-1.37737 -2.48316 -0.00961434 0
-2.20255 -1.70568 -0.00193914 0
-0.948644 -2.85683 -0.0129391 0
-1.24494 -2.59081 -0.0107215 0
-0.435597 -2.50668 -0.00678202 0
-1.42497 -2.43393 -0.00941712 0
-0.108127 -2.36563 -0.000698963 0
-2.81443 -1.24004 -0.00356283 0
-1.1044 -2.70022 -0.0127307 0
-2.51787 -1.56076 -0.00243519 0
0.448043 -2.1246 0.000149933 0
-2.77414 -1.44143 -0.00216458 0
-1.87999 -1.94968 -0.00670281 0
-1.81371 -2.01758 -0.00469587 0
-0.0553819 -2.33982 -0.0013898 0
-0.577449 -2.5874 -0.00993856 0
-0.152937 -2.3852 -0.000834964 0
-0.673131 -2.64056 -0.0111944 0
-1.66827 -2.17689 -0.00735144 0
-0.198297 -2.40747 -0.000360874 0
-1.7467 -2.08928 -0.00751477 0
-0.245376 -2.43067 -0.00393584 0
-2.36188 -1.62203 -0.00224109 0
0.0820371 -2.27219 -0.00192028 0
-1.52732 -2.32045 -0.0096832 0
-0.329933 -2.47259 -0.00755295 0
-0.292595 -2.4536 -0.00427333 0
-0.81236 -2.71768 -0.0140386 0
-2.04881 -1.79911 -0.00401724 0
-2.85163 -1.02137 -0.000847981 0
-0.376501 -2.48791 -0.00660027 0
