ply
format ascii 1.0
element vertex 1739
property float x
property float y
property float z
property float intensity
end_header
-0.49729 -3.00421 -0.0052 0
-0.500117 -3.01251 -0.0078 0
-0.501189 -3.00021 -0.0078 0
-0.502418 -2.99961 -0.0088 0
-0.503747 -2.99896 -0.0088 0
-0.505181 -2.99933 -0.0073 0
-0.50554 -2.99052 -0.0073 0
-0.507839 -2.98828 -0.0077 0
-0.50768 -2.98077 -0.0077 0
-0.509083 -2.98114 -0.0056 0
-0.512309 -2.98054 -0.0056 0
-0.512701 -2.97597 -0.0065 0
-0.514096 -2.97632 -0.0065 0
-0.517072 -2.97474 -0.0066 0
-0.518246 -2.97411 -0.0066 0
-0.519044 -2.97149 -0.0056 0
-0.518893 -2.96497 -0.0056 0
-0.521807 -2.96336 -0.0064 0
-0.522956 -2.96271 -0.0064 0
-0.524339 -2.96304 -0.0068 0
-0.52716 -2.96145 -0.0063 0
-0.528219 -2.96084 -0.0063 0
-0.529611 -2.96116 -0.0063 0
-0.530836 -2.96045 -0.0061 0
-0.533722 -2.95877 -0.0063 0
-0.535126 -2.95907 -0.0063 0
-0.534928 -2.95358 -0.0063 0
-0.535521 -2.95098 -0.0063 0
-0.538373 -2.94926 -0.0066 0
-0.538666 -2.9457 -0.0066 0
-0.540525 -2.94343 -0.0042 0
-0.540499 -2.93891 -0.0042 0
-0.542179 -2.93784 -0.0033 0
-0.544656 -2.93741 -0.0033 0
-0.545451 -2.93576 -0.0046 0
-0.545652 -2.9322 -0.0046 0
-0.548081 -2.92948 -0.0066 0
-0.547632 -2.92401 -0.0066 0
-0.548691 -2.9233 -0.0061 0
-0.550046 -2.92355 -0.0061 0
-0.552715 -2.92175 -0.0033 0
-0.553848 -2.92098 -0.0033 0
-0.556918 -2.92005 -0.0082 0
-0.558061 -2.91927 -0.0059 0
-0.557486 -2.91382 -0.0059 0
-0.558232 -2.90859 -0.0049 0
-0.559732 -2.90753 -0.0049 0
-0.561016 -2.9078 -0.0049 0
-0.56204 -2.90707 -0.0038 0
-0.563404 -2.90727 -0.0038 0
-0.565989 -2.9054 -0.0064 0
-0.567077 -2.9046 -0.0066 0
-0.568161 -2.90381 -0.0066 0
-0.568464 -2.90119 -0.0066 0
-0.570931 -2.89936 -0.0066 0
-0.571856 -2.89867 -0.008 0
-0.572418 -2.89704 -0.008 0
-0.573343 -2.89634 -0.008 0
-0.575165 -2.89616 -0.003 0
-0.575308 -2.88998 -0.0047 0
-0.576296 -2.88921 -0.0047 0
-0.577726 -2.88931 -0.0047 0
-0.579832 -2.88642 -0.0049 0
-0.581192 -2.88657 -0.0059 0
-0.582183 -2.88579 -0.0059 0
-0.582006 -2.88224 -0.0059 0
-0.584452 -2.88025 -0.0053 0
-0.585485 -2.8794 -0.0057 0
-0.586515 -2.87855 -0.0057 0
-0.58747 -2.87776 -0.0057 0
-0.589615 -2.87472 -0.0076 0
-0.591036 -2.87478 -0.0075 0
-0.592052 -2.87393 -0.0075 0
-0.593479 -2.87398 -0.0075 0
-0.594448 -2.8719 -0.0066 0
-0.597018 -2.87223 -0.0056 0
-0.595375 -2.86602 -0.0056 0
-0.596303 -2.86521 -0.0056 0
-0.59764 -2.86403 -0.0057 0
-0.598983 -2.86413 -0.0057 0
-0.60089 -2.86243 -0.0068 0
-0.600085 -2.858 -0.0068 0
-0.60141 -2.8568 -0.004 0
-0.603162 -2.85519 -0.0055 0
-0.604063 -2.85437 -0.0055 0
-0.605821 -2.85406 -0.0055 0
-0.608009 -2.85334 -0.0023 0
-0.608976 -2.85244 -0.0079 0
-0.608961 -2.84983 -0.0079 0
-0.611735 -2.84851 -0.0056 0
-0.613079 -2.84855 -0.0056 0
-0.614425 -2.8486 -0.0064 0
-0.61524 -2.84783 -0.0064 0
-0.616278 -2.84415 -0.0047 0
-0.617114 -2.84335 -0.0047 0
-0.617571 -2.84158 -0.0057 0
-0.618464 -2.83677 -0.0057 0
-0.62133 -2.83945 -0.0052 0
-0.621836 -2.83774 -0.0052 0
-0.622243 -2.83233 -0.002 0
-0.624242 -2.83054 -0.002 0
-0.626952 -2.83082 0.0004 0
-0.630167 -2.82661 -9.99996e-05 0
-0.632046 -2.8222 -9.99996e-05 0
-0.63309 -2.81862 -9.99996e-05 0
-0.635767 -2.81754 -0.0044 0
-0.640412 -2.81469 -0.0027 0
-0.642693 -2.81124 -0.0027 0
-0.643837 -2.80758 -0.0027 0
-0.648462 -2.80342 -0.0027 0
-0.650941 -2.8012 -0.0031 0
-0.655164 -2.79341 -0.0031 0
-0.657762 -2.79123 0.0053 0
-0.660383 -2.78909 0.0053 0
-0.667261 -2.78468 0.0058 0
-0.669846 -2.78125 0.0058 0
-0.671077 -2.77508 0.0035 0
-0.677943 -2.77045 0.0041 0
-0.681357 -2.76745 0.0041 0
-0.683561 -2.76435 0.0041 0
-0.684708 -2.75948 0.003 0
-0.690242 -2.75447 0.0008 0
-0.693484 -2.7499 0.0008 0
-0.696329 -2.74707 0.0008 0
-0.703512 -2.74273 0.0028 0
-0.70589 -2.73731 0.0028 0
-0.7064 -2.73113 0.0028 0
-0.713291 -2.7252 0.0031 0
-0.713299 -2.72107 0.0031 0
-0.716453 -2.71753 -0.0014 0
-0.721449 -2.71224 -0.0014 0
-0.723237 -2.70889 -0.0005 0
-0.726332 -2.70541 -0.0005 0
-0.729556 -2.69896 -0.0016 0
-0.730972 -2.69589 -0.0016 0
-0.735522 -2.69085 -0.0024 0
-0.738935 -2.68827 -0.0043 0
-0.742554 -2.68709 -0.0043 0
-0.743481 -2.68292 -0.0043 0
-0.747137 -2.67717 0.0014 0
-0.750062 -2.67519 -0.0016 0
-0.750851 -2.66669 -0.0016 0
-0.753612 -2.66494 -0.0066 0
-0.754485 -2.66084 -0.0066 0
-0.75859 -2.65423 -0.0075 0
-0.761454 -2.65237 -0.0075 0
-0.762976 -2.64911 -0.0034 0
-0.767538 -2.64392 -0.0077 0
-0.767597 -2.63941 -0.0077 0
-0.77108 -2.63849 -0.0077 0
-0.773065 -2.62994 -0.0009 0
-0.776047 -2.62793 0.0001 0
-0.779141 -2.62584 0.0001 0
-0.782 -2.61758 -0.0057 0
-0.783804 -2.61528 -0.0057 0
-0.78671 -2.6084 -0.0021 0
-0.788817 -2.60569 -0.0021 0
-0.793046 -2.60504 -0.0005 0
-0.794003 -2.60024 -0.0005 0
-0.794728 -2.591 -9.99996e-05 0
-0.797484 -2.58895 -9.99996e-05 0
-0.798469 -2.584 -0.0031 0
-0.801723 -2.57781 -0.0044 0
-0.802978 -2.57436 -0.0044 0
-0.804267 -2.5708 -0.0044 0
-0.807315 -2.56793 -0.0035 0
-0.810551 -2.56151 -0.0043 0
-0.813774 -2.55839 -0.0043 0
-0.81667 -2.55231 -0.0049 0
-0.816974 -2.54828 -0.0049 0
-0.818108 -2.54485 -0.0037 0
-0.820786 -2.54267 -0.0037 0
-0.822558 -2.53446 -0.002 0
-0.82431 -2.53186 -0.002 0
-0.827632 -2.53044 -0.0033 0
-0.82796 -2.52644 -0.0033 0
-0.831687 -2.52063 -0.0025 0
-0.833469 -2.51797 -0.0025 0
-0.836717 -2.51665 -0.003 0
-0.836955 -2.5127 -0.003 0
-0.838662 -2.5101 -0.003 0
-0.842142 -2.50457 -0.002 0
-0.843772 -2.50211 -0.0021 0
-0.844712 -2.49885 -0.0021 0
-0.847123 -2.49695 -0.0021 0
-0.848186 -2.49321 -0.0012 0
-0.852174 -2.48877 -0.0013 0
-0.853791 -2.48625 -0.0013 0
-0.856423 -2.47993 -0.0022 0
-0.857208 -2.47676 -0.0022 0
-0.859583 -2.47479 -0.0013 0
-0.861205 -2.47214 -0.0013 0
-0.864562 -2.46632 -0.0015 0
-0.866152 -2.46363 -0.0015 0
-0.870122 -2.45897 -0.0017 0
-0.871034 -2.45526 -0.0017 0
-0.871746 -2.45213 -0.0026 0
-0.87488 -2.45079 -0.0026 0
-0.875504 -2.44782 -0.0021 0
-0.879416 -2.44296 -0.0021 0
-0.880842 -2.44059 0.0011 0
-0.882235 -2.43819 0.0011 0
-0.885968 -2.43387 0.000700001 0
-0.886698 -2.43048 0.000700001 0
-0.889813 -2.42909 0.000300001 0
-0.89174 -2.42368 0.0012 0
-0.893304 -2.42071 0.0012 0
-0.893924 -2.41755 0.0012 0
-0.896752 -2.41241 -0.0011 0
-0.898976 -2.41041 -0.0019 0
-0.900582 -2.40724 -0.0019 0
-0.901965 -2.40473 -0.0019 0
-0.903341 -2.40222 0.0006 0
-0.906895 -2.39778 -0.001 0
-0.908385 -2.39478 -0.001 0
-0.90976 -2.39217 -0.001 0
-0.91141 -2.38891 -0.0019 0
-0.914564 -2.38517 -0.003 0
-0.916055 -2.38205 -0.003 0
-0.918778 -2.3767 0.0017 0
-0.920962 -2.37456 0.0017 0
-0.922304 -2.37191 -0.0018 0
-0.923837 -2.36865 -0.0018 0
-0.926026 -2.36645 -0.0018 0
-0.928552 -2.36128 -0.0008 0
-0.929829 -2.3587 0.0021 0
-0.933332 -2.35382 0.0021 0
-0.934553 -2.35142 0.0027 0
-0.936127 -2.34604 -0.0027 0
-0.937311 -2.34382 -0.0027 0
-0.938476 -2.34158 -0.0027 0
-0.940476 -2.33994 -0.0021 0
-0.942477 -2.33821 -0.0021 0
-0.942859 -2.33511 -0.0028 0
-0.945233 -2.33044 -0.0028 0
-0.947243 -2.3287 0.0027 0
-0.948399 -2.32637 0.0027 0
-0.950906 -2.3211 -0.0008 0
-0.952937 -2.31924 -0.0008 0
-0.954116 -2.31679 -0.0024 0
-0.955269 -2.31438 -0.0024 0
-0.956509 -2.3116 -0.0021 0
-0.958886 -2.30671 -0.0021 0
-0.962687 -2.30553 0.001 0
-0.961126 -2.30205 0.001 0
-0.963211 -2.29977 -0.0033 0
-0.965472 -2.29496 -0.0033 0
-0.966602 -2.29257 -0.0013 0
-0.967705 -2.29006 -0.0013 0
-0.969672 -2.28827 -0.0019 0
-0.971917 -2.28355 -0.0019 0
-0.973038 -2.28107 -0.0008 0
-0.974953 -2.27938 -0.0008 0
-0.977107 -2.27496 -0.0017 0
-0.978171 -2.27274 -0.0017 0
-0.979402 -2.27018 -9.99998e-05 0
-0.981286 -2.26619 -0.0022 0
-0.982332 -2.26399 -0.0022 0
-0.985296 -2.26005 -0.0002 0
-0.986369 -2.25764 -0.0002 0
-0.987498 -2.25533 -0.0012 0
-0.988361 -2.25348 -0.0012 0
-0.989377 -2.25136 -0.0012 0
-0.991494 -2.24705 -0.0017 0
-0.993347 -2.24562 0.0014 0
-0.99426 -2.24376 0.0014 0
-0.996216 -2.23982 -0.0009 0
-0.997213 -2.23777 -0.0009 0
-0.998209 -2.23571 -0.0021 0
-0.999141 -2.23382 -0.0021 0
-1.00116 -2.22981 0.0018 0
-1.00214 -2.22793 0.0018 0
-1.00232 -2.2254 0.003 0
-1.00495 -2.22244 0.003 0
-1.00599 -2.22033 0.001 0
-1.00697 -2.21834 0.001 0
-1.00794 -2.21636 -0.001 0
-1.00983 -2.21248 -0.001 0
-1.0108 -2.21044 0.0015 0
-1.01264 -2.20902 0.0015 0
-1.0136 -2.20705 0.0034 0
-1.01549 -2.20318 0.0034 0
-1.01648 -2.20103 0.0027 0
-1.01746 -2.19896 0.0027 0
-1.01844 -2.19687 0.0022 0
-1.02035 -2.1927 0.0022 0
-1.02135 -2.19046 0.0005 0
-1.02232 -2.18839 0.0005 0
-1.02418 -2.18678 -0.0011 0
-1.0251 -2.18486 -0.0011 0
-1.02792 -2.18128 0.0027 0
-1.02797 -2.17892 0.0027 0
-1.02981 -2.17739 0.0026 0
-1.03077 -2.17532 0.0026 0
-1.03357 -2.17161 0.0022 0
-1.03453 -2.16962 0.0022 0
-1.03547 -2.16765 0.0041 0
-1.03642 -2.16569 0.0041 0
-1.03826 -2.16196 0.005 0
-1.03919 -2.16005 0.005 0
-1.041 -2.15638 0.0034 0
-1.04195 -2.1543 0.0034 0
-1.04288 -2.15239 0.0035 0
-1.04471 -2.15092 0.0035 0
-1.04566 -2.14892 0.0041 0
-1.04657 -2.14709 0.0041 0
-1.04841 -2.14323 0.0042 0
-1.04931 -2.14137 0.0042 0
-1.05022 -2.13956 0.0024 0
-1.05294 -2.13628 0.0024 0
-1.05392 -2.13431 0.0046 0
-1.05485 -2.1324 0.0046 0
-1.05666 -2.12865 0.0021 0
-1.05757 -2.12672 0.0021 0
-1.05847 -2.12489 0.0016 0
-1.06295 -2.12256 0.0024 0
-1.06379 -2.12087 0.0024 0
-1.0647 -2.11905 0.0024 0
-1.0656 -2.11725 0.002 0
-1.0674 -2.1136 0.0009 0
-1.06831 -2.11177 0.0009 0
-1.07011 -2.11038 0.0009 0
-1.07011 -2.1081 0.002 0
-1.0719 -2.1045 0.0048 0
-1.07368 -2.1032 0.0048 0
-1.07457 -2.10152 0.0048 0
-1.07733 -2.09835 0.0011 0
-1.07821 -2.09668 0.0034 0
-1.07907 -2.09501 0.0034 0
-1.08006 -2.09074 0.0032 0
-1.08096 -2.08897 0.0032 0
-1.08276 -2.08756 0.0022 0
-1.08451 -2.08406 0.0022 0
-1.08537 -2.0824 0.0023 0
-1.08625 -2.08066 0.0023 0
-1.08797 -2.07744 0.0018 0
-1.08974 -2.07625 0.0018 0
-1.08973 -2.07414 0.0034 0
-1.09238 -2.07116 0.0054 0
-1.09503 -2.07041 0.0054 0
-1.09414 -2.06777 0.0054 0
-1.0968 -2.06483 0.0035 0
-1.09872 -2.06337 0.0028 0
-1.09852 -2.06157 0.0028 0
-1.09937 -2.05775 0.0011 0
-1.10114 -2.05654 0.0011 0
-1.1011 -2.05453 0.0007 0
-1.10199 -2.05287 0.0007 0
-1.10464 -2.05001 0.0037 0
-1.10551 -2.04835 0.0037 0
-1.10724 -2.04511 0.0045 0
-1.10901 -2.0439 0.0045 0
-1.11087 -2.04244 0.0031 0
-1.11263 -2.03912 0.0058 0
-1.11352 -2.03745 0.0058 0
-1.11438 -2.03579 0.0058 0
-1.11616 -2.03247 0.0027 0
-1.11615 -2.03036 0.0041 0
-1.11697 -2.02887 0.0041 0
-1.11959 -2.02622 0.0036 0
-1.11956 -2.02429 0.0036 0
-1.1213 -2.02328 0.0035 0
-1.1221 -2.02187 0.0035 0
-1.12385 -2.01877 0.0043 0
-1.12471 -2.01732 0.0043 0
-1.12646 -2.0142 0.0053 0
-1.12646 -2.01219 0.0053 0
-1.12828 -2.01093 0.0046 0
-1.12916 -2.00937 0.0046 0
-1.13186 -2.00634 0.0036 0
-1.13275 -2.00468 0.0036 0
-1.13449 -2.00155 0.000999999 0
-1.13625 -2.00046 0.004 0
-1.13713 -1.9968 0.004 0
-1.13714 -1.99469 0.0049 0
-1.1389 -1.99356 0.0049 0
-1.14071 -1.99016 0.003 0
-1.14163 -1.98842 0.003 0
-1.1443 -1.98565 0.0025 0
-1.14607 -1.98445 0.000599999 0
-1.14514 -1.98197 0.000599999 0
-1.14691 -1.9808 0.000599999 0
-1.14957 -1.97814 0.0037 0
-1.15047 -1.97649 0.0037 0
-1.15137 -1.97485 0.0048 0
-1.15218 -1.97334 0.0048 0
-1.15392 -1.97033 0.000699999 0
-1.15481 -1.96877 0.0045 0
-1.15572 -1.96717 0.0045 0
-1.15745 -1.96418 0.0073 0
-1.15833 -1.9627 0.0073 0
-1.15934 -1.96098 0.005 0
-1.16088 -1.95837 0.005 0
-1.16176 -1.95683 0.0019 0
-1.16264 -1.95538 0.0019 0
-1.16354 -1.95383 0.0019 0
-1.16616 -1.95147 0.0043 0
-1.16704 -1.94993 0.0011 0
-1.16791 -1.94848 0.0011 0
-1.1697 -1.94536 0.0056 0
-1.17236 -1.94483 0.0056 0
-1.17242 -1.94273 0.0025 0
-1.17333 -1.94119 0.0025 0
-1.17524 -1.93994 0.0027 0
-1.17682 -1.93714 0.0027 0
-1.17771 -1.93561 0.002 0
-1.17857 -1.93419 0.002 0
-1.17944 -1.93278 0.006 0
-1.1812 -1.93003 0.006 0
-1.18219 -1.92842 0.0052 0
-1.18309 -1.92696 0.0052 0
-1.18573 -1.92653 0.0029 0
-1.1866 -1.92311 0.0029 0
-1.18836 -1.92215 0.003 0
-1.18922 -1.9208 0.003 0
-1.18921 -1.91897 0.0036 0
-1.19001 -1.91786 0.0036 0
-1.19272 -1.91537 0.0062 0
-1.19273 -1.91347 0.0062 0
-1.19364 -1.91195 0.0021 0
-1.19539 -1.91107 0.0021 0
-1.19808 -1.90859 0.0017 0
-1.19986 -1.90763 0.0017 0
-1.19814 -1.90474 0.0029 0
-1.19902 -1.90339 0.0029 0
-1.20252 -1.90156 0.0044 0
-1.20341 -1.90011 0.0044 0
-1.20345 -1.8983 0.0048 0
-1.20521 -1.89739 0.0048 0
-1.20707 -1.89442 0.0043 0
-1.20711 -1.8925 0.0043 0
-1.20802 -1.89106 0.0055 0
-1.21072 -1.88867 0.0055 0
-1.21163 -1.88723 0.0045 0
-1.2143 -1.88676 0.0045 0
-1.21777 -1.88509 0.0034 0
-1.21954 -1.88415 0.0034 0
-1.21785 -1.88125 0.0052 0
-1.22228 -1.88001 0.0042 0
-1.22052 -1.87723 0.0042 0
-1.22144 -1.87579 0.0042 0
-1.22497 -1.87591 0.0046 0
-1.22674 -1.8734 0.0042 0
-1.22589 -1.87107 0.0042 0
-1.22679 -1.86972 0.0042 0
-1.22858 -1.86712 0.0073 0
-1.23205 -1.86745 0.003 0
-1.23291 -1.8662 0.003 0
-1.23297 -1.86437 0.003 0
-1.23479 -1.86172 0.0061 0
-1.23575 -1.86041 0.002 0
-1.23909 -1.86087 0.002 0
-1.24428 -1.86216 0.002 0
-1.2462 -1.85931 0.0042 0
-1.24277 -1.85558 0.0051 0
-1.24704 -1.85638 0.0051 0
-1.24798 -1.85497 0.0051 0
-1.24895 -1.85194 0.0055 0
-1.24987 -1.85063 0.0047 0
-1.25165 -1.84982 0.0047 0
-1.256 -1.85063 0.0047 0
-1.25775 -1.84836 0.006 0
-1.25951 -1.84765 0.0055 0
-1.25872 -1.84529 0.0055 0
-1.25875 -1.84356 0.0055 0
-1.26052 -1.84132 0.006 0
-1.25971 -1.83908 0.0079 0
-1.26148 -1.83835 0.0079 0
-1.26329 -1.83593 0.0071 0
-1.26415 -1.8349 0.0071 0
-1.26506 -1.8337 0.0042 0
-1.266 -1.8324 0.0042 0
-1.26796 -1.82964 0.0068 0
-1.27053 -1.82965 0.0068 0
-1.27229 -1.82897 0.0068 0
-1.27237 -1.82714 0.0048 0
-1.275 -1.82554 0.0073 0
-1.27419 -1.82337 0.0073 0
-1.27509 -1.82226 0.0052 0
-1.27597 -1.82122 0.0052 0
-1.2802 -1.82104 0.0052 0
-1.28112 -1.81994 0.0052 0
-1.28121 -1.81822 0.0072 0
-1.28126 -1.81654 0.0072 0
-1.28306 -1.81438 0.0069 0
-1.28313 -1.81273 0.0069 0
-1.28658 -1.81321 0.0061 0
-1.28497 -1.80892 0.0061 0
-1.28662 -1.80872 0.0064 0
-1.28751 -1.80771 0.0064 0
-1.29096 -1.80823 0.0058 0
-1.29279 -1.80604 0.0058 0
-1.29365 -1.80513 0.0065 0
-1.29465 -1.80387 0.0065 0
-1.29655 -1.80146 0.0055 0
-1.29834 -1.80082 0.0055 0
-1.29924 -1.79982 0.0054 0
-1.29935 -1.79807 0.0054 0
-1.30211 -1.79618 0.0052 0
-1.30216 -1.79465 0.0052 0
-1.30395 -1.79403 0.0039 0
-1.30833 -1.79348 0.0083 0
-1.30758 -1.79131 0.0083 0
-1.30842 -1.79052 0.0083 0
-1.31034 -1.7882 0.0094 0
-1.31128 -1.78711 0.0055 0
-1.31138 -1.78548 0.0055 0
-1.31324 -1.78354 0.0069 0
-1.31498 -1.78306 0.0069 0
-1.31592 -1.78199 0.0041 0
-1.31606 -1.78031 0.0041 0
-1.31871 -1.77898 0.0075 0
-1.31963 -1.77795 0.0075 0
-1.3206 -1.77677 0.0053 0
-1.32249 -1.77474 0.0053 0
-1.32349 -1.77357 0.0065 0
-1.32611 -1.77354 0.0065 0
-1.32543 -1.77123 0.0065 0
-1.32814 -1.76978 0.0036 0
-1.32994 -1.7692 0.0057 0
-1.331 -1.76797 0.0057 0
-1.33297 -1.76577 0.0074 0
-1.33396 -1.76462 0.0074 0
-1.33655 -1.76472 0.0033 0
-1.33768 -1.76199 0.0083 0
-1.33861 -1.76113 0.0083 0
-1.33957 -1.76008 0.0083 0
-1.33971 -1.75846 0.0069 0
-1.34247 -1.75691 0.0104 0
-1.34443 -1.75491 0.0104 0
-1.3454 -1.75386 0.0109 0
-1.34635 -1.75285 0.0109 0
-1.34905 -1.75154 0.0064 0
-1.35004 -1.7505 0.0064 0
-1.35106 -1.74935 0.0073 0
-1.35111 -1.74787 0.0073 0
-1.35301 -1.74609 0.0069 0
-1.35641 -1.74685 0.0069 0
-1.35821 -1.74634 0.0102 0
-1.35763 -1.74285 0.011 0
-1.36111 -1.74351 0.011 0
-1.35972 -1.74068 0.011 0
-1.36171 -1.73861 0.0099 0
-1.36497 -1.73966 0.0065 0
-1.36275 -1.73623 0.0065 0
-1.36466 -1.73434 0.009 0
-1.36565 -1.73336 0.009 0
-1.36728 -1.73332 0.0068 0
-1.36828 -1.7323 0.0068 0
-1.37037 -1.73008 0.0122 0
-1.37294 -1.73026 0.0122 0
-1.37389 -1.72934 0.0122 0
-1.37494 -1.72823 0.0074 0
-1.37778 -1.72674 0.0057 0
-1.37877 -1.72573 0.0057 0
-1.37963 -1.72508 0.0084 0
-1.37996 -1.72334 0.0084 0
-1.3819 -1.72151 0.0121 0
-1.38275 -1.72088 0.0121 0
-1.38375 -1.71989 0.0137 0
-1.38473 -1.71899 0.0137 0
-1.38671 -1.71711 0.0071 0
-1.38601 -1.71525 0.0071 0
-1.38855 -1.71562 0.0077 0
-1.39211 -1.71512 0.0077 0
-1.3899 -1.71199 0.0081 0
-1.39231 -1.7125 0.0081 0
-1.39269 -1.70955 0.007 0
-1.39365 -1.70874 0.007 0
-1.39287 -1.7071 0.0083 0
-1.39477 -1.70559 0.0108 0
-1.39886 -1.70733 0.0108 0
-1.39752 -1.7046 0.0108 0
-1.39617 -1.70187 0.0069 0
-1.39803 -1.7005 0.009 0
-1.39899 -1.6997 0.009 0
-1.39999 -1.69881 0.009 0
-1.40335 -1.69998 0.0049 0
-1.40439 -1.69779 0.0124 0
-1.40542 -1.69682 0.0124 0
-1.4065 -1.69579 0.0124 0
-1.40934 -1.69462 0.0085 0
-1.40818 -1.69155 0.0084 0
-1.40929 -1.6905 0.0084 0
-1.4122 -1.68923 0.0078 0
-1.41788 -1.69203 0.0078 0
-1.41592 -1.6884 0.0051 0
-1.41811 -1.6864 0.0051 0
-1.41905 -1.68572 0.0099 0
-1.42087 -1.68538 0.0099 0
-1.42342 -1.68577 0.0115 0
-1.42331 -1.68189 0.0115 0
-1.42422 -1.68129 0.0092 0
-1.42525 -1.68045 0.0092 0
-1.42633 -1.67951 0.0099 0
-1.42738 -1.67865 0.0099 0
-1.42936 -1.67712 0.0057 0
-1.42966 -1.67556 0.0057 0
-1.43149 -1.67529 0.0079 0
-1.43255 -1.67444 0.0079 0
-1.43381 -1.67224 0.0078 0
-1.43559 -1.67209 0.0078 0
-1.4367 -1.67115 0.0122 0
-1.43703 -1.66962 0.0122 0
-1.43903 -1.66817 0.0056 0
-1.44082 -1.66801 0.0056 0
-1.44299 -1.66623 0.0064 0
-1.44246 -1.66428 0.0064 0
-1.44432 -1.66395 0.0084 0
-1.4458 -1.66137 0.007 0
-1.44689 -1.66046 0.007 0
-1.44858 -1.66049 0.007 0
-1.45156 -1.65929 0.0071 0
-1.45271 -1.6583 0.0071 0
-1.45387 -1.6573 0.011 0
-1.45411 -1.65596 0.011 0
-1.45704 -1.65483 0.0087 0
-1.45741 -1.65324 0.0092 0
-1.45847 -1.65237 0.0092 0
-1.45983 -1.65011 0.0044 0
-1.46033 -1.64834 0.0044 0
-1.46216 -1.64813 0.0093 0
-1.46422 -1.64657 0.0093 0
-1.46716 -1.64548 0.0052 0
-1.469 -1.64528 0.0061 0
-1.46784 -1.64254 0.0061 0
-1.47089 -1.6413 0.0058 0
-1.47274 -1.64105 0.0058 0
-1.47247 -1.63869 0.0049 0
-1.4768 -1.63909 0.0049 0
-1.47801 -1.63805 0.0096 0
-1.47923 -1.63704 0.0096 0
-1.48149 -1.63529 0.0046 0
-1.48201 -1.63355 0.0046 0
-1.48433 -1.63164 0.0111 0
-1.48827 -1.63361 0.006 0
-1.48728 -1.63069 0.006 0
-1.48841 -1.62982 0.006 0
-1.49063 -1.62807 0.0066 0
-1.49238 -1.62809 0.0033 0
-1.49501 -1.62854 0.0033 0
-1.49483 -1.62608 0.0033 0
-1.49646 -1.62355 0.0096 0
-1.4996 -1.625 0.0043 0
-1.49938 -1.62269 0.0043 0
-1.50052 -1.62183 0.0043 0
-1.50272 -1.62017 0.0042 0
-1.50512 -1.62101 0.0042 0
-1.50492 -1.61863 0.0071 0
-1.50744 -1.61923 0.0071 0
-1.50843 -1.61592 0.0052 0
-1.51092 -1.6166 0.0067 0
-1.51009 -1.61346 0.0067 0
-1.51131 -1.61252 0.0067 0
-1.51444 -1.61127 0.0033 0
-1.51691 -1.61197 0.0081 0
-1.51603 -1.60884 0.0081 0
-1.51722 -1.60787 0.0081 0
-1.52239 -1.60896 0.0067 0
-1.52276 -1.60756 0.0064 0
-1.52392 -1.60672 0.0064 0
-1.52377 -1.60434 0.0064 0
-1.52752 -1.60409 0.0057 0
-1.52877 -1.6031 0.0054 0
-1.53069 -1.60285 0.0054 0
-1.53125 -1.60113 0.0054 0
-1.5336 -1.59941 0.0038 0
-1.53344 -1.59704 0.0039 0
-1.53458 -1.59618 0.0039 0
-1.53706 -1.59685 0.0039 0
-1.53931 -1.59541 0.006 0
-1.54058 -1.59443 0.0089 0
-1.53976 -1.59131 0.0089 0
-1.54232 -1.5894 0.0055 0
-1.5434 -1.58874 0.0055 0
-1.54529 -1.58858 0.0062 0
-1.54785 -1.58917 0.0062 0
-1.54908 -1.58827 0.0062 0
-1.54961 -1.58416 0.0072 0
-1.55088 -1.58318 0.0053 0
-1.55208 -1.58226 0.0053 0
-1.55455 -1.58048 0.0073 0
-1.55563 -1.57984 0.0073 0
-1.55812 -1.57799 0.0056 0
-1.55945 -1.57697 0.0056 0
-1.56272 -1.57824 0.0089 0
-1.56477 -1.57786 0.0089 0
-1.56749 -1.57567 0.008 0
-1.56883 -1.57463 0.008 0
-1.56821 -1.57135 0.0064 0
-1.56959 -1.57023 0.0064 0
-1.57413 -1.57048 0.0046 0
-1.57475 -1.56878 0.0046 0
-1.57462 -1.56647 0.0055 0
-1.57723 -1.56704 0.0055 0
-1.58036 -1.566 0.006 0
-1.58169 -1.56496 0.006 0
-1.58226 -1.56333 0.0074 0
-1.58566 -1.56193 0.0066 0
-1.58826 -1.56244 0.0066 0
-1.5896 -1.5614 0.0066 0
-1.59081 -1.55808 0.0058 0
-1.5921 -1.55715 0.0083 0
-1.59344 -1.55611 0.0083 0
-1.59594 -1.55685 0.0083 0
-1.59805 -1.55398 0.0107 0
-1.59873 -1.55219 0.0107 0
-1.602 -1.551 0.0046 0
-1.6034 -1.54993 0.005 0
-1.60474 -1.54892 0.005 0
-1.60597 -1.54807 0.0051 0
-1.60652 -1.54649 0.0051 0
-1.60893 -1.54494 0.0067 0
-1.61018 -1.54409 0.0067 0
-1.61145 -1.54323 0.0119 0
-1.61371 -1.54176 0.0119 0
-1.61501 -1.54084 0.0045 0
-1.61625 -1.54 0.0045 0
-1.61876 -1.53828 0.0078 0
-1.61995 -1.53752 0.0078 0
-1.6213 -1.53651 0.0086 0
-1.62261 -1.53558 0.0086 0
-1.62529 -1.53365 0.0092 0
-1.6266 -1.53274 0.0092 0
-1.62802 -1.53166 0.0086 0
-1.62944 -1.53057 0.0086 0
-1.63211 -1.52861 0.0081 0
-1.63347 -1.52761 0.0081 0
-1.63483 -1.52663 0.0071 0
-1.63746 -1.52473 0.0085 0
-1.63877 -1.52378 0.0085 0
-1.64007 -1.52287 0.0085 0
-1.64151 -1.52184 0.0055 0
-1.64345 -1.52172 0.0055 0
-1.64544 -1.51911 0.0065 0
-1.64748 -1.51883 0.0065 0
-1.64883 -1.51785 0.0062 0
-1.65285 -1.51736 0.0064 0
-1.65279 -1.51503 0.0064 0
-1.65414 -1.51406 0.0064 0
-1.65544 -1.51317 0.0055 0
-1.65718 -1.51096 0.0075 0
-1.66022 -1.5126 0.0075 0
-1.65967 -1.50936 0.0075 0
-1.66226 -1.50766 0.0053 0
-1.66415 -1.50763 0.0116 0
-1.6654 -1.50678 0.0116 0
-1.66672 -1.50588 0.0116 0
-1.66868 -1.50339 0.005 0
-1.66994 -1.50269 0.0095 0
-1.67095 -1.50207 0.0095 0
-1.67345 -1.50284 0.0095 0
-1.67358 -1.50039 0.0085 0
-1.67605 -1.49885 0.0079 0
-1.67703 -1.49818 0.0079 0
-1.67944 -1.49633 0.008 0
-1.68109 -1.4963 0.008 0
-1.6821 -1.49552 0.006 0
-1.68293 -1.49483 0.006 0
-1.68491 -1.49457 0.0063 0
-1.68541 -1.49422 0.0063 0
-1.68581 -1.49404 0.0054 0
-1.68708 -1.49455 0.0054 0
-1.68757 -1.49421 0.0034 0
-1.68809 -1.49381 0.0034 0
-1.68894 -1.49314 0.0069 0
-1.68942 -1.49272 0.0069 0
-1.6899 -1.49229 0.003 0
-1.69036 -1.4919 0.003 0
-1.69077 -1.49156 0.0045 0
-1.69144 -1.49102 0.0045 0
-1.6923 -1.49157 0.0026 0
-1.69251 -1.49136 0.0026 0
-1.69266 -1.49113 0.002 0
-1.69276 -1.49093 0.002 0
-1.6929 -1.49064 0.0066 0
-1.6939 -1.4906 0.0034 0
-1.69406 -1.49015 0.0034 0
-1.69501 -1.49025 0.0034 0
-1.69627 -1.48807 0.0133 0
-1.69876 -1.48941 0.0076 0
-1.69942 -1.48841 0.0076 0
-1.701 -1.48604 0.0064 0
-1.70152 -1.48531 0.0064 0
-1.70197 -1.4847 0.0088 0
-1.70273 -1.48374 0.0088 0
-1.70377 -1.48399 0.0076 0
-1.70543 -1.48508 0.0076 0
-1.70622 -1.48415 0.0067 0
-1.70666 -1.4836 0.0067 0
-1.70721 -1.48289 0.0085 0
-1.70766 -1.48234 0.0085 0
-1.70921 -1.48195 0.0072 0
-1.71027 -1.48219 0.0072 0
-1.71094 -1.48125 0.0061 0
-1.71148 -1.48047 0.0061 0
-1.71397 -1.48022 0.0054 0
-1.71464 -1.47921 0.0054 0
-1.71644 -1.47823 0.007 0
-1.71726 -1.47698 0.007 0
-1.71975 -1.4749 0.008 0
-1.72137 -1.47415 0.008 0
-1.72347 -1.47266 0.0037 0
-1.72443 -1.47116 0.0037 0
-1.72693 -1.46899 0.0037 0
-1.72781 -1.46758 0.0037 0
-1.72978 -1.4662 0.0029 0
-1.73131 -1.46369 0.005 0
-1.73264 -1.46334 0.005 0
-1.7335 -1.46191 0.005 0
-1.73411 -1.46091 0.0076 0
-1.73525 -1.45906 0.0044 0
-1.73607 -1.4577 0.0044 0
-1.73659 -1.45685 0.0044 0
-1.73761 -1.45516 0.0066 0
-1.73916 -1.45442 0.0095 0
-1.74082 -1.45544 0.0095 0
-1.74173 -1.4539 0.0095 0
-1.74234 -1.45287 0.0079 0
-1.74523 -1.45177 0.0071 0
-1.74624 -1.45195 0.0071 0
-1.74855 -1.45179 0.0071 0
-1.74986 -1.45144 0.0091 0
-1.75105 -1.44933 0.0048 0
-1.75236 -1.44896 0.0048 0
-1.75324 -1.44737 0.0048 0
-1.75589 -1.44657 0.0068 0
-1.75825 -1.44625 0.0036 0
-1.75953 -1.44384 0.0036 0
-1.76097 -1.4432 0.0058 0
-1.76382 -1.44197 0.0027 0
-1.76478 -1.44016 0.0027 0
-1.76614 -1.43966 0.0027 0
-1.76954 -1.43941 0.006 0
-1.76937 -1.43766 0.004 0
-1.77249 -1.43793 0.004 0
-1.77446 -1.43623 0.0066 0
-1.77578 -1.4358 0.0066 0
-1.77724 -1.43295 0.0049 0
-1.78231 -1.43579 0.0049 0
-1.78288 -1.43468 0.0061 0
-1.78346 -1.43355 0.0061 0
-1.78506 -1.43251 0.0056 0
-1.78694 -1.43091 0.0056 0
-1.78825 -1.43044 0.006 0
-1.78875 -1.42941 0.006 0
-1.79001 -1.42901 0.0045 0
-1.79212 -1.4268 0.0045 0
-1.79343 -1.42629 0.0082 0
-1.79402 -1.42505 0.0082 0
-1.79712 -1.42296 0.005 0
-1.79847 -1.42234 0.005 0
-1.7991 -1.42099 0.0038 0
-1.8006 -1.41771 0.0052 0
-1.80195 -1.41708 0.0052 0
-1.80391 -1.41508 0.0067 0
-1.80525 -1.41444 0.0067 0
-1.80611 -1.4125 0.0051 0
-1.80801 -1.41058 0.0051 0
-1.80935 -1.40993 0.0073 0
-1.81065 -1.4069 0.0065 0
-1.81354 -1.40753 0.0065 0
-1.81616 -1.40638 0.0073 0
-1.82067 -1.40819 0.0073 0
-1.82382 -1.4082 0.0068 0
-1.82563 -1.40639 0.0068 0
-1.82698 -1.40568 0.0062 0
-1.83102 -1.406 0.0062 0
-1.83209 -1.40335 0.0052 0
-1.83184 -1.40133 0.0052 0
-1.82583 -1.39276 0.0061 0
-1.82797 -1.39261 0.0038 0
-1.82848 -1.39129 0.0038 0
-1.82954 -1.38856 0.0046 0
-1.83116 -1.38699 0.0046 0
-1.82885 -1.38209 0.0054 0
-1.82685 -1.37908 0.0054 0
-1.82733 -1.37776 0.0056 0
-1.82885 -1.37639 0.0056 0
-1.82679 -1.37351 0.0082 0
-1.82765 -1.37109 0.0082 0
-1.82804 -1.36998 0.0087 0
-1.82531 -1.36596 0.0087 0
-1.82489 -1.36419 0.0087 0
-1.82743 -1.36277 0.006 0
-1.82531 -1.35992 0.0057 0
-1.82679 -1.35854 0.0057 0
-1.82721 -1.35723 0.0068 0
-1.82637 -1.35351 0.0068 0
-1.82704 -1.35139 0.007 0
-1.82918 -1.35102 0.007 0
-1.8296 -1.34971 0.0044 0
-1.82408 -1.34462 0.0044 0
-1.82595 -1.34179 0.0074 0
-1.82635 -1.34048 0.0074 0
-1.82677 -1.33904 0.0056 0
-1.82802 -1.33824 0.0056 0
-1.82988 -1.33528 0.0071 0
-1.83113 -1.33447 0.0071 0
-1.82892 -1.33164 0.0044 0
-1.82617 -1.327 0.0044 0
-1.82584 -1.32448 0.0054 0
-1.8288 -1.32465 0.0054 0
-1.82827 -1.32284 0.0052 0
-1.82723 -1.31911 0.0052 0
-1.82862 -1.31758 0.0039 0
-1.82461 -1.31374 0.0039 0
-1.82496 -1.31232 0.0032 0
-1.82583 -1.30881 0.0032 0
-1.82617 -1.30739 0.005 0
-1.82478 -1.30493 0.005 0
-1.82511 -1.30353 0.0036 0
-1.82331 -1.29842 0.0036 0
-1.82451 -1.29748 0.0038 0
-1.82483 -1.29608 0.0038 0
-1.82602 -1.29513 0.0039 0
-1.82544 -1.29327 0.0039 0
-1.82618 -1.28973 0.0057 0
-1.82738 -1.28878 0.0057 0
-1.82407 -1.28568 0.0056 0
-1.82523 -1.28482 0.0056 0
-1.82408 -1.2807 0.0052 0
-1.82431 -1.27949 0.0052 0
-1.82455 -1.27817 0.0057 0
-1.82299 -1.276 0.0057 0
-1.82361 -1.27257 0.0076 0
-1.82477 -1.2716 0.0076 0
-1.82594 -1.27052 0.0059 0
-1.82619 -1.2691 0.0059 0
-1.82679 -1.26556 0.0051 0
-1.82338 -1.26249 0.0051 0
-1.82451 -1.26159 0.0055 0
-1.82323 -1.25734 0.0055 0
-1.82162 -1.25513 0.0049 0
-1.82275 -1.25413 0.0049 0
-1.82323 -1.25081 0.007 0
-1.82433 -1.2499 0.007 0
-1.82269 -1.24771 0.0073 0
-1.81919 -1.24475 0.0073 0
-1.82053 -1.24187 0.0047 0
-1.82069 -1.24059 0.0047 0
-1.82099 -1.23808 0.0043 0
-1.82206 -1.23726 0.0047 0
-1.82135 -1.23498 0.0047 0
-1.81963 -1.23294 0.0047 0
-1.8207 -1.23202 0.0041 0
-1.82007 -1.22887 0.0058 0
-1.8212 -1.22723 0.0058 0
-1.82135 -1.22583 0.0058 0
-1.82348 -1.22392 0.0036 0
-1.82365 -1.22211 0.0036 0
-1.81909 -1.21906 0.0056 0
-1.82402 -1.21818 0.0058 0
-1.82132 -1.21584 0.0058 0
-1.82148 -1.21383 0.0042 0
-1.81981 -1.21053 0.0042 0
-1.82085 -1.20956 0.0048 0
-1.82189 -1.2086 0.0048 0
-1.82211 -1.20529 0.0055 0
-1.8203 -1.20334 0.0055 0
-1.82037 -1.20214 0.0064 0
-1.82043 -1.20084 0.0064 0
-1.82154 -1.19786 0.0048 0
-1.8216 -1.19647 0.0048 0
-1.82267 -1.19397 0.0036 0
-1.82085 -1.19125 0.0056 0
-1.82091 -1.18984 0.0056 0
-1.81912 -1.18573 0.0044 0
-1.8182 -1.18484 0.0044 0
-1.81826 -1.18274 0.0055 0
-1.82022 -1.18201 0.0055 0
-1.8203 -1.1786 0.0041 0
-1.8184 -1.17675 0.0041 0
-1.81842 -1.17545 0.0068 0
-1.81652 -1.1736 0.0068 0
-1.81848 -1.17156 0.0048 0
-1.81848 -1.16957 0.0048 0
-1.81945 -1.16854 0.005 0
-1.82042 -1.16619 0.005 0
-1.82041 -1.16488 0.006 0
-1.81845 -1.16237 0.006 0
-1.81842 -1.15988 0.0075 0
-1.8184 -1.15869 0.0075 0
-1.81838 -1.15749 0.0038 0
-1.82027 -1.15618 0.0038 0
-1.81728 -1.15309 0.0073 0
-1.82015 -1.15251 0.0073 0
-1.82107 -1.15145 0.0027 0
-1.821 -1.14935 0.0027 0
-1.81705 -1.14703 0.0061 0
-1.81792 -1.14458 0.0061 0
-1.81786 -1.1433 0.0038 0
-1.8177 -1.14 0.0073 0
-1.81959 -1.13915 0.0073 0
-1.81854 -1.13764 0.0073 0
-1.81737 -1.13434 0.0021 0
-1.8173 -1.13304 0.0051 0
-1.8182 -1.13194 0.0051 0
-1.81617 -1.13034 0.0051 0
-1.81692 -1.12725 0.0056 0
-1.81682 -1.12597 0.0056 0
-1.81858 -1.12375 0.0056 0
-1.81843 -1.12186 0.0067 0
-1.81931 -1.12085 0.0067 0
-1.81918 -1.11956 0.0093 0
-1.81895 -1.11697 0.0093 0
-1.81679 -1.11463 0.0052 0
-1.81765 -1.11342 0.0052 0
-1.81555 -1.11179 0.0081 0
-1.81625 -1.10918 0.0081 0
-1.81702 -1.10735 0.0068 0
-1.81787 -1.10621 0.0068 0
-1.81759 -1.1036 0.0072 0
-1.81637 -1.10145 0.0072 0
-1.81523 -1.10001 0.0062 0
-1.81605 -1.09876 0.0062 0
-1.81574 -1.09618 0.0088 0
-1.81547 -1.09421 0.0088 0
-1.81628 -1.09306 0.0058 0
-1.8159 -1.09049 0.0094 0
-1.8157 -1.08921 0.0094 0
-1.81541 -1.08725 0.0094 0
-1.81598 -1.08471 0.006 0
-1.81577 -1.08332 0.0058 0
-1.81755 -1.08217 0.0058 0
-1.81705 -1.0789 0.0057 0
-1.81384 -1.07718 0.0057 0
-1.81363 -1.07591 0.0045 0
-1.81311 -1.07274 0.0045 0
-1.81489 -1.07164 0.0063 0
-1.81467 -1.07035 0.0063 0
-1.81519 -1.06778 0.0058 0
-1.8158 -1.06579 0.0058 0
-1.81654 -1.06447 0.0083 0
-1.81608 -1.06189 0.0072 0
-1.81672 -1.06009 0.0072 0
-1.81548 -1.05871 0.0072 0
-1.81522 -1.05741 0.0046 0
-1.81469 -1.05475 0.0046 0
-1.8153 -1.05293 0.0071 0
-1.81304 -1.05152 0.0071 0
-1.81377 -1.0503 0.0068 0
-1.81418 -1.04759 0.0051 0
-1.81474 -1.04556 0.0051 0
-1.81418 -1.043 0.009 0
-1.81487 -1.04166 0.009 0
-1.81459 -1.04036 0.0089 0
-1.81513 -1.03841 0.0089 0
-1.81353 -1.03578 0.0074 0
-1.81323 -1.0345 0.0074 0
-1.81392 -1.03326 0.0048 0
-1.81312 -1.03 0.0048 0
-1.81481 -1.02876 0.0089 0
-1.81451 -1.02757 0.0089 0
-1.8147 -1.02442 0.0062 0
-1.8154 -1.02325 0.0062 0
-1.8161 -1.02208 0.0079 0
-1.81677 -1.0208 0.0079 0
-1.81499 -1.01783 0.0085 0
-1.81167 -1.01664 0.0085 0
-1.81135 -1.01546 0.0089 0
-1.812 -1.01416 0.0089 0
-1.81148 -1.01228 0.0069 0
-1.81277 -1.0097 0.0069 0
-1.81241 -1.00842 0.0086 0
-1.81204 -1.00713 0.0086 0
-1.81247 -1.00513 0.006 0
-1.81309 -1.00382 0.006 0
-1.81234 -1.00125 0.008 0
-1.81298 -1.00002 0.008 0
-1.81341 -0.998125 0.0081 0
-1.81163 -0.995585 0.0081 0
-1.81124 -0.994305 0.0076 0
-1.81181 -0.992892 0.0076 0
-1.81176 -0.989619 0.0047 0
-1.81234 -0.988294 0.0047 0
-1.81176 -0.986533 0.009 0
-1.81098 -0.984203 0.0093 0
-1.80859 -0.98316 0.0093 0
-1.80917 -0.981828 0.0093 0
-1.80858 -0.980072 0.0097 0
-1.80876 -0.977546 0.0091 0
-1.80836 -0.976374 0.0091 0
-1.80895 -0.975131 0.0091 0
-1.80686 -0.972062 0.0073 0
-1.80642 -0.970787 0.0043 0
-1.80796 -0.96934 0.0043 0
-1.80705 -0.966781 0.0078 0
-1.80442 -0.965198 0.0078 0
-1.80594 -0.963732 0.0088 0
-1.80551 -0.962552 0.0088 0
-1.80461 -0.960109 0.0066 0
-1.80295 -0.958465 0.0066 0
-1.80306 -0.956043 0.0061 0
-1.80658 -0.954444 0.0061 0
-1.8029 -0.953015 0.008 0
-1.80339 -0.951641 0.008 0
-1.80243 -0.949235 0.0069 0
-1.80293 -0.947853 0.0069 0
-1.80173 -0.944845 0.0084 0
-1.80027 -0.943815 0.0091 0
-1.80075 -0.942424 0.0091 0
-1.80047 -0.939205 0.0112 0
-1.80094 -0.937807 0.0112 0
-1.7989 -0.935445 0.0083 0
-1.79941 -0.934147 0.0083 0
-1.79858 -0.932221 0.0096 0
-1.79854 -0.929661 0.0058 0
-1.79803 -0.928507 0.0058 0
-1.79851 -0.927201 0.0058 0
-1.79822 -0.924152 0.0053 0
-1.79671 -0.92316 0.0096 0
-1.79615 -0.92192 0.0096 0
-1.79579 -0.918786 0.0116 0
-1.79526 -0.917637 0.0116 0
-1.79567 -0.916211 0.0086 0
-1.79509 -0.914958 0.0086 0
-1.79461 -0.911614 0.0099 0
-1.79594 -0.909904 0.0099 0
-1.79535 -0.908659 0.0075 0
-1.79472 -0.90732 0.0075 0
-1.79418 -0.903965 0.0081 0
-1.79357 -0.902731 0.0081 0
-1.79492 -0.901088 0.0072 0
-1.79435 -0.89995 0.0072 0
-1.79288 -0.897008 0.0039 0
-1.79231 -0.89587 0.0039 0
-1.79271 -0.894521 0.0067 0
-1.79316 -0.891155 0.0067 0
-1.79057 -0.890362 0.006 0
-1.78998 -0.889225 0.006 0
-1.79031 -0.887764 0.0096 0
-1.78877 -0.88484 0.0096 0
-1.78818 -0.883718 0.0084 0
-1.78851 -0.882262 0.0084 0
-1.78593 -0.879498 0.0071 0
-1.78727 -0.877873 0.0071 0
-1.78565 -0.876887 0.0063 0
-1.78407 -0.876012 0.0063 0
-1.78335 -0.872683 0.0089 0
-1.78268 -0.87147 0.0089 0
-1.78201 -0.870252 0.0084 0
-1.7823 -0.868771 0.0084 0
-1.78264 -0.867394 0.0089 0
-1.78447 -0.86473 0.0089 0
-1.78313 -0.862367 0.0094 0
-1.78242 -0.861154 0.0094 0
-1.78165 -0.859854 0.0084 0
-1.78051 -0.857917 0.0084 0
-1.77898 -0.855326 0.0062 0
-1.77827 -0.854133 0.0062 0
-1.77851 -0.852649 0.0071 0
-1.77937 -0.850317 0.0071 0
-1.77803 -0.8481 0.009 0
-1.77826 -0.8466 0.009 0
-1.77664 -0.845778 0.0071 0
-1.77489 -0.842912 0.0071 0
-1.77415 -0.841711 0.0088 0
-1.77436 -0.840213 0.0088 0
-1.77422 -0.838155 0.009 0
-1.77372 -0.835543 0.009 0
-1.77391 -0.834026 0.0069 0
-1.77416 -0.832605 0.0069 0
-1.77328 -0.829426 0.0088 0
-1.7725 -0.828234 0.0088 0
-1.77171 -0.827044 0.0081 0
-1.77342 -0.822618 0.0085 0
-1.77163 -0.821667 0.0085 0
-1.77179 -0.820144 0.0085 0
-1.77021 -0.81778 0.0097 0
-1.77087 -0.815271 0.0101 0
-1.77007 -0.814079 0.0101 0
-1.7684 -0.813328 0.0101 0
-1.76678 -0.810962 0.0109 0
-1.76646 -0.808796 0.0085 0
-1.76844 -0.806551 0.0085 0
-1.7649 -0.804849 0.0081 0
-1.76451 -0.802567 0.0081 0
-1.76454 -0.800849 0.0081 0
-1.76455 -0.799037 0.0081 0
-1.76343 -0.795442 0.011 0
-1.76153 -0.792646 0.011 0
-1.76184 -0.789549 0.0123 0
-1.75838 -0.78438 0.0123 0
-1.75841 -0.780841 0.0069 0
-1.75657 -0.776483 0.0069 0
-1.75566 -0.773341 0.0142 0
-1.75392 -0.76723 0.0142 0
-1.75394 -0.763673 0.0147 0
-1.74932 -0.757063 0.0137 0
-1.74727 -0.754152 0.0137 0
-1.7461 -0.75073 0.0137 0
-1.74571 -0.746645 0.0117 0
-1.74229 -0.738401 0.0146 0
-1.74109 -0.734948 0.0146 0
-1.73998 -0.731495 0.0146 0
-1.73645 -0.724364 0.0078 0
-1.73468 -0.721449 0.0095 0
-1.73398 -0.71853 0.0095 0
-1.73402 -0.714777 0.0095 0
-1.73009 -0.708413 0.0114 0
-1.72923 -0.705065 0.0065 0
-1.72766 -0.702441 0.0065 0
-1.7253 -0.697813 0.0134 0
-1.72443 -0.695863 0.0134 0
-1.72369 -0.694152 0.0112 0
-1.72294 -0.692444 0.0112 0
-1.72058 -0.689598 0.0094 0
-1.71966 -0.687832 0.0094 0
-1.71858 -0.685913 0.0071 0
-1.71748 -0.683951 0.0071 0
-1.71476 -0.679581 0.0104 0
-1.71344 -0.677487 0.0104 0
-1.71206 -0.675331 0.0081 0
-1.70956 -0.671319 0.0081 0
-1.70821 -0.669177 0.0076 0
-1.70613 -0.667662 0.0076 0
-1.70483 -0.663467 0.0096 0
-1.702 -0.662541 0.0096 0
-1.70108 -0.660768 0.0105 0
-1.70031 -0.659199 0.0105 0
-1.69974 -0.655676 0.0103 0
-1.69916 -0.6543 0.0103 0
-1.69659 -0.653549 0.0122 0
-1.69584 -0.65199 0.0122 0
-1.69334 -0.649242 0.0097 0
-1.69158 -0.648004 0.0097 0
-1.69154 -0.645736 0.0105 0
-1.69061 -0.64396 0.0105 0
-1.68875 -0.640473 0.01 0
-1.68607 -0.639647 0.01 0
-1.68426 -0.638341 0.0102 0
-1.68239 -0.634785 0.0073 0
-1.68064 -0.633621 0.0073 0
-1.67874 -0.632243 0.0073 0
-1.67672 -0.628573 0.0079 0
-1.67653 -0.626093 0.0122 0
-1.67568 -0.624539 0.0122 0
-1.67087 -0.622075 0.0094 0
-1.66986 -0.620239 0.0094 0
-1.66866 -0.618063 0.01 0
-1.66603 -0.617487 0.01 0
-1.66503 -0.615683 0.01 0
-1.66465 -0.610904 0.0095 0
-1.66328 -0.608593 0.0058 0
-1.66234 -0.607016 0.0058 0
-1.65918 -0.603567 0.0105 0
-1.65798 -0.60152 0.0105 0
-1.65565 -0.59961 0.0086 0
-1.65364 -0.598246 0.0086 0
-1.65148 -0.596607 0.0086 0
-1.64963 -0.591648 0.0105 0
-1.64798 -0.58901 0.0121 0
-1.64609 -0.587831 0.0121 0
-1.64435 -0.583024 0.0115 0
-1.64304 -0.580896 0.0115 0
-1.6414 -0.578345 0.0113 0
-1.64023 -0.576508 0.0113 0
-1.63754 -0.572217 0.0102 0
-1.63535 -0.570584 0.0102 0
-1.63184 -0.568839 0.0095 0
-1.63072 -0.567094 0.0095 0
-1.62979 -0.561875 0.0123 0
-1.6275 -0.560159 0.0123 0
-1.62506 -0.558286 0.0074 0
-1.62229 -0.553971 0.0074 0
-1.62085 -0.551774 0.0099 0
-1.61944 -0.54961 0.0099 0
-1.61619 -0.544825 0.0113 0
-1.61728 -0.541065 0.0113 0
-1.6123 -0.540801 0.0091 0
-1.61089 -0.538656 0.0091 0
-1.60891 -0.533888 0.0121 0
-1.60754 -0.531798 0.0121 0
-1.60517 -0.530045 0.0126 0
-1.60099 -0.525774 0.0119 0
-1.59867 -0.524102 0.0119 0
-1.59815 -0.5215 0.0119 0
-1.59671 -0.519341 0.0114 0
-1.59457 -0.514416 0.011 0
-1.59399 -0.511803 0.011 0
-1.58994 -0.511174 0.011 0
-1.58658 -0.506457 0.0098 0
-1.5851 -0.504303 0.0094 0
-1.58444 -0.501628 0.0094 0
-1.58203 -0.499922 0.0094 0
-1.57868 -0.495231 0.0116 0
-1.57636 -0.49363 0.0151 0
-1.57481 -0.491461 0.0151 0
-1.57248 -0.486448 0.0094 0
-1.57059 -0.483928 0.0094 0
-1.56815 -0.482246 0.0101 0
-1.56524 -0.478141 0.0101 0
-1.56454 -0.475421 0.0136 0
-1.56034 -0.474754 0.0136 0
-1.55835 -0.470212 0.0132 0
-1.55608 -0.468716 0.0132 0
-1.55461 -0.466613 0.0114 0
-1.55151 -0.462329 0.0102 0
-1.55083 -0.459686 0.0102 0
-1.54847 -0.458113 0.0102 0
-1.54603 -0.456482 0.00960001 0
-1.5434 -0.451359 0.0114 0
-1.54252 -0.448491 0.0114 0
-1.54004 -0.446843 0.0114 0
-1.53809 -0.444354 0.0136 0
-1.53476 -0.439929 0.0135 0
-1.5347 -0.436554 0.0135 0
-1.5314 -0.43549 0.0135 0
-1.52773 -0.430837 0.0126 0
-1.526 -0.428608 0.0119 0
-1.52346 -0.426935 0.0119 0
-1.52248 -0.424082 0.0119 0
-1.51856 -0.419258 0.0121 0
-1.51589 -0.417521 0.0118 0
-1.51499 -0.414753 0.0118 0
-1.51132 -0.410172 0.0149 0
-1.50801 -0.409174 0.0149 0
-1.50641 -0.407107 0.0153 0
-1.50236 -0.403532 0.0153 0
-1.50116 -0.400432 0.0096 0
-1.49897 -0.399306 0.0096 0
-1.49644 -0.394473 0.00910001 0
-1.49374 -0.392762 0.00910001 0
-1.49384 -0.389625 0.0148 0
-1.49069 -0.388842 0.0148 0
-1.4873 -0.384621 0.0118 0
-1.48406 -0.383818 0.0118 0
-1.48072 -0.379675 0.0137 0
-1.47901 -0.37757 0.0117 0
-1.4773 -0.375468 0.0117 0
-1.4726 -0.3715 0.0109 0
-1.47161 -0.368766 0.0109 0
-1.46593 -0.365276 0.014 0
-1.46488 -0.362532 0.014 0
-1.46299 -0.360324 0.0163 0
-1.45918 -0.355907 0.0163 0
-1.45486 -0.355495 0.0139 0
-1.4507 -0.35084 0.0092 0
-1.45211 -0.346363 0.0092 0
-1.44716 -0.346717 0.0093 0
-1.44258 -0.343023 0.0093 0
-1.4401 -0.34165 0.0124 0
-1.43761 -0.340279 0.0124 0
-1.4367 -0.337693 0.0133 0
-1.43313 -0.333598 0.0133 0
-1.43223 -0.331019 0.0134 0
-1.42968 -0.329589 0.0134 0
-1.42591 -0.325295 0.0154 0
-1.42411 -0.323251 0.0154 0
-1.42064 -0.319276 0.014 0
-1.41735 -0.318542 0.0087 0
-1.41371 -0.317559 0.0087 0
-1.41199 -0.31561 0.0087 0
-1.40909 -0.310918 0.0144 0
-1.40643 -0.309468 0.015 0
-1.40249 -0.30524 0.015 0
-1.40137 -0.302556 0.0154 0
-1.40043 -0.300062 0.0154 0
-1.39696 -0.29495 0.0117 0
-1.39107 -0.29597 0.0117 0
-1.38839 -0.294549 0.0096 0
-1.3851 -0.289701 0.0118 0
-1.38249 -0.288376 0.0118 0
-1.38132 -0.285715 0.0118 0
-1.37868 -0.284382 0.0117 0
-1.37397 -0.280911 0.0115 0
-1.37223 -0.279018 0.0115 0
-1.3697 -0.277763 0.0115 0
-1.36529 -0.274556 0.0112 0
-1.36316 -0.272412 0.01 0
-1.36121 -0.270356 0.01 0
-1.35747 -0.266468 0.0107 0
-1.3555 -0.264469 0.0107 0
-1.35064 -0.260971 0.0105 0
-1.34799 -0.259692 0.0105 0
-1.3461 -0.257766 0.0097 0
-1.34496 -0.255178 0.0097 0
-1.33782 -0.253709 0.0125 0
-1.33586 -0.251738 0.0125 0
-1.33315 -0.250452 0.0121 0
-1.33193 -0.24783 0.0121 0
-1.32765 -0.243666 0.0107 0
-1.32631 -0.240988 0.0107 0
-1.32324 -0.239495 0.0137 0
-1.32119 -0.237527 0.0137 0
-1.31845 -0.23213 0.0109 0
-1.31411 -0.232118 0.0109 0
-1.31165 -0.229873 0.0134 0
-1.30735 -0.2299 0.0134 0
-1.3033 -0.226044 0.0129 0
-1.30203 -0.223452 0.0129 0
-1.30001 -0.221535 0.00960001 0
-1.29765 -0.219405 0.00960001 0
-1.29282 -0.216252 0.00800001 0
-1.28851 -0.216328 0.00800001 0
-1.28425 -0.212433 0.0086 0
-1.2822 -0.210535 0.0107 0
-1.28015 -0.208642 0.0107 0
-1.27666 -0.208124 0.0107 0
-1.27417 -0.205958 0.0118 0
-1.2722 -0.200101 0.00960001 0
-1.27004 -0.198137 0.00960001 0
-1.26427 -0.199662 0.00960001 0
-1.26167 -0.197469 0.0119 0
-1.25952 -0.195554 0.0119 0
-1.25648 -0.19024 0.0124 0
-1.25422 -0.188288 0.0124 0
-1.25017 -0.187519 0.0101 0
-1.24463 -0.185283 0.0117 0
-1.24112 -0.184856 0.0117 0
-1.23973 -0.182324 0.0117 0
-1.23721 -0.180242 0.0123 0
-1.23436 -0.17911 0.0123 0
-1.22992 -0.175294 0.00980001 0
-1.22987 -0.171305 0.00980001 0
-1.22511 -0.171302 0.00960001 0
-1.21997 -0.168284 0.0107 0
-1.21917 -0.165018 0.0107 0
-1.21555 -0.164596 0.0107 0
-1.21348 -0.161732 0.0105 0
-1.20885 -0.157956 0.0129 0
-1.20661 -0.156101 0.0129 0
-1.20437 -0.154268 0.0129 0
-1.19873 -0.151081 0.0139 0
-1.19581 -0.149987 0.013 0
-1.19288 -0.148897 0.013 0
-1.19087 -0.146124 0.013 0
-1.18625 -0.142473 0.00950001 0
-1.18383 -0.140594 0.0108 0
-1.18072 -0.139468 0.0108 0
-1.17715 -0.138106 0.0108 0
-1.17167 -0.135154 0.0112 0
-1.16988 -0.132559 0.0138 0
-1.16685 -0.131482 0.0138 0
-1.16531 -0.127921 0.0138 0
-1.1593 -0.125883 0.0163 0
-1.15702 -0.124146 0.0132 0
-1.15129 -0.12118 0.0132 0
-1.149 -0.119453 0.00970001 0
-1.14808 -0.116259 0.00970001 0
-1.14515 -0.115293 0.0114 0
-1.14062 -0.11081 0.0114 0
-1.13634 -0.111379 0.0118 0
-1.13536 -0.108181 0.0118 0
-1.13381 -0.105788 0.0113 0
-1.12611 -0.105238 0.0113 0
-1.12391 -0.103602 0.0146 0
-1.1217 -0.101969 0.0146 0
-1.11893 -0.101149 0.0121 0
-1.11392 -0.0975968 0.0121 0
-1.11159 -0.0959289 0.0125 0
-1.10863 -0.095034 0.0125 0
-1.10685 -0.0925649 0.0112 0
-1.10196 -0.08809 0.0112 0
-1.09932 -0.0863169 0.0135 0
-1.09672 -0.0845791 0.0135 0
-1.09089 -0.0808199 0.0123 0
-1.08825 -0.0790725 0.0123 0
-1.08559 -0.0773228 0.0135 0
-1.08063 -0.0739732 0.0135 0
-1.07796 -0.0722434 0.0142 0
-1.07565 -0.0706914 0.0142 0
-1.07325 -0.0690965 0.01 0
-1.06856 -0.0659474 0.00900001 0
-1.06518 -0.0649944 0.00900001 0
-1.0629 -0.063456 0.00900001 0
-1.06123 -0.0611371 0.0113 0
-1.05893 -0.0596114 0.0113 0
-1.05392 -0.0564296 0.00910001 0
-1.05171 -0.0549474 0.00910001 0
-1.04888 -0.0542566 0.0116 0
-1.04723 -0.0519841 0.0116 0
-1.04188 -0.0496964 0.0085 0
-1.04009 -0.0473599 0.0085 0
-1.03653 -0.0463709 0.0121 0
-1.03185 -0.0434459 0.0113 0
-1.02943 -0.0419289 0.0113 0
-1.0276 -0.0396095 0.0113 0
-1.02457 -0.0388997 0.0096 0
-1.02019 -0.0350297 0.01 0
-1.01736 -0.0344119 0.01 0
-1.01572 -0.032197 0.01 0
-1.01279 -0.0315518 0.0137 0
-1.01481 -0.0187955 0.0156 0
-1.00588 -0.0261788 0.0156 0
-1.00287 -0.0255168 0.0156 0
-1.00054 -0.0230202 0.0129 0
-0.996171 -0.0203213 0.0123 0
-0.993805 -0.0188334 0.0123 0
-0.99155 -0.0174415 0.0123 0
-0.987832 -0.0129525 0.0148 0
-0.985447 -0.0115433 0.0118 0
-0.983631 -0.00930452 0.0118 0
-0.980229 -0.009565 0.0118 0
-0.975843 -0.00691058 0.0127 0
-0.975008 -0.00400868 0.0141 0
-0.972964 -0.00271135 0.0141 0
-0.970956 -0.00144498 0.0141 0
-0.966138 0.000338049 0.0093 0
-0.963571 0.000772669 0.0081 0
-0.961473 0.00206669 0.0081 0
-0.958143 0.00638557 0.0103 0
-0.956079 0.00764054 0.0103 0
-0.953983 0.00891878 0.0121 0
-0.951441 0.0104437 0.0121 0
-0.947585 0.0127543 0.0099 0
-0.945514 0.0140143 0.0099 0
-0.943441 0.0152872 0.0111 0
-0.94091 0.0156966 0.0111 0
-0.936426 0.0183211 0.0087 0
-0.934326 0.0195831 0.0087 0
-0.932118 0.0208737 0.0109 0
-0.929988 0.022134 0.0109 0
-0.927763 0.0234176 0.0109 0
-0.923215 0.0260207 0.0082 0
-0.921683 0.0280988 0.0107 0
-0.919576 0.0293498 0.0107 0
-0.915179 0.0319106 0.0098 0
-0.913037 0.0331606 0.0098 0
-0.909908 0.0337747 0.0107 0
-0.908243 0.034775 0.0107 0
-0.903999 0.0382891 0.0124 0
-0.901871 0.0395274 0.0124 0
-0.898577 0.0437027 0.0109 0
-0.896538 0.0448973 0.0109 0
-0.893733 0.0453646 0.0134 0
-0.889088 0.0468999 0.0091 0
-0.887633 0.0488989 0.0091 0
-0.885739 0.0510498 0.0091 0
-0.883611 0.0522616 0.0103 0
-0.881367 0.0535068 0.0103 0
-0.877817 0.0566952 0.0105 0
-0.875037 0.0570928 0.0105 0
-0.872273 0.057512 0.0129 0
-0.868168 0.0598699 0.0115 0
-0.866019 0.0610684 0.0115 0
-0.864818 0.063998 0.0115 0
-0.860749 0.0663212 0.01 0
-0.858354 0.0676473 0.0144 0
-0.856242 0.0677292 0.0144 0
-0.854524 0.0697888 0.0144 0
-0.849683 0.071333 0.0096 0
-0.847624 0.0724921 0.0112 0
-0.845557 0.0736274 0.0112 0
-0.841318 0.075983 0.0151 0
-0.839282 0.0771281 0.0151 0
-0.837244 0.0782764 0.0134 0
-0.833213 0.080517 0.0134 0
-0.831625 0.0825729 0.0113 0
-0.829558 0.0837211 0.0113 0
-0.827394 0.0848892 0.0139 0
-0.822956 0.0871971 0.0139 0
-0.820728 0.0883971 0.0116 0
-0.818583 0.089551 0.0116 0
-0.816531 0.0906857 0.012 0
-0.812334 0.0929607 0.012 0
-0.810996 0.0948794 0.013 0
-0.809024 0.0959747 0.013 0
-0.805545 0.099019 0.0106 0
-0.803461 0.100144 0.0106 0
-0.801493 0.10123 0.0089 0
-0.797466 0.103419 0.01 0
-0.79546 0.104512 0.01 0
-0.793695 0.105555 0.01 0
-0.790271 0.107578 0.013 0
-0.788578 0.108591 0.0093 0
-0.787203 0.110517 0.0093 0
-0.783632 0.112569 0.0101 0
-0.782248 0.114483 0.0101 0
-0.780354 0.115536 0.0085 0
-0.779154 0.117387 0.0085 0
-0.775714 0.119443 0.0119 0
-0.773931 0.120473 0.0119 0
-0.770256 0.122558 0.0097 0
-0.768482 0.123576 0.0097 0
-0.764626 0.125698 0.0078 0
-0.762645 0.126778 0.0076 0
-0.758891 0.128888 0.0076 0
-0.757012 0.129944 0.01 0
-0.753243 0.132069 0.0113 0
-0.752002 0.133916 0.0113 0
-0.748135 0.136056 0.0083 0
-0.746153 0.137131 0.0083 0
-0.74441 0.139224 0.0099 0
-0.741104 0.141057 0.0099 0
-0.739307 0.142074 0.0093 0
-0.738024 0.143965 0.0093 0
-0.734811 0.145886 0.0105 0
-0.733152 0.146874 0.0105 0
-0.731308 0.147929 0.0092 0
-0.729527 0.148947 0.0092 0
-0.725809 0.149991 0.0086 0
-0.724214 0.150942 0.0086 0
-0.723023 0.152818 0.0103 0
-0.721552 0.153736 0.0103 0
-0.718347 0.155638 0.0086 0
-0.716664 0.156622 0.0086 0
-0.713207 0.158633 0.0104 0
-0.711628 0.159604 0.008 0
-0.709941 0.160602 0.008 0
-0.707359 0.163392 0.01 0
-0.705894 0.164316 0.01 0
-0.704036 0.165412 0.0095 0
-0.70322 0.16708 0.0095 0
-0.699715 0.169142 0.0119 0
-0.697938 0.170173 0.0119 0
-0.696253 0.171169 0.0095 0
-0.694601 0.172137 0.0095 0
-0.691255 0.174134 0.0075 0
-0.689674 0.175094 0.0075 0
-0.68843 0.177019 0.0062 0
-0.687113 0.177825 0.0062 0
-0.683856 0.179784 0.0087 0
-0.68219 0.180775 0.0087 0
-0.681016 0.182631 0.0069 0
-0.679498 0.183567 0.0069 0
-0.676158 0.185586 0.0091 0
-0.675583 0.188281 0.0091 0
-0.673503 0.188373 0.007 0
-0.672424 0.190189 0.007 0
-0.670831 0.191151 0.007 0
-0.667668 0.193127 0.0103 0
-0.666091 0.194096 0.0097 0
-0.663926 0.194213 0.0097 0
-0.662852 0.196044 0.0097 0
-0.659618 0.198039 0.007 0
-0.658143 0.19899 0.0078 0
-0.656605 0.199937 0.0078 0
-0.655152 0.200863 0.0078 0
-0.653784 0.205306 0.0068 0
-0.652198 0.206293 0.0068 0
-0.650249 0.206334 0.0068 0
-0.647641 0.209172 0.0062 0
-0.645446 0.209327 0.0062 0
-0.642949 0.212081 0.0082 0
-0.641569 0.212987 0.0082 0
-0.639974 0.213998 0.0044 0
-0.636511 0.215049 0.0091 0
-0.634998 0.215985 0.0091 0
-0.634026 0.217796 0.0091 0
-0.630992 0.219735 0.0092 0
-0.629919 0.22158 0.0085 0
-0.628527 0.22248 0.0085 0
-0.627677 0.224251 0.0085 0
-0.624439 0.225218 0.0057 0
-0.62352 0.227005 0.0092 0
-0.622702 0.228766 0.0092 0
-0.61972 0.230746 0.0078 0
-0.617736 0.23087 0.0078 0
-0.616981 0.232637 0.0098 0
-0.614181 0.234485 0.0098 0
-0.612234 0.234594 0.0068 0
-0.611296 0.2364 0.0068 0
-0.609937 0.23732 0.0088 0
-0.608016 0.239916 0.0088 0
-0.606038 0.240057 0.005 0
-0.60417 0.240144 0.005 0
-0.602926 0.241095 0.0076 0
-0.600155 0.242936 0.0076 0
-0.600233 0.246507 0.0084 0
-0.598887 0.247439 0.0084 0
-0.596423 0.249222 0.0062 0
-0.594555 0.249296 0.0062 0
-0.592558 0.249461 0.0058 0
-0.591732 0.251272 0.0058 0
-0.590887 0.2531 0.0102 0
-0.588546 0.255893 0.0102 0
-0.586422 0.256108 0.0053 0
-0.584941 0.257101 0.0053 0
-0.582397 0.258923 0.0036 0
-0.580509 0.259018 0.0036 0
-0.579665 0.260855 0.0046 0
-0.577794 0.260961 0.0046 0
-0.576024 0.263611 0.0067 0
-0.57466 0.264572 0.0067 0
-0.572209 0.263886 0.0062 0
-0.571399 0.265684 0.0062 0
-0.569068 0.267462 0.0053 0
-0.567727 0.268411 0.0053 0
-0.566493 0.269341 0.0066 0
-0.565479 0.273877 0.006 0
-0.564135 0.273673 0.006 0
-0.561746 0.272931 0.006 0
-0.560934 0.274781 0.0089 0
-0.561311 0.278256 0.0089 0
-0.559057 0.280016 0.0069 0
-0.556746 0.279259 0.0069 0
-0.555919 0.281119 0.0055 0
-0.554685 0.282063 0.0055 0
-0.551804 0.283043 0.0045 0
-0.550577 0.283978 0.0045 0
-0.549194 0.284983 0.0065 0
-0.546877 0.286786 0.0032 0
-0.545626 0.287708 0.0032 0
-0.544856 0.289523 0.0032 0
-0.542919 0.292301 0.0063 0
-0.540602 0.291583 0.006 0
-0.539329 0.292532 0.006 0
-0.538546 0.294349 0.006 0
-0.535587 0.295408 0.0052 0
-0.535349 0.298062 0.0061 0
-0.534155 0.298975 0.0061 0
-0.532048 0.301771 0.0064 0
-0.530811 0.302738 0.0064 0
-0.529309 0.303864 0.0047 0
-0.525812 0.304009 0.0047 0
-0.524393 0.305063 0.0028 0
-0.526046 0.310138 0.0028 0
-0.524171 0.310291 0.0024 0
-0.521506 0.312261 0.0024 0
-0.520741 0.314101 0.0029 0
-0.518317 0.316021 0.0096 0
-0.5171 0.316981 0.0096 0
-0.515196 0.317161 0.0096 0
-0.512904 0.31906 0.0059 0
-0.512247 0.320859 0.0047 0
-0.511722 0.322562 0.0047 0
-0.509995 0.32531 0.0019 0
-0.507753 0.324603 0.0019 0
-0.508205 0.328091 0.0074 0
-0.503882 0.326589 0.0074 0
-0.503592 0.32827 0.0013 0
-0.502489 0.32921 0.0013 0
-0.501456 0.330213 0.0082 0
-0.500469 0.333571 0.0082 0
-0.497815 0.332011 0.0044 0
-0.497308 0.333771 0.0044 0
-0.494509 0.332247 0.0047 0
-0.49285 0.33236 0.0047 0
-0.494406 0.339071 0.0036 0
-0.493422 0.339968 0.0036 0
-0.492591 0.340848 0.0041 0
-0.491461 0.341708 0.0041 0
-0.490478 0.342625 0.0041 0
-0.488514 0.344482 0.0076 0
-0.486855 0.344609 0.0054 0
-0.485727 0.345545 0.0054 0
-0.484385 0.348178 0.0016 0
