ply
format ascii 1.0
element vertex 440
property float x
property float y
property float z
property float intensity
end_header
-3.3972 -1.30831 -0.0066 0
0.910646 -0.324117 0.00519091 0
-3.50407 -1.4469 -0.0039 0
-0.521808 0.591967 -0.00301333 0
-3.45398 -1.39444 -0.0031 0
-3.34484 -1.25411 -0.0003 0
-3.48217 -1.42638 -0.00399048 0
-3.61733 -1.53074 -0.00546191 0
-0.476606 0.577627 -0.00312631 0
-3.4989 -1.79803 -0.0052 0
0.808447 -0.776731 0.00645294 0
-0.027703 0.513924 -0.000990909 0
-3.49191 -1.82469 -0.00532222 0
-3.46267 -1.92596 -0.008 0
-3.42987 -2.02641 -0.00769444 0
0.906605 0.0243974 0.00346111 0
-3.41206 -2.07601 -0.00763889 0
-3.40179 -2.10465 -0.00763333 0
-3.41493 -1.33191 -0.0018 0
-3.39369 -2.1298 -0.00881333 0
0.631419 -1.32483 0.0027619 0
-3.44019 -1.37112 -0.00155 0
-3.55075 -1.49613 -0.00576 0
-3.37793 -2.17474 -0.00870588 0
0.619815 -1.37474 0.00229565 0
-3.32089 -2.32485 -0.0102 0
-3.30573 -2.36289 -0.00998751 0
-3.24781 -2.49385 -0.00913334 0
0.639985 -1.77427 0.002 0
-3.23418 -2.52474 -0.0106375 0
-3.1623 -2.66781 -0.0110769 0
0.519628 -2.05031 0.0029 0
-3.14626 -2.69545 -0.00975001 0
-3.12714 -2.72598 -0.00916668 0
0.911277 -0.0343587 -0.00090001 0
-3.10722 -2.76174 -0.0114286 0
0.915176 -0.097098 -0.00010001 0
-3.00202 -2.90028 -0.00830001 0
-2.95645 -2.95836 -0.00900001 0
-2.89143 -3.03879 -0.0102053 0
-2.84085 -3.09557 -0.00775001 0
-2.57544 -3.22752 -0.00906191 0
-2.43101 -3.29421 -0.00818462 0
-2.40755 -3.30289 -0.006175 0
-3.21137 -2.57214 -0.00962309 0
-2.37509 -3.31181 -0.00908947 0
-2.17768 -3.35571 -0.00939131 0
-2.12162 -3.35846 -0.011208 0
0.590693 -1.57666 -0.003725 0
-2.07508 -3.36096 -0.0113382 0
-1.8787 -3.38814 -0.0133333 0
-3.47695 -1.87478 -0.005995 0
0.126671 0.524919 -0.00228571 0
-1.77373 -3.37477 -0.0112769 0
-0.7109 -2.68995 -0.00692667 0
-0.575901 -2.57082 -0.00773751 0
-0.436408 -2.46012 -0.01198 0
0.63167 -1.76526 -0.00330834 0
0.0455096 -2.19126 -0.00590001 0
-0.125659 -2.28165 -0.00622106 0
-0.280595 -2.36248 -0.00884168 0
-1.68569 -3.35457 -0.0149778 0
-1.51703 -3.29467 -0.0123727 0
-0.923503 -2.87865 -0.0092577 0
-0.788381 -2.75865 -0.00880833 0
-1.05493 -2.99768 -0.00876001 0
0.123241 -2.16301 -0.00295556 0
-1.66081 -3.34737 -0.0143833 0
-0.764204 -2.73763 -0.00789376 0
-0.630338 -2.61613 -0.00641539 0
-0.496668 -2.50366 -0.01106 0
-0.345613 -2.403 -0.0111 0
-0.024906 -2.22791 -0.00469334 0
-0.180981 -2.31013 -0.00759413 0
-1.62585 -3.33646 -0.0131133 0
-0.870826 -2.83159 -0.010955 0
-0.735676 -2.71317 -0.00677779 0
0.184247 -2.14779 -0.00408001 0
0.0135995 -2.2075 -0.00313334 0
-1.57677 -3.31917 -0.0115875 0
-1.41074 -3.24491 -0.00947501 0
-1.25518 -3.14698 -0.00780001 0
-1.11143 -3.041 -0.00738183 0
-0.843191 -2.80781 -0.00956668 0
0.224787 -2.13756 -0.00415 0
0.681804 -1.81911 -0.00172857 0
-0.974959 -2.92698 -0.00918519 0
-3.185 -2.62386 -0.0110615 0
0.522418 -2.04555 0.0029 0
0.359377 -2.10817 0.0009 0
-1.54262 -3.30469 -0.00960001 0
-1.22381 -3.12736 -0.00801501 0
-1.37376 -3.22369 -0.00915791 0
0.267433 -2.12735 -0.00131667 0
-1.07917 -3.01628 -0.00828422 0
0.704459 -1.84381 -0.003 0
-0.949388 -2.90203 -0.00640001 0
-3.19821 -2.59731 -0.0113667 0
-2.32351 -3.32395 -0.00978889 0
-2.27442 -3.3363 -0.00967273 0
-1.47588 -3.27632 -0.0106222 0
-1.31847 -3.18884 -0.00883572 0
-1.16786 -3.0855 -0.00757223 0
-0.894236 -2.85304 -0.0107 0
-1.02546 -2.97214 -0.00862309 0
0.158657 -2.15328 -0.00175001 0
-1.34251 -3.20381 -0.00868001 0
-1.19447 -3.10535 -0.00871668 0
0.347396 -2.10893 -0.002 0
0.493973 -2.0422 -0.00183334 0
-1.28087 -3.16398 -0.00824668 0
-1.13627 -3.05918 -0.00799168 0
-1.4353 -3.25755 -0.00968001 0
0.394476 -2.06663 -0.00310001 0
-2.75361 -3.15121 -0.00950001 0
-2.72458 -3.16352 -0.0100813 0
-3.60139 -1.55418 -0.004425 0
-3.36113 -2.22487 -0.00994118 0
0.609088 -1.42136 0.00196667 0
-3.06406 -2.81885 -0.00818463 0
-0.684352 -2.6648 -0.00761818 0
-1.72592 -3.36512 -0.0115462 0
-0.543481 -2.55628 -0.0112 0
0.655893 -1.7913 -0.00376 0
0.074396 -2.18014 -0.00262001 0
-0.818141 -2.78318 -0.00902501 0
-0.0811203 -2.25891 -0.00616155 0
-0.6054 -2.59477 -0.00552858 0
-1.82435 -3.38395 -0.01085 0
-0.156255 -2.29794 -0.00612001 0
-0.322549 -2.38717 -0.00980801 0
-0.470207 -2.48394 -0.01015 0
-0.551025 -2.54954 -0.0112 0
0.605959 -1.73562 -0.003728 0
-0.255501 -2.34824 -0.00402001 0
-0.41156 -2.44217 -0.00930001 0
0.588398 -1.63004 -0.00325455 0
0.758468 -0.920759 0.00825 0
0.592789 -1.53202 -0.00166667 0
0.774431 -0.876014 0.00792941 0
0.0787732 0.520398 -0.00153 0
0.600488 -1.46413 0.00166667 0
-3.35169 -2.25177 -0.0097 0
-2.47456 -3.27928 -0.00771251 0
0.603188 -1.45595 -0.00153334 0
-2.21176 -3.35169 -0.00918182 0
-2.93741 -2.98331 -0.00911668 0
0.699587 -1.0988 0.0043 0
-3.45222 -1.95689 -0.0093 0
0.790146 -0.826022 0.0096625 0
0.432579 -2.06476 -0.00182308 0
0.732076 -1.87037 -0.00183077 0
-1.9258 -3.37754 -0.0124 0
0.824158 -0.72558 0.00721875 0
-3.44514 -1.98102 -0.00889286 0
0.910409 0.0743877 0.00457631 0
0.708764 -1.07431 0.00519412 0
0.597342 -1.71106 -0.00394286 0
0.91298 -0.0725605 0.00279393 0
-2.93542 -0.77106 -0.00297692 0
-0.525275 -2.52624 -0.00936668 0
-0.65877 -2.64111 -0.00846001 0
-0.0561485 -2.24546 -0.00485001 0
-0.225374 -2.33289 -0.00756668 0
-0.374138 -2.41895 -0.0110276 0
0.917926 0.124731 0.00515 0
0.725432 -1.02533 0.00678421 0
0.909916 -0.0242944 0.00329722 0
-2.90881 -0.738582 -0.00224444 0
-2.77911 -0.620283 -0.00138462 0
-0.817463 0.694359 -0.00674 0
0.923838 -0.148847 -0.0008 0
0.913785 0.295004 -0.0049 0
0.908744 0.322181 -0.00253462 0
-3.25937 -2.46915 -0.0112167 0
0.589123 -1.60907 0.00324 0
0.2938 -2.11988 0.0017 0
0.894338 -2.15134 -0.0012 0
0.901228 -0.408553 0.00556667 0
-0.394573 0.551755 -0.00465 0
0.589208 -1.57377 0.00143333 0
0.904036 -0.373557 0.00642105 0
-3.52179 -1.47166 -0.00412963 0
-3.14631 -1.00709 -0.00115 0
-2.70969 -0.533371 -0.000899999 0
0.124161 0.524387 0.00111667 0
-2.66404 -0.474891 -0.002 0
-0.875268 0.712715 -0.00614666 0
-2.42911 -0.190942 -0.00145 0
-3.16619 -1.03302 -0.00115 0
0.593131 -1.51785 0.00199091 0
-2.6242 -0.424289 -0.00103077 0
0.0720808 0.519015 0.00207333 0
-3.31589 -1.2209 -0.002275 0
-2.57958 -0.369417 -0.00204444 0
-0.925795 0.72684 -0.00729333 0
-2.86353 -0.68579 -0.00178571 0
-2.73434 -0.565083 -0.002925 0
-2.5547 -0.340304 -0.00263333 0
-0.026002 0.512922 0.00407368 0
-2.81946 -0.635984 -0.00210769 0
0.154355 0.526714 0.0017 0
-2.69061 -0.507547 -0.00276667 0
-2.51246 -0.29122 -0.0011 0
-1.003 0.749114 -0.00805 0
-3.14187 -1.00123 0.0006 0
-2.7569 -0.597076 -0.00125 0
-0.841572 0.70187 -0.00782 0
-2.64914 -0.454448 -0.0025 0
-2.46812 -0.237256 -0.0009 0
-0.0752414 0.51571 0.002084 0
-2.4169 -0.17597 0.00261905 0
-3.15833 -1.02383 0.00105 0
-2.37209 -0.125823 0.0029 0
-3.1196 -0.975686 0.00186667 0
-3.12073 -0.976775 -0.001575 0
-1.29766 0.834066 0.0035 0
0.0217293 0.514952 0.0027 0
-2.53403 -0.313644 -0.00167857 0
-2.35105 -0.0982281 -0.0008 0
-2.3353 -0.0756243 0.00162667 0
-3.0773 -0.929083 0.00136667 0
-3.22961 -1.12376 0.0023125 0
-2.31215 -0.0416375 0.00407143 0
-0.973771 0.741162 -0.00741667 0
-2.49422 -0.269096 -0.00163333 0
-2.29298 -0.0147857 0.00226364 0
-3.03689 -0.884154 0.00161429 0
-1.30328 0.835451 0.0035 0
-2.26673 0.0207593 -0.0018875 0
-1.81038 0.667156 -0.00788234 0
-1.52467 0.871134 -0.01084 0
-2.04142 0.33635 -0.00390714 0
-1.27273 0.83067 -0.00735714 0
-3.52155 -1.72529 -0.004095 0
-0.130335 0.518801 -0.000899999 0
-1.17431 0.810891 -0.0120333 0
-2.24738 0.0479315 0.0021 0
-2.98252 -0.823435 0.00108889 0
0.596754 -1.48294 -0.00174445 0
-2.52653 -3.25986 -0.0105125 0
-0.275891 0.526222 -0.00205652 0
0.866503 -0.575354 0.0058875 0
-0.324981 0.534938 0.00114 0
0.893225 -2.15573 0.0004 0
-2.53784 -0.318096 0.0014 0
-3.27781 -1.18043 0.000888889 0
0.920425 0.225422 0.00462143 0
0.748734 -0.94604 0.0074 0
-2.14436 0.190499 0.00267778 0
-0.370451 0.545791 -0.00335294 0
-2.7099 -0.533052 0.00182 0
0.898121 -1.99281 -0.00328 0
-1.71042 0.812161 -0.0108389 0
-1.42674 0.854333 -0.0117652 0
-1.86921 0.57327 -0.00785416 0
-0.324704 0.535032 -0.00281667 0
-2.05873 0.312036 -0.00466667 0
-1.32864 0.83818 -0.00665556 0
-0.411029 0.556689 0.00105 0
-1.94892 0.448916 -0.0022 0
-2.66913 -0.480057 0.00152308 0
-1.83484 0.627095 -0.00779999 0
-1.67648 0.855094 -0.0115 0
-2.10088 0.251763 0.0009 0
0.662345 -2.03636 -0.002275 0
-1.9897 0.385571 -0.00516667 0
-3.26905 -1.17049 -0.0016 0
-0.575355 0.608057 -0.002925 0
-2.26571 0.021982 0.00262667 0
-1.79535 0.691761 -0.00888888 0
-1.47267 0.860927 -0.010632 0
-1.38617 0.85031 -0.0106 0
-1.96388 0.424488 -0.00681 0
-0.468896 0.574744 0.001425 0
-1.3784 0.84493 -0.0109174 0
-2.8385 -0.658466 0.0006 0
0.487833 -2.05273 0.0012 0
-1.67299 0.925894 -0.0106667 0
-2.23755 0.061293 -0.00103333 0
-1.90855 0.512596 -0.00766667 0
-2.07965 0.281968 -0.00249444 0
-2.30363 -0.0301493 -0.00155 0
-1.11331 0.793157 -0.0112714 0
-0.226674 0.523648 0.000853846 0
-2.62487 -0.424379 0.00214167 0
-3.3674 -1.27406 0.00155 0
0.678974 -1.81366 0.0003 0
-2.98205 -2.92567 -0.0101381 0
-2.75248 -0.590362 0.0009 0
-2.64634 -0.45197 0.0009 0
-2.4639 -0.232185 0.00204444 0
-3.20697 -1.08773 0.00161667 0
-1.756 0.756429 -0.0113812 0
-1.60675 0.892138 -0.0112 0
-2.09504 0.259877 0.000671428 0
-1.07421 0.777984 -0.00734999 0
-0.175457 0.519726 0.00166667 0
-2.286 -0.00457493 -0.0002 0
-3.02486 -0.870482 -0.00199 0
-1.22753 0.822789 -0.00811818 0
-2.1159 0.230483 -0.000821428 0
-2.82134 -0.639387 0.0007 0
-2.69206 -0.509924 0.00266 0
-2.39874 -0.15294 0.00273333 0
-2.50827 -0.285022 0.00185 0
-1.68853 0.836153 -0.0112579 0
-2.12527 0.217727 0.00121538 0
0.421806 -2.06864 0.000875 0
-2.33165 -0.0700666 -0.000514286 0
-1.70935 0.932511 -0.0125 0
-2.15851 0.171002 -0.0005 0
-2.86119 -0.684006 0.0025 0
-2.73716 -0.568872 0.00095 0
0.895682 -2.00689 -0.00383333 0
-3.47523 -1.42038 0.00058 0
-2.44422 -0.208011 0.00205556 0
-2.5586 -0.343986 0.00216 0
-1.57625 0.884487 -0.01183 0
-1.73303 0.78257 -0.00999654 0
-0.532697 0.59554 9.99998e-05 0
-1.40693 0.84931 -0.0129333 0
-1.89278 0.537111 -0.00752727 0
-2.16148 0.166379 0.00206 0
-2.37354 -0.127398 -0.000816666 0
-1.02728 0.759386 -0.00727778 0
-0.123977 0.517303 0.00177273 0
-2.89035 -0.715977 0.001075 0
-3.27987 -2.42572 -0.00948668 0
-1.85188 0.602542 -0.00959999 0
-2.01461 0.358861 -0.00413571 0
-1.13874 0.801881 -0.00978 0
-2.1849 0.133672 -0.0009 0
-2.77713 -3.13864 -0.00676365 0
-2.588 -0.379357 0.000871428 0
-3.32792 -1.2328 0.00175 0
0.929406 -0.222888 -0.001 0
-2.18566 0.132842 0.00259474 0
0.488838 -2.04946 0.0012 0
0.323951 -2.11411 0.00553333 0
-2.91445 -0.744887 0.0029 0
-2.76877 -0.612503 0.000975 0
-2.48851 -0.261271 0.0016 0
-2.60288 -0.398057 0.0019 0
0.661281 -1.79699 0.0012 0
-1.77053 0.73092 -0.0102787 0
-1.93253 0.475012 -0.00749048 0
-1.18192 0.812152 0.0002 0
-2.20469 0.107292 0.00218571 0
-1.63964 0.919353 -0.0102333 0
0.643142 -1.27558 0.00417 0
-2.22657 0.0767564 0.00206087 0
-2.95622 -0.794143 -0.0027 0
-2.84235 -0.661048 -0.00113333 0
-2.98026 -0.820719 -0.00198461 0
-0.722563 0.661358 -0.00645 0
-3.00296 -0.846741 -0.001725 0
-0.775866 0.680557 -0.00743125 0
-2.8862 -0.711772 -0.0023 0
-3.05142 -0.899359 0.0027 0
-2.93245 -0.767846 0.001 0
-2.02541 -3.36527 -0.0111917 0
-0.175407 0.519573 -0.0012125 0
0.839877 -0.675037 0.00654667 0
-3.50749 -1.77288 -0.00464445 0
-0.0728697 0.515831 -0.00216666 0
0.690481 -1.124 0.00523684 0
-2.91259 -3.014 -0.0107522 0
-3.3406 -2.27649 -0.0096875 0
-0.084677 -1.97793 0.00279999 0
0.575004 -2.03813 0.0004 0
0.578798 -2.03936 -0.00315455 0
0.855335 -0.617299 0.00709091 0
0.954121 -2.06645 -2.32831e-10 0
0.949009 -2.04914 -0.0043 0
0.954638 -2.03456 -0.00335 0
0.947966 -2.05654 -0.001175 0
0.805867 -1.92705 9.99998e-05 0
0.465503 -2.0543 -0.00371667 0
0.750807 -1.89021 -0.004 0
0.56867 -2.05086 -0.0015 0
0.623971 -2.04012 -0.00226364 0
0.774605 -1.90845 -0.000675 0
-3.02166 -2.87494 -0.01037 0
0.928552 -0.228234 0.00402381 0
-3.23063 -1.12701 -0.00185 0
-0.822906 0.452816 -0.0071 0
0.604604 -1.73223 0.000825 0
-3.04488 -2.84327 -0.012 0
-3.2953 -2.38718 -0.00997501 0
0.593448 -1.68426 0.00175 0
-3.08908 -2.78738 -0.00911819 0
0.847917 -0.643734 0.00455 0
-0.6247 0.624481 -0.00361667 0
-3.18829 -1.0613 -0.00192 0
0.661759 -0.372405 0.0089 0
-2.87416 -3.06553 -0.010264 0
0.650397 -1.25072 0.0065 0
-2.81584 -3.11362 -0.00444287 0
0.657677 -1.22467 0.00528 0
0.673416 -1.1743 0.00505714 0
-3.55765 -1.50607 -0.0043 0
-0.427141 0.562194 -0.003 0
0.897165 -0.433563 0.00675385 0
-3.58661 -1.57912 -0.00487083 0
0.889342 -0.473591 0.00603529 0
-2.67393 -3.18118 -0.00937188 0
-2.89051 -3.03694 0.00019999 0
-3.55955 -1.62299 -0.00595161 0
0.878742 -0.52482 0.00563333 0
0.592566 -1.67465 -0.00310909 0
-1.9747 -3.37107 -0.0117079 0
0.909539 0.320882 0.00542844 0
-2.63413 -3.19392 -0.00930417 0
-3.54904 -1.64655 -0.006025 0
0.596432 -1.48435 0.0020125 0
0.605684 -1.43978 -0.0006 0
-2.23223 -3.34538 -0.00833809 0
-3.20266 -1.08173 -0.0027 0
0.92782 -0.174824 0.00389545 0
-0.670064 0.64142 -0.0058 0
-3.09743 -0.951789 -0.0004 0
-2.54463 -3.24718 -0.00914444 0
-3.07297 -0.923873 -0.00144762 0
-0.695875 0.651187 -0.00646667 0
0.918894 -0.123583 0.00306176 0
0.918408 -0.270783 0.00469705 0
-3.37359 -1.28194 -0.00444444 0
-0.538955 0.600666 -0.00626667 0
-3.58194 -1.58459 0.0002 0
0.354276 -2.111 -0.002 0
0.536543 -2.04231 -0.00366364 0
0.920053 0.174333 0.00505882 0
0.153445 0.5272 -0.0025 0
0.74064 -0.974975 0.0081647 0
0.0296209 0.51484 -0.00059 0
0.916938 0.273069 0.00616 0
-2.60979 -3.20587 -0.00941251 0
-0.225757 0.52294 -0.00172143 0
-3.53801 -1.67354 -0.00653898 0
